-3.57599998	6.92210007	0.061999999	0	200	0
-3.51600003	6.9218998	0.0939999968	0	200	0
-3.5250001	6.92199993	0.0879999995	0	200	0
-3.50900006	6.9218998	0.0900000036	0	200	0
-3.52800012	6.92180014	0.0860000029	0	200	0
-3.59699988	6.9217	0.119999997	0	200	0
-3.53600001	6.92180014	0.115999997	0	200	0
-3.59200001	6.92210007	0.105999999	0	200	0
-3.55500007	6.92199993	0.104000002	0	200	0
-3.59100008	6.92210007	0.0879999995	0	200	0
-3.58699989	6.9217	0.100000001	0	200	0
-3.59200001	6.9217	0.0879999995	0	200	0
-3.51099992	6.9218998	0.115999997	0	200	0
-3.54200006	6.92180014	0.174999997	0	200	0
-3.5940001	6.92210007	0.140000001	0	200	0
-3.602	6.9217	0.135000005	0	200	0
-3.60400009	6.92210007	0.123999998	0	200	0
-3.55299997	6.92199993	0.166999996	0	200	0
-3.53200006	6.9218998	0.172000006	0	200	0
-3.53699994	6.92199993	0.169	0	200	0
-3.60400009	6.9217	0.125	0	200	0
-3.54299998	6.92180014	0.165000007	0	200	0
-3.52900004	6.9218998	0.165000007	0	200	0
-3.54200006	6.92199993	0.157000005	0	200	0
-3.54500008	6.92180014	0.155000001	0	200	0
-3.52200007	6.9218998	0.151999995	0	200	0
-3.53500009	6.92199993	0.143999994	0	200	0
-3.51999998	6.9218998	0.144999996	0	200	0
-3.53699994	6.92199993	0.133000001	0	200	0
-3.51999998	6.9218998	0.136000007	0	200	0
-3.53299999	6.92180014	0.136000007	0	200	0
-3.52999997	6.92199993	0.129999995	0	200	0
-3.52200007	6.9218998	0.126000002	0	200	0
-3.53600001	6.92180014	0.125	0	200	0
-3.59699988	6.92210007	0.147	0	200	0
-3.60400009	6.9217	0.142000005	0	200	0
-3.54399991	6.92199993	0.199000001	0	200	0
-3.59500003	6.92210007	0.165999994	0	200	0
-3.523	6.9218998	0.195999995	0	200	0
-3.53999996	6.92180014	0.185000002	0	200	0
-3.53600001	6.92199993	0.187000006	0	200	0
-3.52699995	6.9218998	0.184	0	200	0
-3.60800004	6.9217	0.158000007	0	200	0
-3.6170001	6.92210007	0.204999998	0	200	0
-3.61100006	6.92210007	0.200000003	0	200	0
-3.64100003	6.9217	0.199000001	0	200	0
-3.6170001	6.9217	0.204999998	0	200	0
-3.60299993	6.92210007	0.187999994	0	200	0
-3.63700008	6.9217	0.184	0	200	0
-3.59899998	6.92210007	0.180999994	0	200	0
-3.60800004	6.92210007	0.166999996	0	200	0
-3.61400008	6.9217	0.180000007	0	200	0
-3.6170001	6.9217	0.170000002	0	200	0
-3.61299992	6.9217	0.163000003	0	200	0
-3.54200006	6.92199993	0.209999993	0	200	0
-3.52999997	6.9218998	0.208000004	0	200	0
-3.61599994	6.9217	0.240999997	0	200	0
-3.546	6.92199993	0.26699999	0	200	0
-3.53699994	6.9218998	0.263999999	0	200	0
-3.60400009	6.92210007	0.231000006	0	200	0
-3.61199999	6.9217	0.225999996	0	200	0
-3.546	6.92199993	0.259000003	0	200	0
-3.60299993	6.92210007	0.223000005	0	200	0
-3.53500009	6.9218998	0.256999999	0	200	0
-3.55299997	6.92180014	0.254999995	0	200	0
-3.5480001	6.92199993	0.248999998	0	200	0
-3.53299999	6.9218998	0.25	0	200	0
-3.546	6.92199993	0.240999997	0	200	0
-3.54399991	6.92180014	0.243000001	0	200	0
-3.523	6.9218998	0.238999993	0	200	0
-3.523	6.9218998	0.230000004	0	200	0
-3.53900003	6.92199993	0.229000002	0	200	0
-3.53699994	6.92199993	0.221000001	0	200	0
-3.5309999	6.9218998	0.216999993	0	200	0
-3.54099989	6.9218998	0.296000004	0	200	0
-3.61899996	6.92210007	0.256000012	0	200	0
-3.6170001	6.9217	0.248999998	0	200	0
-3.55699992	6.92180014	0.286000013	0	200	0
-3.5539999	6.92199993	0.287999988	0	200	0
-3.54099989	6.9218998	0.287	0	200	0
-3.55999994	6.92180014	0.275999993	0	200	0
-3.55599999	6.92199993	0.277999997	0	200	0
-3.6329999	6.9217	0.247999996	0	200	0
-3.63800001	6.9217	0.252999991	0	200	0
-3.6170001	6.92210007	0.300000012	0	200	0
-3.64100003	6.9217	0.286000013	0	200	0
-3.63899994	6.9217	0.279000014	0	200	0
-3.64199996	6.9217	0.268000007	0	200	0
-3.62100005	6.92210007	0.280999988	0	200	0
-3.62199998	6.92210007	0.263000011	0	200	0
-3.64199996	6.9217	0.294	0	200	0
-3.54900002	6.92199993	0.307999998	0	200	0
-3.53800011	6.9218998	0.307000011	0	200	0
-3.55100012	6.92199993	0.298999995	0	200	0
-3.6400001	6.9217	0.338	0	200	0
-3.62400007	6.92210007	0.331	0	200	0
-3.61999989	6.92210007	0.324000001	0	200	0
-3.64100003	6.9217	0.328999996	0	200	0
-3.64199996	6.9217	0.319999993	0	200	0
-3.61500001	6.92210007	0.310000002	0	200	0
-3.64599991	6.9217	0.308999985	0	200	0
-3.55699992	6.92180014	0.363000005	0	200	0
-3.55299997	6.92199993	0.36500001	0	200	0
-3.54099989	6.9218998	0.354999989	0	200	0
-3.55100012	6.92199993	0.349000007	0	200	0
-3.55599999	6.92180014	0.338	0	200	0
-3.54500008	6.9218998	0.335999995	0	200	0
-3.55900002	6.92180014	0.326999992	0	200	0
-3.54200006	6.9218998	0.330000013	0	200	0
-3.55500007	6.92199993	0.330000013	0	200	0
-3.55500007	6.92199993	0.32100001	0	200	0
-3.53699994	6.9218998	0.316000015	0	200	0
-3.62700009	6.92210007	0.338	0	200	0
-3.54999995	6.92199993	0.39199999	0	200	0
-3.55699992	6.92180014	0.388000011	0	200	0
-3.53999996	6.9218998	0.388999999	0	200	0
-3.54999995	6.92199993	0.384000003	0	200	0
-3.54200006	6.9218998	0.379999995	0	200	0
-3.55500007	6.92199993	0.372000009	0	200	0
-3.55599999	6.92180014	0.370999992	0	200	0
-3.54200006	6.9218998	0.370999992	0	200	0
-3.62599993	6.92210007	0.345999986	0	200	0
-3.64100003	6.9217	0.379999995	0	200	0
-3.62800002	6.92210007	0.388000011	0	200	0
-3.63400006	6.9217	0.375999987	0	200	0
-3.61999989	6.92210007	0.384000003	0	200	0
-3.64100003	6.9217	0.363000005	0	200	0
-3.64299989	6.9217	0.352999985	0	200	0
-3.63100004	6.92210007	0.368999988	0	200	0
-3.62700009	6.92210007	0.363000005	0	200	0
-3.56100011	6.92180014	0.40200001	0	200	0
-3.55699992	6.92199993	0.404000014	0	200	0
-3.54099989	6.9218998	0.397000015	0	200	0
-3.64400005	6.9217	0.437000006	0	200	0
-3.625	6.92210007	0.423000008	0	200	0
-3.62599993	6.92210007	0.414000005	0	200	0
-3.62299991	6.92210007	0.407999992	0	200	0
-3.64599991	6.9217	0.419999987	0	200	0
-3.64199996	6.9217	0.412999988	0	200	0
-3.64700007	6.9217	0.40200001	0	200	0
-3.64599991	6.9217	0.393999994	0	200	0
-3.55299997	6.92199993	0.456	0	200	0
-3.54299998	6.9218998	0.453999996	0	200	0
-3.56100011	6.92180014	0.451000005	0	200	0
-3.55299997	6.92199993	0.448000014	0	200	0
-3.55900002	6.92180014	0.444999993	0	200	0
-3.53900003	6.9218998	0.43900001	0	200	0
-3.53800011	6.9218998	0.432000011	0	200	0
-3.54299998	6.9218998	0.421000004	0	200	0
-3.5539999	6.92199993	0.414000005	0	200	0
-3.54399991	6.9218998	0.412	0	200	0
-3.54099989	6.9218998	0.463	0	200	0
-3.5539999	6.92199993	0.463999987	0	200	0
-3.62299991	6.92210007	0.432000011	0	200	0
-3.5539999	6.92199993	0.488000005	0	200	0
-3.62599993	6.92210007	0.446999997	0	200	0
-3.56399989	6.92180014	0.481999993	0	200	0
-3.54099989	6.9218998	0.479000002	0	200	0
-3.53600001	6.9218998	0.474000007	0	200	0
-3.55299997	6.92199993	0.47299999	0	200	0
-3.64400005	6.9217	0.479000002	0	200	0
-3.62299991	6.92210007	0.465000004	0	200	0
-3.63899994	6.9217	0.465000004	0	200	0
-3.62899995	6.92210007	0.453999996	0	200	0
-3.64199996	6.9217	0.455000013	0	200	0
-3.64299989	6.9217	0.44600001	0	200	0
-3.62199998	6.92210007	0.474999994	0	200	0
-3.55500007	6.92199993	0.495999992	0	200	0
-3.546	6.9218998	0.493000001	0	200	0
-3.56200004	6.92180014	0.492000014	0	200	0
-3.54399991	6.9218998	0.501999974	0	200	0
-3.62199998	6.92210007	0.514999986	0	200	0
-3.6500001	6.9217	0.524999976	0	200	0
-3.62199998	6.92210007	0.508000016	0	200	0
-3.64700007	6.9217	0.518000007	0	200	0
-3.61800003	6.92210007	0.493000001	0	200	0
-3.63100004	6.92210007	0.493999988	0	200	0
-3.64400005	6.9217	0.503000021	0	200	0
-3.648	6.9217	0.493000001	0	200	0
-3.64700007	6.9217	0.485000014	0	200	0
-3.54200006	6.9218998	0.550999999	0	200	0
-3.55100012	6.92199993	0.546000004	0	200	0
-3.54399991	6.9218998	0.541999996	0	200	0
-3.55200005	6.92199993	0.537	0	200	0
-3.546	6.9218998	0.532999992	0	200	0
-3.55599999	6.92199993	0.52700001	0	200	0
-3.56800008	6.92180014	0.521000028	0	200	0
-3.53999996	6.9218998	0.519999981	0	200	0
-3.53800011	6.9218998	0.513000011	0	200	0
-3.55100012	6.92199993	0.513999999	0	200	0
-3.55900002	6.92180014	0.501999974	0	200	0
-3.54699993	6.92199993	0.556999981	0	200	0
-3.54500008	6.9218998	0.556999981	0	200	0
-3.625	6.92210007	0.529999971	0	200	0
-3.55200005	6.92199993	0.584999979	0	200	0
-3.62100005	6.92210007	0.556999981	0	200	0
-3.54399991	6.9218998	0.582000017	0	200	0
-3.6170001	6.92210007	0.550999999	0	200	0
-3.62899995	6.92210007	0.536000013	0	200	0
-3.5539999	6.92199993	0.575999975	0	200	0
-3.56299996	6.92180014	0.572000027	0	200	0
-3.546	6.9218998	0.573000014	0	200	0
-3.56200004	6.92180014	0.564999998	0	200	0
-3.55599999	6.92199993	0.566999972	0	200	0
-3.64199996	6.9217	0.537	0	200	0
-3.64499998	6.9217	0.575999975	0	200	0
-3.65400004	6.9217	0.563000023	0	200	0
-3.65199995	6.9217	0.555999994	0	200	0
-3.64400005	6.9217	0.54400003	0	200	0
-3.62199998	6.92210007	0.572000027	0	200	0
-3.55100012	6.92199993	0.593999982	0	200	0
-3.54299998	6.9218998	0.591000021	0	200	0
-3.54299998	6.9218998	0.598999977	0	200	0
-3.6500001	6.9217	0.59799999	0	200	0
-3.62700009	6.92210007	0.610000014	0	200	0
-3.65300012	6.9217	0.579999983	0	200	0
-3.62199998	6.92210007	0.588	0	200	0
-3.62700009	6.92210007	0.577000022	0	200	0
-3.648	6.9217	0.623000026	0	200	0
-3.64700007	6.9217	0.61500001	0	200	0
-3.648	6.9217	0.606999993	0	200	0
-3.55500007	6.92199993	0.647000015	0	200	0
-3.56399989	6.92180014	0.64200002	0	200	0
-3.54299998	6.9218998	0.638000011	0	200	0
-3.54299998	6.9218998	0.629999995	0	200	0
-3.54500008	6.9218998	0.620999992	0	200	0
-3.55699992	6.92199993	0.61500001	0	200	0
-3.546	6.9218998	0.611999989	0	200	0
-3.56699991	6.92180014	0.601999998	0	200	0
-3.62199998	6.92210007	0.620000005	0	200	0
-3.5539999	6.92199993	0.654999971	0	200	0
-3.5480001	6.9218998	0.651000023	0	200	0
-3.62400007	6.92210007	0.626999974	0	200	0
-3.62700009	6.92210007	0.649999976	0	200	0
-3.56500006	6.92180014	0.680999994	0	200	0
-3.546	6.9218998	0.675999999	0	200	0
-3.62100005	6.92210007	0.637000024	0	200	0
-3.54099989	6.9218998	0.670000017	0	200	0
-3.55100012	6.92199993	0.665000021	0	200	0
-3.54500008	6.9218998	0.660000026	0	200	0
-3.65499997	6.9217	0.63499999	0	200	0
-3.625	6.92210007	0.657999992	0	200	0
-3.65100002	6.9217	0.661000013	0	200	0
-3.65400004	6.9217	0.65200001	0	200	0
-3.65899992	6.9217	0.640999973	0	200	0
-3.62100005	6.92210007	0.667999983	0	200	0
-3.5480001	6.9218998	0.689999998	0	200	0
-3.5539999	6.92199993	0.68599999	0	200	0
-3.64899993	6.9217	0.694000006	0	200	0
-3.62400007	6.92210007	0.675000012	0	200	0
-3.66000009	6.9217	0.680999994	0	200	0
-3.65199995	6.9217	0.675999999	0	200	0
-3.62199998	6.92210007	0.699000001	0	200	0
-3.62199998	6.92210007	0.691999972	0	200	0
-3.65499997	6.9217	0.722000003	0	200	0
-3.65700006	6.9217	0.713	0	200	0
-3.648	6.9217	0.702000022	0	200	0
-3.54500008	6.9218998	0.745000005	0	200	0
-3.5480001	6.92199993	0.744000018	0	200	0
-3.62299991	6.92210007	0.713999987	0	200	0
-3.54699993	6.9218998	0.736000001	0	200	0
-3.61400008	6.92210007	0.711000025	0	200	0
-3.55500007	6.92199993	0.731999993	0	200	0
-3.54900002	6.9218998	0.727999985	0	200	0
-3.56599998	6.92180014	0.720000029	0	200	0
-3.55900002	6.92199993	0.72299999	0	200	0
-3.54200006	6.9218998	0.716000021	0	200	0
-3.54099989	6.9218998	0.708999991	0	200	0
-3.55500007	6.92199993	0.709999979	0	200	0
-3.54500008	6.9218998	0.699000001	0	200	0
-3.55299997	6.92199993	0.749000013	0	200	0
-3.65400004	6.9217	0.730000019	0	200	0
-3.6170001	6.92210007	0.73299998	0	200	0
-3.62100005	6.92210007	0.754000008	0	200	0
-3.54900002	6.9218998	0.773999989	0	200	0
-3.56599998	6.92180014	0.773000002	0	200	0
-3.55599999	6.92199993	0.769999981	0	200	0
-3.61299992	6.92210007	0.75	0	200	0
-3.5480001	6.9218998	0.765999973	0	200	0
-3.56399989	6.92180014	0.765999973	0	200	0
-3.55599999	6.92199993	0.763000011	0	200	0
-3.54299998	6.9218998	0.754000008	0	200	0
-3.57299995	6.92180014	0.754999995	0	200	0
-3.65199995	6.9217	0.739000022	0	200	0
-3.65199995	6.9217	0.754999995	0	200	0
-3.67600012	6.9217	0.750999987	0	200	0
-3.62800002	6.92210007	0.765999973	0	200	0
-3.54299998	6.9218998	0.783999979	0	200	0
-3.55299997	6.92199993	0.779999971	0	200	0
-3.65300012	6.9217	0.792999983	0	200	0
-3.62899995	6.92210007	0.773000002	0	200	0
-3.64299989	6.9217	0.774999976	0	200	0
-3.67799997	6.9217	0.765999973	0	200	0
-3.62899995	6.92210007	0.788999975	0	200	0
-3.62199998	6.92210007	0.785000026	0	200	0
-3.62599993	6.92210007	0.805999994	0	200	0
-3.66300011	6.9217	0.811999977	0	200	0
-3.65400004	6.9217	0.808000028	0	200	0
-3.65799999	6.9217	0.799000025	0	200	0
-3.57299995	6.92180014	0.838	0	200	0
-3.54999995	6.9218998	0.841000021	0	200	0
-3.55699992	6.92199993	0.838	0	200	0
-3.56599998	6.92180014	0.833999991	0	200	0
-3.546	6.92199993	0.828000009	0	200	0
-3.54900002	6.9218998	0.827000022	0	200	0
-3.56800008	6.92180014	0.818000019	0	200	0
-3.54699993	6.9218998	0.819999993	0	200	0
-3.55500007	6.92199993	0.815999985	0	200	0
-3.56599998	6.92180014	0.81099999	0	200	0
-3.5480001	6.9218998	0.811999977	0	200	0
-3.56900001	6.92180014	0.795000017	0	200	0
-3.54500008	6.9218998	0.791000009	0	200	0
-3.55200005	6.9218998	0.84799999	0	200	0
-3.625	6.92210007	0.81400001	0	200	0
-3.55800009	6.92199993	0.845000029	0	200	0
-3.66000009	6.9217	0.828000009	0	200	0
-3.62899995	6.92210007	0.827000022	0	200	0
-3.62100005	6.92210007	0.823000014	0	200	0
-3.66700006	6.9217	0.833000004	0	200	0
-3.625	6.92210007	0.851999998	0	200	0
-3.62199998	6.92210007	0.846000016	0	200	0
-3.56699991	6.92180014	0.870999992	0	200	0
-3.5480001	6.9218998	0.864000022	0	200	0
-3.55699992	6.92199993	0.860000014	0	200	0
-3.56299996	6.92180014	0.85799998	0	200	0
-3.54900002	6.92180014	0.856999993	0	200	0
-3.54900002	6.9218998	0.856999993	0	200	0
-3.55599999	6.92199993	0.852999985	0	200	0
-3.66300011	6.9217	0.842000008	0	200	0
-3.62599993	6.92210007	0.859000027	0	200	0
-3.56699991	6.92180014	0.878000021	0	200	0
-3.54999995	6.9218998	0.878000021	0	200	0
-3.55900002	6.92199993	0.875	0	200	0
-3.62800002	6.92210007	0.880999982	0	200	0
-3.61899996	6.92210007	0.870000005	0	200	0
-3.65799999	6.9217	0.883000016	0	200	0
-3.62599993	6.92210007	0.903999984	0	200	0
-3.62199998	6.92210007	0.898999989	0	200	0
-3.625	6.92210007	0.889999986	0	200	0
-3.56100011	6.92180014	0.933000028	0	200	0
-3.54900002	6.9218998	0.924000025	0	200	0
-3.55999994	6.92180014	0.925999999	0	200	0
-3.55800009	6.92199993	0.91900003	0	200	0
-3.54900002	6.9218998	0.887000024	0	200	0
-3.54500008	6.9218998	0.939999998	0	200	0
-3.54299998	6.9218998	0.933000028	0	200	0
-3.56399989	6.92180014	0.94599998	0	200	0
-3.67600012	6.9217	0.912999988	0	200	0
-3.65899992	6.9217	0.912	0	200	0
-3.63100004	6.92210007	0.916999996	0	200	0
-3.65799999	6.9217	0.927999973	0	200	0
-3.60899997	6.92180014	0.941999972	0	200	0
-3.62299991	6.92210007	0.943000019	0	200	0
-3.62199998	6.92210007	0.93599999	0	200	0
-3.62599993	6.92210007	0.926999986	0	200	0
-3.54900002	6.9218998	0.967000008	0	200	0
-3.5710001	6.92180014	0.964999974	0	200	0
-3.54699993	6.9218998	0.961000025	0	200	0
-3.55200005	6.9218998	0.950999975	0	200	0
-3.56800008	6.92180014	0.952000022	0	200	0
-3.66499996	6.9217	0.939999998	0	200	0
-3.62800002	6.92210007	0.95599997	0	200	0
-3.54699993	6.9218998	0.975000024	0	200	0
-3.62299991	6.92210007	0.980000019	0	200	0
-3.67199993	6.9217	0.952000022	0	200	0
-3.625	6.92210007	0.972000003	0	200	0
-3.65899992	6.9217	0.949999988	0	200	0
-3.62899995	6.92210007	0.963	0	200	0
-3.6789999	6.9217	0.972000003	0	200	0
-3.66599989	6.9217	0.984000027	0	200	0
-3.625	6.92210007	1.00100005	0	200	0
-3.57299995	6.92180014	0.978999972	0	200	0
-3.62199998	6.92210007	0.995000005	0	200	0
-3.55900002	6.92199993	1.02900004	0	200	0
-3.5480001	6.9218998	1.02600002	0	200	0
-3.5710001	6.92180014	1.02400005	0	200	0
-3.55900002	6.92199993	1.02100003	0	200	0
-3.56999993	6.92180014	1.01699996	0	200	0
-3.50099993	6.92199993	0.987999976	0	200	0
-3.54900002	6.9218998	1.01100004	0	200	0
-3.55599999	6.92199993	1.00800002	0	200	0
-3.51600003	6.92199993	0.989000022	0	200	0
-3.546	6.9218998	1.005	0	200	0
-3.56299996	6.92180014	1.005	0	200	0
-3.55699992	6.92199993	1	0	200	0
-3.54999995	6.9218998	0.995999992	0	200	0
-3.56699991	6.92180014	0.995999992	0	200	0
-3.56200004	6.92199993	0.990999997	0	200	0
-3.56500006	6.92180014	0.99000001	0	200	0
-3.55100012	6.9218998	0.987999976	0	200	0
-3.56100011	6.92199993	0.984000027	0	200	0
-3.477	6.92199993	0.990999997	0	200	0
-3.47399998	6.9217	0.985000014	0	200	0
-3.55699992	6.92199993	1.03699994	0	200	0
-3.54999995	6.9218998	1.03199995	0	200	0
-3.46300006	6.92199993	0.976000011	0	200	0
-3.546	6.9218998	1.04100001	0	200	0
-3.62100005	6.92210007	1.01800001	0	200	0
-3.56900001	6.92180014	1.03900003	0	200	0
-3.57999992	6.92199993	1.03499997	0	200	0
-3.61299992	6.92210007	1.01400006	0	200	0
-3.65899992	6.9217	1.00199997	0	200	0
-3.66300011	6.9217	0.992999971	0	200	0
-3.66100001	6.9217	1.023	0	200	0
-3.66400003	6.9217	1.01499999	0	200	0
-3.62599993	6.92210007	1.02999997	0	200	0
-3.62700009	6.92210007	1.03699994	0	200	0
-3.55800009	6.92199993	1.06500006	0	200	0
-3.45700002	6.92199993	0.992999971	0	200	0
-3.546	6.9218998	1.06299996	0	200	0
-3.56200004	6.92199993	1.05599999	0	200	0
-3.5710001	6.92180014	1.05299997	0	200	0
-3.54699993	6.9218998	1.04799998	0	200	0
-3.66199994	6.9217	1.03799999	0	200	0
-3.66400003	6.9217	1.02999997	0	200	0
-3.62299991	6.92210007	1.046	0	200	0
-3.55900002	6.92199993	1.07200003	0	200	0
-3.54699993	6.9218998	1.06900001	0	200	0
-3.61599994	6.92210007	1.07799995	0	200	0
-3.66599989	6.9217	1.05799997	0	200	0
-3.66400003	6.9217	1.05200005	0	200	0
-3.62899995	6.92210007	1.06500006	0	200	0
-3.66199994	6.9217	1.06700003	0	200	0
-3.68799996	6.9217	1.079	0	200	0
-3.66400003	6.9217	1.074	0	200	0
-3.58100009	6.92199993	1.08399999	0	200	0
-3.62199998	6.92210007	1.09000003	0	200	0
-3.625	6.92210007	1.08200002	0	200	0
-3.62299991	6.92210007	1.10399997	0	200	0
-3.56100011	6.92199993	1.12800002	0	200	0
-3.54900002	6.9218998	1.11800003	0	200	0
-3.5480001	6.9218998	1.11199999	0	200	0
-3.5710001	6.92180014	1.10300004	0	200	0
-3.5539999	6.9218998	1.102	0	200	0
-3.55800009	6.92199993	1.10000002	0	200	0
-3.546	6.9218998	1.09800005	0	200	0
-3.5710001	6.92180014	1.09500003	0	200	0
-3.546	6.9218998	1.08399999	0	200	0
-3.55200005	6.92199993	1.08200002	0	200	0
-3.5480001	6.9218998	1.07599998	0	200	0
-3.40700006	6.9217	0.978999972	0	200	0
-3.42700005	6.9217	0.976999998	0	200	0
-3.43600011	6.9217	0.987999976	0	200	0
-3.43199992	6.92199993	0.981999993	0	200	0
-3.38499999	6.92180014	0.975000024	0	200	0
-3.38899994	6.92180014	0.966000021	0	200	0
-3.38899994	6.9218998	0.986999989	0	200	0
-3.39100003	6.92180014	0.986000001	0	200	0
-3.39599991	6.92199993	0.984000027	0	200	0
-3.40100002	6.92180014	0.989000022	0	200	0
-3.55900002	6.92199993	1.13600004	0	200	0
-3.55200005	6.9218998	1.13100004	0	200	0
-3.37199998	6.92199993	0.981000006	0	200	0
-3.37299991	6.92199993	0.966000021	0	200	0
-3.37299991	6.92199993	0.97299999	0	200	0
-3.37400007	6.9218998	0.972000003	0	200	0
-3.375	6.9218998	0.978999972	0	200	0
-3.55100012	6.9218998	1.13900006	0	200	0
-3.66899991	6.9217	1.09399998	0	200	0
-3.62400007	6.92210007	1.11099994	0	200	0
-3.62199998	6.92210007	1.11899996	0	200	0
-3.66700006	6.9217	1.10899997	0	200	0
-3.66700006	6.9217	1.102	0	200	0
-3.56100011	6.92199993	1.16299999	0	200	0
-3.57500005	6.92180014	1.15799999	0	200	0
-3.54999995	6.9218998	1.153	0	200	0
-3.55699992	6.92199993	1.14999998	0	200	0
-3.56999993	6.92180014	1.14499998	0	200	0
-3.55299997	6.9218998	1.14499998	0	200	0
-3.55900002	6.92199993	1.14300001	0	200	0
-3.67000008	6.9217	1.13	0	200	0
-3.66300011	6.9217	1.125	0	200	0
-3.63100004	6.92210007	1.13699996	0	200	0
-3.62199998	6.92210007	1.14699996	0	200	0
-3.56100011	6.92199993	1.16999996	0	200	0
-3.57399988	6.92180014	1.16499996	0	200	0
-3.55100012	6.9218998	1.16700006	0	200	0
-3.62800002	6.92210007	1.17400002	0	200	0
-3.66799998	6.9217	1.14499998	0	200	0
-3.66300011	6.9217	1.13900006	0	200	0
-3.6170001	6.92210007	1.16400003	0	200	0
-3.6170001	6.92210007	1.15600002	0	200	0
-3.671	6.9217	1.15799999	0	200	0
-3.67000008	6.9217	1.17299998	0	200	0
-3.66499996	6.9217	1.16799998	0	200	0
-3.57299995	6.92180014	1.17999995	0	200	0
-3.54999995	6.9218998	1.17400002	0	200	0
-3.66700006	6.9217	1.18099999	0	200	0
-3.62299991	6.92210007	1.19700003	0	200	0
-3.62100005	6.92210007	1.19099998	0	200	0
-3.54699993	6.9218998	1.22399998	0	200	0
-3.55699992	6.92199993	1.22000003	0	200	0
-3.56699991	6.92180014	1.21700001	0	200	0
-3.54699993	6.9218998	1.21700001	0	200	0
-3.55999994	6.92199993	1.21300006	0	200	0
-3.56999993	6.92180014	1.20899999	0	200	0
-3.55100012	6.9218998	1.20899999	0	200	0
-3.56100011	6.92199993	1.20500004	0	200	0
-3.5480001	6.9218998	1.20299995	0	200	0
-3.57500005	6.92180014	1.20000005	0	200	0
-3.5710001	6.92180014	1.19400001	0	200	0
-3.54699993	6.9218998	1.18900001	0	200	0
-3.54900002	6.9218998	1.18200004	0	200	0
-3.62299991	6.92210007	1.21099997	0	200	0
-3.56100011	6.92199993	1.23300004	0	200	0
-3.56900001	6.92180014	1.23000002	0	200	0
-3.57500005	6.92180014	1.23500001	0	200	0
-3.55100012	6.9218998	1.23599994	0	200	0
-3.625	6.92210007	1.21700001	0	200	0
-3.66799998	6.9217	1.19500005	0	200	0
-3.6730001	6.9217	1.20099998	0	200	0
-3.546	6.9218998	1.25899994	0	200	0
-3.62400007	6.92210007	1.23199999	0	200	0
-3.55999994	6.92199993	1.25399995	0	200	0
-3.54500008	6.9218998	1.25199997	0	200	0
-3.57399988	6.92180014	1.24899995	0	200	0
-3.61999989	6.92210007	1.22599995	0	200	0
-3.55800009	6.92199993	1.24800003	0	200	0
-3.5480001	6.9218998	1.245	0	200	0
-3.56100011	6.92199993	1.24000001	0	200	0
-3.67000008	6.9217	1.21599996	0	200	0
-3.66700006	6.9217	1.21000004	0	200	0
-3.57299995	6.92180014	1.26400006	0	200	0
-3.671	6.9217	1.25100005	0	200	0
-3.6170001	6.92210007	1.26999998	0	200	0
-3.67199993	6.9217	1.24399996	0	200	0
-3.6170001	6.92210007	1.26300001	0	200	0
-3.67199993	6.9217	1.23699999	0	200	0
-3.67199993	6.9217	1.23000002	0	200	0
-3.62800002	6.92210007	1.25199997	0	200	0
-3.6730001	6.9217	1.27199996	0	200	0
-3.6730001	6.9217	1.26499999	0	200	0
-3.55699992	6.92199993	1.27600002	0	200	0
-3.57299995	6.92180014	1.27699995	0	200	0
-3.54900002	6.9218998	1.27199996	0	200	0
-3.6730001	6.9217	1.27900004	0	200	0
-3.62299991	6.92210007	1.29499996	0	200	0
-3.61599994	6.92210007	1.29100001	0	200	0
-3.61999989	6.92210007	1.28199995	0	200	0
-3.56299996	6.92199993	1.32200003	0	200	0
-3.57500005	6.92180014	1.31799996	0	200	0
-3.55100012	6.9218998	1.31900001	0	200	0
-3.55900002	6.92199993	1.31700003	0	200	0
-3.57399988	6.92180014	1.31200004	0	200	0
-3.55299997	6.9218998	1.31200004	0	200	0
-3.56100011	6.92199993	1.30900002	0	200	0
-3.579	6.92180014	1.30299997	0	200	0
-3.55100012	6.9218998	1.30599999	0	200	0
-3.55900002	6.92199993	1.30299997	0	200	0
-3.57200003	6.92180014	1.29900002	0	200	0
-3.54999995	6.9218998	1.29200006	0	200	0
-3.55900002	6.92199993	1.28900003	0	200	0
-3.56900001	6.92180014	1.28600001	0	200	0
-3.5480001	6.9218998	1.28600001	0	200	0
-3.55699992	6.92199993	1.28299999	0	200	0
-3.5480001	6.9218998	1.27900004	0	200	0
-3.67199993	6.9217	1.28600001	0	200	0
-3.62199998	6.92210007	1.30299997	0	200	0
-3.54699993	6.9218998	1.32700002	0	200	0
-3.57399988	6.92180014	1.33200002	0	200	0
-3.62899995	6.92210007	1.31400001	0	200	0
-3.67600012	6.9217	1.29900002	0	200	0
-3.57200003	6.92180014	1.35300004	0	200	0
-3.60500002	6.92180014	1.33599997	0	200	0
-3.55299997	6.9218998	1.35300004	0	200	0
-3.55999994	6.92199993	1.35000002	0	200	0
-3.55299997	6.9218998	1.34599996	0	200	0
-3.56200004	6.92199993	1.34300005	0	200	0
-3.57299995	6.92180014	1.33899999	0	200	0
-3.55200005	6.9218998	1.33899999	0	200	0
-3.56200004	6.92199993	1.33599997	0	200	0
-3.67499995	6.9217	1.30599999	0	200	0
-3.62199998	6.92210007	1.33000004	0	200	0
-3.68400002	6.9217	1.31099999	0	200	0
-3.54999995	6.9218998	1.36000001	0	200	0
-3.55800009	6.92199993	1.35800004	0	200	0
-3.67600012	6.9217	1.34800005	0	200	0
-3.67400002	6.9217	1.34200001	0	200	0
-3.67600012	6.9217	1.33399999	0	200	0
-3.67499995	6.9217	1.32099998	0	200	0
-3.58599997	6.92199993	1.36300004	0	200	0
-3.61800003	6.92210007	1.36600006	0	200	0
-3.61199999	6.92180014	1.36099994	0	200	0
-3.61599994	6.92210007	1.36000001	0	200	0
-3.67700005	6.9217	1.36899996	0	200	0
-3.67799997	6.9217	1.35500002	0	200	0
-3.55100012	6.9218998	1.37399995	0	200	0
-3.57500005	6.92180014	1.36600006	0	200	0
-3.67499995	6.9217	1.37600005	0	200	0
-3.62299991	6.92210007	1.39199996	0	200	0
-3.6170001	6.92210007	1.38699996	0	200	0
-3.625	6.92210007	1.398	0	200	0
-3.5710001	6.92180014	1.41499996	0	200	0
-3.57200003	6.92180014	1.38100004	0	200	0
-3.55200005	6.9218998	1.38	0	200	0
-3.56100011	6.92199993	1.37699997	0	200	0
-3.6789999	6.9217	1.38199997	0	200	0
-3.5710001	6.92180014	1.42200005	0	200	0
-3.54900002	6.9218998	1.421	0	200	0
-3.54999995	6.9218998	1.42799997	0	200	0
-3.68099999	6.9217	1.38900006	0	200	0
-3.62299991	6.92210007	1.43299997	0	200	0
-3.54999995	6.9218998	1.44799995	0	200	0
-3.56699991	6.92180014	1.45000005	0	200	0
-3.62800002	6.92210007	1.42499995	0	200	0
-3.55200005	6.9218998	1.44099998	0	200	0
-3.61599994	6.92210007	1.42200005	0	200	0
-3.60599995	6.92180014	1.43099999	0	200	0
-3.57399988	6.92180014	1.43400002	0	200	0
-3.55999994	6.92199993	1.45200002	0	200	0
-3.73300004	6.92210007	1.37300003	0	200	0
-3.68099999	6.9217	1.403	0	200	0
-3.68000007	6.9217	1.40999997	0	200	0
-3.55999994	6.92199993	1.45799994	0	200	0
-3.56999993	6.92180014	1.45500004	0	200	0
-3.54999995	6.9218998	1.45500004	0	200	0
-3.68400002	6.9217	1.43599999	0	200	0
-3.67199993	6.9217	1.426	0	200	0
-3.67700005	6.9217	1.41799998	0	200	0
-3.61500001	6.92210007	1.45599997	0	200	0
-3.62400007	6.92210007	1.44000006	0	200	0
-3.61599994	6.92210007	1.46300006	0	200	0
-3.68099999	6.9217	1.45799994	0	200	0
-3.67700005	6.9217	1.45200002	0	200	0
-3.56900001	6.92180014	1.46899998	0	200	0
-3.579	6.92199993	1.46599996	0	200	0
-3.55200005	6.9218998	1.46099997	0	200	0
-3.68799996	6.9217	1.47000003	0	200	0
-3.57599998	6.92180014	1.47399998	0	200	0
-3.62299991	6.92210007	1.48800004	0	200	0
-3.61800003	6.92210007	1.47599995	0	200	0
-3.61899996	6.92210007	1.46899998	0	200	0
-3.62299991	6.92210007	1.49399996	0	200	0
-3.57500005	6.92180014	1.51400006	0	200	0
-3.56399989	6.92199993	1.51100004	0	200	0
-3.55100012	6.9218998	1.50800002	0	200	0
-3.57599998	6.92180014	1.50699997	0	200	0
-3.50099993	6.92199993	1.46200001	0	200	0
-3.54999995	6.9218998	1.495	0	200	0
-3.55999994	6.92199993	1.49199998	0	200	0
-3.54999995	6.9218998	1.48800004	0	200	0
-3.56100011	6.92199993	1.48500001	0	200	0
-3.57299995	6.92180014	1.48800004	0	200	0
-3.55299997	6.9218998	1.48099995	0	200	0
-3.55699992	6.92199993	1.47899997	0	200	0
-3.57299995	6.92180014	1.48199999	0	200	0
-3.55200005	6.9218998	1.47399998	0	200	0
-3.69199991	6.9217	1.47500002	0	200	0
-3.62299991	6.92210007	1.50100005	0	200	0
-3.55200005	6.9218998	1.51400006	0	200	0
-3.57999992	6.92199993	1.51300001	0	200	0
-3.4690001	6.92199993	1.46500003	0	200	0
-3.55900002	6.92199993	1.52499998	0	200	0
-3.54999995	6.9218998	1.52100003	0	200	0
-3.68300009	6.9217	1.48500001	0	200	0
-3.62299991	6.92210007	1.528	0	200	0
-3.68300009	6.9217	1.49199998	0	200	0
-3.61999989	6.92210007	1.50899994	0	200	0
-3.55599999	6.9218998	1.546	0	200	0
-3.57599998	6.92180014	1.54100001	0	200	0
-3.55100012	6.9218998	1.54100001	0	200	0
-3.57999992	6.92180014	1.53299999	0	200	0
-3.56299996	6.92199993	1.53699994	0	200	0
-3.54999995	6.9218998	1.528	0	200	0
-3.579	6.92180014	1.54700005	0	200	0
-3.67799997	6.9217	1.50699997	0	200	0
-3.62199998	6.92210007	1.53499997	0	200	0
-3.55299997	6.9218998	1.55299997	0	200	0
-3.6789999	6.9217	1.52699995	0	200	0
-3.69000006	6.9217	1.51699996	0	200	0
-3.71099997	6.92210007	1.49800003	0	200	0
-3.68099999	6.9217	1.51300001	0	200	0
-3.625	6.92210007	1.55400002	0	200	0
-3.625	6.92210007	1.54100001	0	200	0
-3.625	6.92210007	1.56099999	0	200	0
-3.57800007	6.92180014	1.56700003	0	200	0
-3.55299997	6.9218998	1.55999994	0	200	0
-3.57399988	6.92180014	1.55499995	0	200	0
-3.58200002	6.92180014	1.57200003	0	200	0
-3.5250001	6.9218998	1.60000002	0	200	0
-3.51999998	6.9218998	1.59500003	0	200	0
-3.53500009	6.92199993	1.597	0	200	0
-3.56100011	6.92180014	1.58399999	0	200	0
-3.55500007	6.9218998	1.579	0	200	0
-3.55299997	6.9218998	1.57299995	0	200	0
-3.421	6.92199993	1.46000004	0	200	0
-3.43499994	6.92199993	1.46200001	0	200	0
-3.50699997	6.92210007	1.59800005	0	200	0
-3.53900003	6.9218998	1.60899997	0	200	0
-3.37299991	6.92199993	1.44200003	0	200	0
-3.37700009	6.92199993	1.44799995	0	200	0
-3.38000011	6.9218998	1.44000006	0	200	0
-3.38100004	6.9218998	1.44599998	0	200	0
-3.37899995	6.92199993	1.46000004	0	200	0
-3.38000011	6.9218998	1.46000004	0	200	0
-3.38400006	6.92199993	1.46500003	0	200	0
-3.38700008	6.92180014	1.46399999	0	200	0
-3.38800001	6.92180014	1.45700002	0	200	0
-3.38599992	6.9218998	1.46399999	0	200	0
-3.39100003	6.92180014	1.44299996	0	200	0
-3.57299995	6.92180014	1.62100005	0	200	0
-3.56800008	6.92180014	1.61500001	0	200	0
-3.5940001	6.92210007	1.63499999	0	200	0
-3.57599998	6.92180014	1.63999999	0	200	0
-3.57599998	6.92180014	1.63300002	0	200	0
-3.5250001	6.9218998	1.61899996	0	200	0
-3.62599993	6.92210007	1.64100003	0	200	0
-3.62599993	6.92210007	1.63499999	0	200	0
-3.58299994	6.92199993	1.65100002	0	200	0
-3.68099999	6.9217	1.62800002	0	200	0
-3.62299991	6.92210007	1.65499997	0	200	0
-3.5539999	6.9218998	1.65799999	0	200	0
-3.57999992	6.92180014	1.671	0	200	0
-3.55500007	6.9218998	1.68400002	0	200	0
-3.5539999	6.9218998	1.671	0	200	0
-3.6170001	6.92210007	1.66299999	0	200	0
-3.5539999	6.9218998	1.70299995	0	200	0
-3.62299991	6.92210007	1.70099998	0	200	0
-3.55299997	6.9218998	1.71599996	0	200	0
-3.62400007	6.92210007	1.69400001	0	200	0
-3.5539999	6.9218998	1.71000004	0	200	0
-3.61899996	6.92210007	1.68900001	0	200	0
-3.62199998	6.92210007	1.67499995	0	200	0
-3.62199998	6.92210007	1.66799998	0	200	0
-3.62100005	6.92210007	1.72800004	0	200	0
-3.61999989	6.92210007	1.72099996	0	200	0
-3.62100005	6.92210007	1.70799994	0	200	0
-3.55699992	6.9218998	1.73500001	0	200	0
-3.57800007	6.92180014	1.73699999	0	200	0
-3.62400007	6.92210007	1.73399997	0	200	0
-3.68099999	6.9217	1.67499995	0	200	0
-3.68400002	6.9217	1.65499997	0	200	0
-3.61500001	6.92210007	1.74199998	0	200	0
-3.55599999	6.9218998	1.74199998	0	200	0
-3.5539999	6.9218998	1.755	0	200	0
-3.55699992	6.9218998	1.74800003	0	200	0
-3.55599999	6.9218998	1.76699996	0	200	0
-3.61899996	6.92210007	1.755	0	200	0
-3.57999992	6.92180014	1.76199996	0	200	0
-3.55500007	6.9218998	1.77999997	0	200	0
-3.58100009	6.92180014	1.77499998	0	200	0
-3.55999994	6.9218998	1.773	0	200	0
-3.67799997	6.9217	1.72899997	0	200	0
-3.61800003	6.92210007	1.76100004	0	200	0
-3.62400007	6.92210007	1.76699996	0	200	0
-3.55699992	6.9218998	1.79900002	0	200	0
-3.579	6.92180014	1.79499996	0	200	0
-3.55299997	6.9218998	1.78699994	0	200	0
-3.57999992	6.92180014	1.78199995	0	200	0
-3.61999989	6.92210007	1.79999995	0	200	0
-3.6170001	6.92210007	1.79400003	0	200	0
-3.68400002	6.9217	1.74800003	0	200	0
-3.62400007	6.92210007	1.773	0	200	0
-3.5539999	6.9218998	1.81299996	0	200	0
-3.579	6.92180014	1.80799997	0	200	0
-3.55500007	6.9218998	1.80599999	0	200	0
-3.579	6.92180014	1.801	0	200	0
-3.56299996	6.92199993	1.80400002	0	200	0
-3.625	6.92210007	1.82500005	0	200	0
-3.55699992	6.9218998	1.83099997	0	200	0
-3.56500006	6.92199993	1.83000004	0	200	0
-3.57999992	6.92180014	1.82700002	0	200	0
-3.5539999	6.9218998	1.81900001	0	200	0
-3.55999994	6.92199993	1.81799996	0	200	0
-3.57599998	6.92180014	1.81500006	0	200	0
-3.61299992	6.92180014	1.82700002	0	200	0
-3.61500001	6.92210007	1.83299994	0	200	0
-3.69099998	6.9217	1.79299998	0	200	0
-3.56699991	6.92199993	1.83599997	0	200	0
-3.56100011	6.9218998	1.83700001	0	200	0
-3.56100011	6.92199993	1.85000002	0	200	0
-3.57999992	6.92180014	1.84599996	0	200	0
-3.55800009	6.9218998	1.85000002	0	200	0
-3.58100009	6.92180014	1.84000003	0	200	0
-3.55800009	6.9218998	1.84399998	0	200	0
-3.58100009	6.92180014	1.85899997	0	200	0
-3.55800009	6.9218998	1.89499998	0	200	0
-3.56800008	6.92180014	1.89300001	0	200	0
-3.62800002	6.9217	1.88900006	0	200	0
-3.68600011	6.9217	1.86000001	0	200	0
-3.63599992	6.9217	1.88199997	0	200	0
-3.62100005	6.92210007	1.89100003	0	200	0
-3.69099998	6.9217	1.83899999	0	200	0
-3.55299997	6.9218998	1.90799999	0	200	0
-3.55999994	6.92199993	1.90699995	0	200	0
-3.57599998	6.92180014	1.90400004	0	200	0
-3.55699992	6.9218998	1.90100002	0	200	0
-3.56900001	6.92180014	1.89900005	0	200	0
-3.58200002	6.92180014	1.90999997	0	200	0
-3.63400006	6.9217	1.91400003	0	200	0
-3.6170001	6.92210007	1.90400004	0	200	0
-3.57999992	6.92180014	1.92299998	0	200	0
-3.55800009	6.9218998	1.926	0	200	0
-3.55599999	6.9218998	1.91400003	0	200	0
-3.56500006	6.92199993	1.91299999	0	200	0
-3.64100003	6.9217	1.91999996	0	200	0
-3.55900002	6.9218998	1.93299997	0	200	0
-3.56399989	6.92199993	1.93200004	0	200	0
-3.58500004	6.92180014	1.92799997	0	200	0
-3.55500007	6.9218998	1.94599998	0	200	0
-3.56200004	6.92199993	1.94500005	0	200	0
-3.58299994	6.92180014	1.93499994	0	200	0
-3.55500007	6.9218998	1.93900001	0	200	0
-3.58800006	6.92199993	1.93400002	0	200	0
-3.64700007	6.9217	1.93200004	0	200	0
-3.58400011	6.92180014	1.954	0	200	0
-3.64299989	6.9217	1.926	0	200	0
-3.55900002	6.9218998	1.98899996	0	200	0
-3.56699991	6.92199993	1.98800004	0	200	0
-3.46799994	6.92199993	1.91600001	0	200	0
-3.62400007	6.92210007	1.94799995	0	200	0
-3.55599999	6.9218998	1.977	0	200	0
-3.56399989	6.92199993	1.97599995	0	200	0
-3.55500007	6.9218998	1.97099996	0	200	0
-3.56399989	6.92199993	1.97000003	0	200	0
-3.58299994	6.92180014	1.96099997	0	200	0
-3.56100011	6.92199993	1.96399999	0	200	0
-3.55999994	6.9218998	1.96399999	0	200	0
-3.56399989	6.92199993	1.95700002	0	200	0
-3.55699992	6.9218998	1.95799994	0	200	0
-3.65300012	6.9217	1.94400001	0	200	0
-3.64700007	6.9217	1.95099998	0	200	0
-3.65700006	6.9217	1.98199999	0	200	0
-3.648	6.9217	1.96399999	0	200	0
-3.65100002	6.9217	1.95700002	0	200	0
-3.62400007	6.92210007	1.98699999	0	200	0
-3.61899996	6.92210007	1.98099995	0	200	0
-3.58100009	6.92180014	1.99899995	0	200	0
-3.56699991	6.92199993	2.00099993	0	200	0
-3.55900002	6.9218998	2.00200009	0	200	0
-3.58400011	6.92180014	1.99199998	0	200	0
-3.56200004	6.92199993	1.995	0	200	0
-3.55999994	6.9218998	1.995	0	200	0
-3.66000009	6.9217	2.00699997	0	200	0
-3.625	6.92210007	1.99899995	0	200	0
-3.6960001	6.9217	1.97000003	0	200	0
-3.65700006	6.9217	1.98899996	0	200	0
-3.58599997	6.92199993	2.01699996	0	200	0
-3.55800009	6.9218998	2.0079999	0	200	0
-3.56399989	6.92199993	2.00699997	0	200	0
-3.55699992	6.9218998	2.02099991	0	200	0
-3.67000008	6.9217	2.01300001	0	200	0
-3.70300007	6.9217	1.98899996	0	200	0
-3.55500007	6.9218998	2.02800012	0	200	0
-3.58299994	6.92180014	2.02399993	0	200	0
-3.56399989	6.92199993	2.02600002	0	200	0
-3.62800002	6.92210007	2.01200008	0	200	0
-3.58200002	6.92180014	2.03699994	0	200	0
-3.56800008	6.92199993	2.03900003	0	200	0
-3.55800009	6.9218998	2.03999996	0	200	0
-3.56500006	6.92199993	2.03299999	0	200	0
-3.55599999	6.9218998	2.03399992	0	200	0
-3.61800003	6.92210007	2.02600002	0	200	0
-3.62100005	6.92210007	2.01900005	0	200	0
-3.58500004	6.92180014	2.04900002	0	200	0
-3.61800003	6.92210007	2.03200006	0	200	0
-3.62299991	6.92210007	2.06299996	0	200	0
-3.62400007	6.92180014	2.06299996	0	200	0
-3.55699992	6.9218998	2.08400011	0	200	0
-3.56699991	6.92199993	2.08299994	0	200	0
-3.61899996	6.92210007	2.05800009	0	200	0
-3.61599994	6.92210007	2.05100012	0	200	0
-3.6170001	6.92210007	2.04500008	0	200	0
-3.55999994	6.9218998	2.0710001	0	200	0
-3.56599998	6.92199993	2.06999993	0	200	0
-3.57999992	6.92180014	2.06200004	0	200	0
-3.55900002	6.9218998	2.06500006	0	200	0
-3.57299995	6.92199993	2.06299996	0	200	0
-3.58200002	6.92180014	2.05599999	0	200	0
-3.55699992	6.9218998	2.05900002	0	200	0
-3.56699991	6.92199993	2.05699992	0	200	0
-3.56900001	6.92199993	2.05100012	0	200	0
-3.56200004	6.9218998	2.05200005	0	200	0
-3.3829999	6.92199993	1.89400005	0	200	0
-3.3829999	6.92199993	1.89999998	0	200	0
-3.38700008	6.92199993	1.90499997	0	200	0
-3.38800001	6.9218998	1.90499997	0	200	0
-3.3900001	6.9218998	1.898	0	200	0
-3.39299989	6.9218998	1.89199996	0	200	0
-3.4000001	6.92180014	1.89699996	0	200	0
-3.398	6.92180014	1.90900004	0	200	0
-3.39599991	6.9218998	1.90999997	0	200	0
-3.40300012	6.92180014	1.90199995	0	200	0
-3.40100002	6.92199993	1.90900004	0	200	0
-3.42499995	6.92199993	1.91700006	0	200	0
-3.67799997	6.9217	2.03800011	0	200	0
-3.69899988	6.9217	2.02200007	0	200	0
-3.67600012	6.9217	2.04399991	0	200	0
-3.68099999	6.9217	2.07599998	0	200	0
-3.68199992	6.9217	2.06900001	0	200	0
-3.6789999	6.9217	2.05699992	0	200	0
-3.67499995	6.9217	2.05100012	0	200	0
-3.62400007	6.92210007	2.08200002	0	200	0
-3.625	6.92210007	2.07599998	0	200	0
-3.55999994	6.9218998	2.09599996	0	200	0
-3.56599998	6.92199993	2.09500003	0	200	0
-3.55999994	6.9218998	2.08999991	0	200	0
-3.56800008	6.92199993	2.08899999	0	200	0
-3.56699991	6.92199993	2.10100007	0	200	0
-3.62100005	6.92210007	2.08899999	0	200	0
-3.68799996	6.9217	2.10100007	0	200	0
-3.68700004	6.9217	2.08800006	0	200	0
-3.68099999	6.9217	2.08200002	0	200	0
-3.61599994	6.92210007	2.09599996	0	200	0
-3.773	6.92219973	1.99899995	0	200	0
-3.7750001	6.92219973	1.99199998	0	200	0
-3.76399994	6.92219973	1.97399998	0	200	0
-3.62599993	6.92210007	2.10800004	0	200	0
-3.5710001	6.92199993	2.11299992	0	200	0
-3.55999994	6.9218998	2.102	0	200	0
-3.58200002	6.92180014	2.0999999	0	200	0
-3.55699992	6.9218998	2.11500001	0	200	0
-3.68799996	6.9217	2.10800004	0	200	0
-3.78800011	6.92219973	2.00399995	0	200	0
-3.773	6.92219973	2.03900003	0	200	0
-3.78399992	6.92219973	1.97800004	0	200	0
-3.76900005	6.92219973	2.02600002	0	200	0
-3.773	6.92219973	2.01300001	0	200	0
-3.55500007	6.9218998	2.12800002	0	200	0
-3.56599998	6.92199993	2.12599993	0	200	0
-3.56900001	6.92199993	2.11999989	0	200	0
-3.55900002	6.9218998	2.12100005	0	200	0
-3.55900002	6.9218998	2.1329999	0	200	0
-3.56699991	6.92199993	2.1329999	0	200	0
-3.62199998	6.92210007	2.12100005	0	200	0
-3.61599994	6.92210007	2.11500001	0	200	0
-3.56900001	6.92199993	2.14499998	0	200	0
-3.61999989	6.92210007	2.12700009	0	200	0
-3.61800003	6.92210007	2.15899992	0	200	0
-3.61899996	6.92210007	2.15300012	0	200	0
-3.68499994	6.9217	2.11400008	0	200	0
-3.62100005	6.92210007	2.14599991	0	200	0
-3.62800002	6.92210007	2.13899994	0	200	0
-3.56500006	6.92199993	2.18300009	0	200	0
-3.56100011	6.9218998	2.18300009	0	200	0
-3.56100011	6.9218998	2.17700005	0	200	0
-3.56599998	6.92199993	2.17600012	0	200	0
-3.56699991	6.92199993	2.16400003	0	200	0
-3.55699992	6.9218998	2.16499996	0	200	0
-3.56699991	6.92199993	2.15799999	0	200	0
-3.56100011	6.9218998	2.15799999	0	200	0
-3.56500006	6.92199993	2.15199995	0	200	0
-3.56299996	6.9218998	2.15199995	0	200	0
-3.55900002	6.9218998	2.14599991	0	200	0
-3.6960001	6.9217	2.1329999	0	200	0
-3.71099997	6.9217	2.11800003	0	200	0
-3.7579999	6.92219973	2.08100009	0	200	0
-3.7650001	6.92219973	2.06699991	0	200	0
-3.7750001	6.92219973	2.046	0	200	0
-3.704	6.9217	2.171	0	200	0
-3.74900007	6.92219973	2.11500001	0	200	0
-3.70499992	6.9217	2.16400003	0	200	0
-3.69700003	6.9217	2.15199995	0	200	0
-3.61599994	6.92210007	2.17799997	0	200	0
-3.625	6.92210007	2.171	0	200	0
-3.56800008	6.92199993	2.19499993	0	200	0
-3.58699989	6.92180014	2.18700004	0	200	0
-3.56599998	6.92199993	2.18899989	0	200	0
-3.55900002	6.9218998	2.18899989	0	200	0
-3.56100011	6.9218998	2.1960001	0	200	0
-3.62299991	6.92210007	2.18400002	0	200	0
-3.77200007	6.92219973	2.09200001	0	200	0
-3.76999998	6.92219973	2.09899998	0	200	0
-3.75500011	6.92219973	2.12700009	0	200	0
-3.7420001	6.92219973	2.148	0	200	0
-3.70099998	6.9217	2.18400002	0	200	0
-3.62400007	6.92210007	2.19000006	0	200	0
-3.78900003	6.92219973	1.903	0	200	0
-3.78999996	6.92219973	1.90999997	0	200	0
-3.78299999	6.92219973	1.92400002	0	200	0
-3.82200003	6.92219973	2.0539999	0	200	0
-3.77399993	6.92219973	2.07200003	0	200	0
-3.78600001	6.92219973	1.93700004	0	200	0
-3.82200003	6.92219973	2.02699995	0	200	0
-3.77900004	6.92219973	1.94500005	0	200	0
-3.78900003	6.92219973	1.95700002	0	200	0
-3.78399992	6.92219973	1.89100003	0	200	0
-3.62800002	6.92210007	2.20300007	0	200	0
-3.56299996	6.9218998	2.20799994	0	200	0
-3.56900001	6.92199993	2.20700002	0	200	0
-3.56200004	6.9218998	2.21399999	0	200	0
-3.75600004	6.92219973	2.16000009	0	200	0
-3.70700002	6.9217	2.20300007	0	200	0
-3.77600002	6.92219973	2.13199997	0	200	0
-3.81699991	6.92219973	2.10100007	0	200	0
-3.55900002	6.9218998	2.227	0	200	0
-3.56399989	6.92199993	2.22600007	0	200	0
-3.56500006	6.92199993	2.22000003	0	200	0
-3.56299996	6.9218998	2.22000003	0	200	0
-3.56900001	6.92199993	2.21399999	0	200	0
-3.61899996	6.92210007	2.21000004	0	200	0
-3.61800003	6.92210007	2.21600008	0	200	0
-3.55999994	6.9218998	2.23900008	0	200	0
-3.56900001	6.92199993	2.23799992	0	200	0
-3.61899996	6.92210007	2.22199988	0	200	0
-3.61800003	6.92210007	2.25399995	0	200	0
-3.58599997	6.92180014	2.24300003	0	200	0
-3.61899996	6.92210007	2.24799991	0	200	0
-3.62299991	6.92210007	2.24099994	0	200	0
-3.62199998	6.92210007	2.2349999	0	200	0
-3.55900002	6.9218998	2.27600002	0	200	0
-3.56399989	6.92199993	2.27600002	0	200	0
-3.55900002	6.9218998	2.26999998	0	200	0
-3.56599998	6.92199993	2.26999998	0	200	0
-3.55900002	6.9218998	2.2579999	0	200	0
-3.56200004	6.9218998	2.25099993	0	200	0
-3.56699991	6.92199993	2.25099993	0	200	0
-3.56500006	6.9218998	2.24499989	0	200	0
-3.56699991	6.92199993	2.24499989	0	200	0
-3.70300007	6.9217	2.22900009	0	200	0
-3.81399989	6.92219973	2.13499999	0	200	0
-3.79299998	6.92219973	2.1960001	0	200	0
-3.6170001	6.92210007	2.273	0	200	0
-3.62299991	6.92210007	2.26600003	0	200	0
-3.58500004	6.92180014	2.28699994	0	200	0
-3.56200004	6.9218998	2.28900003	0	200	0
-3.56699991	6.92199993	2.28800011	0	200	0
-3.55599999	6.9218998	2.28299999	0	200	0
-3.5539999	6.92199993	2.28299999	0	200	0
-3.62700009	6.92210007	2.27900004	0	200	0
-3.62400007	6.92210007	2.28500009	0	200	0
-3.7809999	6.92219973	1.824	0	200	0
-3.79200006	6.92219973	1.829	0	200	0
-3.78200006	6.92219973	1.83700001	0	200	0
-3.83899999	6.92219973	1.86800003	0	200	0
-3.78699994	6.92219973	1.84300005	0	200	0
-3.83999991	6.92219973	1.88900006	0	200	0
-3.796	6.92219973	1.85500002	0	200	0
-3.79500008	6.92219973	1.86199999	0	200	0
-3.80100012	6.92219973	1.86800003	0	200	0
-3.79900002	6.92219973	1.79299998	0	200	0
-3.79299998	6.92219973	1.801	0	200	0
-3.62400007	6.92210007	2.2980001	0	200	0
-3.56500006	6.92199993	2.30699992	0	200	0
-3.56900001	6.9218998	2.30699992	0	200	0
-3.56699991	6.92199993	2.30100012	0	200	0
-3.55999994	6.9218998	2.30100012	0	200	0
-3.56800008	6.92199993	2.31299996	0	200	0
-3.55999994	6.9218998	2.31299996	0	200	0
-3.58599997	6.92180014	2.31200004	0	200	0
-3.62400007	6.92210007	2.3039999	0	200	0
-3.62199998	6.92210007	2.30999994	0	200	0
-3.57599998	6.92210007	2.33100009	0	200	0
-3.63100004	6.92210007	2.31599998	0	200	0
-3.5309999	6.92199993	2.36999989	0	200	0
-3.53500009	6.9218998	2.36400008	0	200	0
-3.55599999	6.92199993	2.36299992	0	200	0
-3.523	6.92199993	2.352	0	200	0
-3.52600002	6.92199993	2.34599996	0	200	0
-3.55999994	6.9218998	2.35100007	0	200	0
-3.52900004	6.92210007	2.33899999	0	200	0
-3.55500007	6.9218998	2.34500003	0	200	0
-3.70799994	6.9217	2.30599999	0	200	0
-3.78399992	6.92219973	2.26999998	0	200	0
-3.79200006	6.92219973	2.26300001	0	200	0
-3.5710001	6.92180014	2.38100004	0	200	0
-3.52699995	6.92199993	2.38199997	0	200	0
-3.54299998	6.9218998	2.38199997	0	200	0
-3.5309999	6.92210007	2.37599993	0	200	0
-3.51600003	6.9218998	2.37100005	0	200	0
-3.53800011	6.9218998	2.37599993	0	200	0
-3.54399991	6.92199993	2.37599993	0	200	0
-3.68899989	6.9217	2.33899999	0	200	0
-3.62199998	6.92210007	2.38000011	0	200	0
-3.78800011	6.92219973	1.727	0	200	0
-3.80500007	6.92219973	1.73099995	0	200	0
-3.829	6.92219973	1.75300002	0	200	0
-3.78900003	6.92219973	1.75399995	0	200	0
-3.83800006	6.92219973	1.79999995	0	200	0
-3.79699993	6.92219973	1.76600003	0	200	0
-3.78800011	6.92219973	1.77499998	0	200	0
-3.78600001	6.92219973	1.78900003	0	200	0
-3.78999996	6.92219973	1.699	0	200	0
-3.79299998	6.92219973	1.70599997	0	200	0
-3.84299994	6.92219973	1.73000002	0	200	0
-3.80299997	6.92219973	1.71700001	0	200	0
-3.62800002	6.92210007	2.39199996	0	200	0
-3.55999994	6.9218998	2.4059999	0	200	0
-3.57200003	6.92199993	2.4059999	0	200	0
-3.58599997	6.92180014	2.39899993	0	200	0
-3.56299996	6.9218998	2.4000001	0	200	0
-3.56999993	6.92199993	2.4000001	0	200	0
-3.53600001	6.92199993	2.39400005	0	200	0
-3.54500008	6.9218998	2.39400005	0	200	0
-3.56299996	6.9218998	2.41199994	0	200	0
-3.56699991	6.92199993	2.41199994	0	200	0
-3.58899999	6.92180014	2.4059999	0	200	0
-3.62400007	6.92210007	2.39899993	0	200	0
-3.62100005	6.92210007	2.40499997	0	200	0
-3.56100011	6.9218998	2.42499995	0	200	0
-3.56699991	6.92199993	2.42499995	0	200	0
-3.625	6.92210007	2.41100001	0	200	0
-3.63400006	6.92180014	2.41100001	0	200	0
-3.56100011	6.9218998	2.46199989	0	200	0
-3.56299996	6.92199993	2.45600009	0	200	0
-3.56100011	6.9218998	2.45600009	0	200	0
-3.58100009	6.92180014	2.44300008	0	200	0
-3.58699989	6.92180014	2.43700004	0	200	0
-3.56800008	6.92199993	2.44300008	0	200	0
-3.56100011	6.9218998	2.44300008	0	200	0
-3.56900001	6.92199993	2.43700004	0	200	0
-3.56100011	6.9218998	2.43700004	0	200	0
-3.56999993	6.92199993	2.43099999	0	200	0
-3.56200004	6.9218998	2.43099999	0	200	0
-3.61999989	6.92210007	2.43600011	0	200	0
-3.62800002	6.92210007	2.42400002	0	200	0
-3.62100005	6.92210007	2.43000007	0	200	0
-3.71000004	6.9217	2.40300012	0	200	0
-3.76200008	6.92219973	2.36899996	0	200	0
-3.71600008	6.9217	2.39599991	0	200	0
-3.74699998	6.92219973	2.35700011	0	200	0
-3.72799993	6.92219973	2.36400008	0	200	0
-3.75	6.9217	2.36299992	0	200	0
-3.61800003	6.92210007	2.46099997	0	200	0
-3.62199998	6.92210007	2.45499992	0	200	0
-3.56800008	6.92199993	2.46799994	0	200	0
-3.58200002	6.92199993	2.46199989	0	200	0
-3.69799995	6.9217	2.43499994	0	200	0
-3.6960001	6.9217	2.4289999	0	200	0
-3.70700002	6.9217	2.42199993	0	200	0
-3.69300008	6.92210007	2.44199991	0	200	0
-3.62700009	6.92210007	2.46799994	0	200	0
-3.78900003	6.92219973	1.63100004	0	200	0
-3.78800011	6.92219973	1.63800001	0	200	0
-3.83999991	6.92219973	1.66100001	0	200	0
-3.79399991	6.92219973	1.65699995	0	200	0
-3.77099991	6.92219973	1.69000006	0	200	0
-3.79099989	6.92219973	1.69200003	0	200	0
-3.83800006	6.92219973	1.63999999	0	200	0
-3.79399991	6.92219973	1.602	0	200	0
-3.78900003	6.92219973	1.61699998	0	200	0
-3.77999997	6.92219973	1.62600005	0	200	0
-3.56100011	6.9218998	2.50500011	0	200	0
-3.56900001	6.92199993	2.49900007	0	200	0
-3.56200004	6.9218998	2.49900007	0	200	0
-3.58800006	6.92199993	2.49300003	0	200	0
-3.57299995	6.9218998	2.49300003	0	200	0
-3.56999993	6.92199993	2.50500011	0	200	0
-3.62100005	6.92210007	2.49900007	0	200	0
-3.56900001	6.92199993	2.52399993	0	200	0
-3.56100011	6.9218998	2.52399993	0	200	0
-3.57299995	6.92199993	2.51799989	0	200	0
-3.56100011	6.9218998	2.51699996	0	200	0
-3.62299991	6.92210007	2.50500011	0	200	0
-3.70900011	6.9217	2.44199991	0	200	0
-3.71300006	6.9217	2.46099997	0	200	0
-3.70900011	6.9217	2.454	0	200	0
-3.56900001	6.92199993	2.56100011	0	200	0
-3.56299996	6.9218998	2.56100011	0	200	0
-3.61899996	6.92210007	2.53699994	0	200	0
-3.56900001	6.92199993	2.55500007	0	200	0
-3.56200004	6.9218998	2.55500007	0	200	0
-3.61800003	6.92210007	2.5309999	0	200	0
-3.5710001	6.92199993	2.54900002	0	200	0
-3.61899996	6.92210007	2.52399993	0	200	0
-3.56399989	6.9218998	2.5480001	0	200	0
-3.61599994	6.92210007	2.51799989	0	200	0
-3.5710001	6.92199993	2.53600001	0	200	0
-3.56299996	6.9218998	2.53600001	0	200	0
-3.58800006	6.92180014	2.52999997	0	200	0
-3.56900001	6.92199993	2.52999997	0	200	0
-3.56200004	6.9218998	2.52999997	0	200	0
-3.69899988	6.92210007	2.49300003	0	200	0
-3.72600007	6.9217	2.5	0	200	0
-3.72799993	6.9217	2.49300003	0	200	0
-3.82200003	6.9217	2.35400009	0	200	0
-3.79399991	6.92219973	2.375	0	200	0
-3.62100005	6.92210007	2.55599999	0	200	0
-3.62299991	6.92210007	2.54900002	0	200	0
-3.56100011	6.9218998	2.56699991	0	200	0
-3.56900001	6.92199993	2.56699991	0	200	0
-3.72000003	6.9217	2.53200006	0	200	0
-3.72900009	6.9217	2.52600002	0	200	0
-3.71799994	6.9217	2.51900005	0	200	0
-3.72300005	6.9217	2.50600004	0	200	0
-3.62299991	6.92210007	2.56200004	0	200	0
-3.85400009	6.92219973	1.574	0	200	0
-3.57500005	6.92199993	2.59800005	0	200	0
-3.56699991	6.9218998	2.59800005	0	200	0
-3.61999989	6.92210007	2.56800008	0	200	0
-3.57200003	6.92199993	2.59200001	0	200	0
