11.0089998	6.77990007	-0.393999994	200	0	0
11.0380001	6.78000021	-0.442999989	200	0	0
11.0240002	6.77990007	-0.419	200	0	0
11.0100002	6.78009987	-0.518000007	200	0	0
11.0410004	6.78009987	-0.505999982	200	0	0
11.0209999	6.78000021	-0.521000028	200	0	0
11.0369997	6.7802	-0.463	200	0	0
11.0340004	6.78030109	-0.504000008	200	0	0
11.0310001	6.7803998	-0.419999987	200	0	0
11.0129995	6.78030109	-0.43599999	200	0	0
11.0249996	6.78070021	-0.460000008	200	0	0
11.0190001	6.78049994	-0.519999981	200	0	0
11.0220003	6.78060007	-0.500999987	200	0	0
11.0120001	6.78049994	-0.497999996	200	0	0
11.0150003	6.78070021	-0.499000013	200	0	0
11.0270004	6.78060007	-0.523000002	200	0	0
11.0410004	6.78080034	-0.505999982	200	0	0
11.0380001	6.78080034	-0.442999989	200	0	0
11.0249996	6.78080034	-0.419	200	0	0
10.9960003	6.78099966	-0.513999999	200	0	0
11.0039997	6.78080034	-0.515999973	200	0	0
11.0059996	6.7810998	-0.435000002	200	0	0
11.0159998	6.7810998	-0.499000013	200	0	0
11.0010004	6.78099966	-0.432999998	200	0	0
11.0089998	6.78099966	-0.456	200	0	0
11.0120001	6.78119993	-0.497999996	200	0	0
11.0050001	6.7810998	-0.51700002	200	0	0
11.0179996	6.78130007	-0.437999994	200	0	0
11.0120001	6.78119993	-0.456999987	200	0	0
11.0209999	6.78119993	-0.437999994	200	0	0
11.0240002	6.78119993	-0.419	200	0	0
10.9879999	6.78099966	-0.409000009	200	0	0
11.0059996	6.7810998	-0.414000005	200	0	0
10.9910002	6.78130007	-0.389999986	200	0	0
11.0100002	6.78150082	-0.414999992	200	0	0
10.9899998	6.7814002	-0.409999996	200	0	0
11.0170002	6.78159952	-0.458000004	200	0	0
10.9980001	6.78150082	-0.432999998	200	0	0
10.9879999	6.78130007	-0.409000009	200	0	0
10.9949999	6.78150082	-0.451999992	200	0	0
11.0100002	6.78130007	-0.518000007	200	0	0
10.9840002	6.78119993	-0.510999978	200	0	0
11.007	6.78130007	-0.497000009	200	0	0
10.974	6.78130007	-0.550000012	200	0	0
11.0030003	6.78169966	-0.453999996	200	0	0
10.9829998	6.78169966	-0.428000003	200	0	0
10.9860001	6.78169966	-0.409000009	200	0	0
11.0120001	6.78179979	-0.456999987	200	0	0
10.9790001	6.78189993	-0.50999999	200	0	0
10.9840002	6.78169966	-0.49000001	200	0	0
10.9910002	6.78200006	-0.409999996	200	0	0
11.0019999	6.78200006	-0.453999996	200	0	0
11.0159998	6.78189993	-0.458000004	200	0	0
10.9779997	6.78169966	-0.386000007	200	0	0
11.0129995	6.78179979	-0.416000009	200	0	0
10.9940004	6.78179979	-0.430999994	200	0	0
10.9840002	6.7821002	-0.449000001	200	0	0
10.9840002	6.7821002	-0.42899999	200	0	0
10.9750004	6.78219986	-0.405999988	200	0	0
10.9790001	6.78240013	-0.426999986	200	0	0
10.9910002	6.78240013	-0.409999996	200	0	0
10.9849997	6.7823	-0.449999988	200	0	0
10.9879999	6.78240013	-0.490999997	200	0	0
10.9890003	6.7823	-0.492000014	200	0	0
10.9809999	6.78259993	-0.428000003	200	0	0
10.9809999	6.78249979	-0.407000005	200	0	0
10.9779997	6.78259993	-0.448000014	200	0	0
10.9720001	6.78249979	-0.486999989	200	0	0
10.9659996	6.78249979	-0.444999993	200	0	0
10.9790001	6.78249979	-0.426999986	200	0	0
10.9639997	6.78259993	-0.402999997	200	0	0
10.9860001	6.78270006	-0.449999988	200	0	0
10.9619999	6.78289986	-0.421000004	200	0	0
10.9729996	6.78280067	-0.444999993	200	0	0
10.9650002	6.78270006	-0.423999995	200	0	0
10.9770002	6.78270006	-0.386000007	200	0	0
10.9720001	6.78270006	-0.405000001	200	0	0
10.9659996	6.78299999	-0.483999997	200	0	0
10.9630003	6.78299999	-0.421999991	200	0	0
10.9790001	6.78299999	-0.44600001	200	0	0
10.948	6.78310013	-0.375	200	0	0
10.9490004	6.78299999	-0.377000004	200	0	0
10.9420004	6.78299999	-0.395999998	200	0	0
10.96	6.7833004	-0.439999998	200	0	0
10.9350004	6.78299999	-0.495999992	200	0	0
10.9490004	6.7833004	-0.477999985	200	0	0
10.9399996	6.78310013	-0.495999992	200	0	0
10.9549999	6.78349972	-0.437999994	200	0	0
10.9370003	6.78320026	-0.372000009	200	0	0
10.96	6.78340101	-0.398000002	200	0	0
10.9499998	6.78349972	-0.477999985	200	0	0
10.9499998	6.78359985	-0.437000006	200	0	0
10.9639997	6.78359985	-0.419999987	200	0	0
10.941	6.78369999	-0.474999994	200	0	0
10.941	6.78380013	-0.393999994	200	0	0
10.9469995	6.78359985	-0.476999998	200	0	0
10.9399996	6.78369999	-0.393000007	200	0	0
10.9460001	6.78369999	-0.43599999	200	0	0
10.9320002	6.78359985	-0.391000003	200	0	0
10.9180002	6.78349972	-0.49000001	200	0	0
10.9320002	6.78390026	-0.470999986	200	0	0
10.9370003	6.78380013	-0.474000007	200	0	0
10.9169998	6.78369999	-0.49000001	200	0	0
10.941	6.78380013	-0.372999996	200	0	0
10.948	6.78390026	-0.414000005	200	0	0
10.9560003	6.78400087	-0.416000009	200	0	0
10.9350004	6.78400087	-0.389999986	200	0	0
10.9370003	6.78419971	-0.409000009	200	0	0
10.9379997	6.78409958	-0.388999999	200	0	0
10.9490004	6.78419971	-0.432999998	200	0	0
10.9209995	6.78390026	-0.488999993	200	0	0
10.9519997	6.78409958	-0.412999988	200	0	0
10.9350004	6.78409958	-0.42899999	200	0	0
10.9379997	6.78400087	-0.47299999	200	0	0
10.8959999	6.78349972	-0.565999985	200	0	0
10.9329996	6.78439999	-0.469000012	200	0	0
10.9200001	6.78439999	-0.425000012	200	0	0
10.9399996	6.78409958	-0.368999988	200	0	0
10.9519997	6.78429985	-0.39199999	200	0	0
10.927	6.78419971	-0.386000007	200	0	0
10.9209995	6.78429985	-0.465999991	200	0	0
10.941	6.78429985	-0.430000007	200	0	0
10.9189997	6.78439999	-0.486000001	200	0	0
10.9169998	6.78450012	-0.463	200	0	0
10.9259996	6.78450012	-0.425000012	200	0	0
10.9440002	6.78439999	-0.389999986	200	0	0
10.9040003	6.78460026	-0.35800001	200	0	0
10.9370003	6.78460026	-0.426999986	200	0	0
10.9350004	6.78460026	-0.386000007	200	0	0
10.9289999	6.78450012	-0.384000003	200	0	0
10.9420004	6.78479958	-0.407999992	200	0	0
10.9090004	6.78479958	-0.379000008	200	0	0
10.9160004	6.78489971	-0.421999991	200	0	0
10.8999996	6.78479958	-0.356000006	200	0	0
10.9119997	6.78509998	-0.379999995	200	0	0
10.9189997	6.78499985	-0.361000001	200	0	0
10.9110003	6.78509998	-0.400000006	200	0	0
10.9219999	6.78499985	-0.381999999	200	0	0
10.934	6.78479958	-0.324000001	200	0	0
10.9300003	6.78489971	-0.486999989	200	0	0
10.9280005	6.78520012	-0.423000008	200	0	0
10.9160004	6.78530073	-0.463	200	0	0
10.8940001	6.78520012	-0.455000013	200	0	0
10.9090004	6.78520012	-0.479000002	200	0	0
10.9209995	6.78530073	-0.381999999	200	0	0
10.9040003	6.78530073	-0.398000002	200	0	0
10.915	6.78520012	-0.379000008	200	0	0
10.9040003	6.78530073	-0.419	200	0	0
10.915	6.78520012	-0.398999989	200	0	0
10.9119997	6.78539991	-0.398000002	200	0	0
10.9119997	6.78550005	-0.398000002	200	0	0
10.9099998	6.78550005	-0.377000004	200	0	0
10.9110003	6.78550005	-0.356999993	200	0	0
10.9060001	6.78539991	-0.375999987	200	0	0
10.9110003	6.78530073	-0.358999997	200	0	0
10.908	6.78509998	-0.317999989	200	0	0
10.9169998	6.78550005	-0.419999987	200	0	0
10.9020004	6.78569984	-0.395999998	200	0	0
10.9160004	6.78569984	-0.419999987	200	0	0
10.9099998	6.78560019	-0.418000013	200	0	0
10.9250002	6.78560019	-0.381000012	200	0	0
10.9209995	6.78560019	-0.400999993	200	0	0
10.8900003	6.78569984	-0.372000009	200	0	0
10.9060001	6.78579998	-0.458000004	200	0	0
10.908	6.78579998	-0.397000015	200	0	0
10.8999996	6.78550005	-0.293000013	200	0	0
10.8529997	6.78539991	-0.301999986	200	0	0
10.8889999	6.78599977	-0.372000009	200	0	0
10.9110003	6.78590107	-0.398000002	200	0	0
10.8979998	6.78590107	-0.374000013	200	0	0
10.8979998	6.78609991	-0.414999992	200	0	0
10.868	6.78609991	-0.448000014	200	0	0
10.8959999	6.78620005	-0.352999985	200	0	0
10.8940001	6.78620005	-0.393999994	200	0	0
10.8959999	6.78609991	-0.352999985	200	0	0
10.8929996	6.78609991	-0.393000007	200	0	0
10.8979998	6.78609991	-0.374000013	200	0	0
10.8780003	6.78630018	-0.409999996	200	0	0
10.8959999	6.78630018	-0.374000013	200	0	0
10.8990002	6.78640032	-0.375	200	0	0
10.9020004	6.78640032	-0.395999998	200	0	0
10.8850002	6.78640032	-0.349999994	200	0	0
10.8789997	6.78599977	-0.307999998	200	0	0
10.8760004	6.78659964	-0.409000009	200	0	0
10.8979998	6.78659964	-0.395000011	200	0	0
10.8859997	6.78650093	-0.370999992	200	0	0
10.8889999	6.78650093	-0.412999988	200	0	0
10.8929996	6.78650093	-0.393000007	200	0	0
10.8710003	6.78659964	-0.347000003	200	0	0
10.8629999	6.78650093	-0.344999999	200	0	0
10.8850002	6.78640032	-0.493000001	200	0	0
10.8900003	6.78669977	-0.393000007	200	0	0
10.8660002	6.78669977	-0.305000007	200	0	0
10.8780003	6.78690004	-0.411000013	200	0	0
10.8570004	6.78659964	-0.303000003	200	0	0
10.8579998	6.78690004	-0.386000007	200	0	0
10.8889999	6.78690004	-0.352999985	200	0	0
10.875	6.78690004	-0.370000005	200	0	0
10.8809996	6.78669977	-0.349000007	200	0	0
10.8730001	6.78700018	-0.409999996	200	0	0
10.8800001	6.78690004	-0.453000009	200	0	0
10.8599997	6.78669977	-0.44600001	200	0	0
10.8669996	6.78700018	-0.449000001	200	0	0
10.8319998	6.78690004	-0.460000008	200	0	0
10.8529997	6.78700018	-0.384000003	200	0	0
10.875	6.78710032	-0.370000005	200	0	0
10.875	6.78700018	-0.308999985	200	0	0
10.868	6.78700018	-0.368000001	200	0	0
10.8800001	6.78690004	-0.310000002	200	0	0
10.875	6.78700018	-0.349999994	200	0	0
10.8760004	6.7871995	-0.349999994	200	0	0
10.8640003	6.78729963	-0.367000014	200	0	0
10.882	6.78729963	-0.39199999	200	0	0
10.8599997	6.78729963	-0.405999988	200	0	0
10.8470001	6.78729963	-0.342000008	200	0	0
10.8559999	6.7871995	-0.30399999	200	0	0
10.8649998	6.7874999	-0.367000014	200	0	0
10.8439999	6.78739977	-0.442999989	200	0	0
10.8769999	6.7874999	-0.389999986	200	0	0
10.875	6.78739977	-0.370000005	200	0	0
10.8800001	6.78739977	-0.391000003	200	0	0
10.8660002	6.78739977	-0.407999992	200	0	0
10.868	6.7874999	-0.34799999	200	0	0
10.8520002	6.78739977	-0.342999995	200	0	0
10.8549995	6.78760004	-0.384000003	200	0	0
10.875	6.78760004	-0.370000005	200	0	0
10.8540001	6.78760004	-0.344000012	200	0	0
10.8549995	6.78760004	-0.30399999	200	0	0
10.8620005	6.78770018	-0.365999997	200	0	0
10.8559999	6.78770018	-0.405000001	200	0	0
10.8780003	6.78770018	-0.391000003	200	0	0
10.8559999	6.78780079	-0.344000012	200	0	0
10.8549995	6.78770018	-0.344000012	200	0	0
10.868	6.78789997	-0.347000003	200	0	0
10.8620005	6.78800011	-0.365999997	200	0	0
10.8629999	6.78770018	-0.284999996	200	0	0
10.8520002	6.78809977	-0.384000003	200	0	0
10.8660002	6.78809977	-0.367000014	200	0	0
10.8450003	6.7881999	-0.40200001	200	0	0
10.8610001	6.7881999	-0.344999999	200	0	0
10.8629999	6.7881999	-0.365999997	200	0	0
10.8699999	6.7881999	-0.307000011	200	0	0
10.8339996	6.78800011	-0.277999997	200	0	0
10.8529997	6.78840065	-0.400000006	200	0	0
10.8549995	6.78840065	-0.340000004	200	0	0
10.8570004	6.78840065	-0.360000014	200	0	0
10.849	6.78830004	-0.400999993	200	0	0
10.8439999	6.78830004	-0.338999987	200	0	0
10.8430004	6.78830004	-0.379000008	200	0	0
10.8579998	6.78830004	-0.363000005	200	0	0
10.8590002	6.78849983	-0.361000001	200	0	0
10.8549995	6.78849983	-0.379999995	200	0	0
10.849	6.78849983	-0.338	200	0	0
10.8649998	6.78840065	-0.301999986	200	0	0
10.835	6.78849983	-0.273999989	200	0	0
10.8389997	6.78840065	-0.275000006	200	0	0
10.8470001	6.78859997	-0.338999987	200	0	0
10.8509998	6.78859997	-0.381000012	200	0	0
10.8500004	6.7887001	-0.360000014	200	0	0
10.8430004	6.7887001	-0.338	200	0	0
10.8369999	6.78880024	-0.377000004	200	0	0
10.8500004	6.78880024	-0.340000004	200	0	0
10.8330002	6.78890038	-0.335000008	200	0	0
10.8260002	6.78890038	-0.354000002	200	0	0
10.8509998	6.78890038	-0.381000012	200	0	0
10.8400002	6.78900099	-0.377999991	200	0	0
10.8360004	6.78900099	-0.296000004	200	0	0
10.8310003	6.78900099	-0.335000008	200	0	0
10.8380003	6.78880024	-0.296000004	200	0	0
10.8260002	6.78929996	-0.374000013	200	0	0
10.8039999	6.78919983	-0.388000011	200	0	0
10.835	6.78919983	-0.356000006	200	0	0
10.8280001	6.78919983	-0.374000013	200	0	0
10.8319998	6.78929996	-0.354999989	200	0	0
10.8369999	6.78929996	-0.335999995	200	0	0
10.8339996	6.7894001	-0.335000008	200	0	0
10.8280001	6.7894001	-0.354000002	200	0	0
10.816	6.7894001	-0.370999992	200	0	0
10.8280001	6.78929996	-0.294	200	0	0
10.8120003	6.7894001	-0.289999992	200	0	0
10.8109999	6.78950024	-0.330000013	200	0	0
10.8170004	6.78950024	-0.351000011	200	0	0
10.823	6.78960037	-0.333000004	200	0	0
10.816	6.78960037	-0.370999992	200	0	0
10.8389997	6.78960037	-0.296000004	200	0	0
10.8299999	6.78969955	-0.354999989	200	0	0
10.8470001	6.78979969	-0.298000008	200	0	0
10.8170004	6.78989983	-0.331	200	0	0
10.8050003	6.78989983	-0.287999988	200	0	0
10.8190002	6.79020023	-0.351999998	200	0	0
10.8409996	6.78960037	-0.458999991	200	0	0
10.8120003	6.7901001	-0.370000005	200	0	0
10.7959995	6.78999996	-0.386000007	200	0	0
10.8149996	6.78999996	-0.351000011	200	0	0
10.8039999	6.78999996	-0.368000001	200	0	0
10.776	6.78969955	-0.462000012	200	0	0
10.823	6.78999996	-0.291999996	200	0	0
10.8149996	6.7901001	-0.289999992	200	0	0
10.8009996	6.79030085	-0.326999992	200	0	0
10.8059998	6.79030085	-0.34799999	200	0	0
10.8120003	6.79020023	-0.289999992	200	0	0
10.7939997	6.79030085	-0.264999986	200	0	0
10.7939997	6.79030085	-0.284999996	200	0	0
10.816	6.79039955	-0.291000009	200	0	0
10.8109999	6.79039955	-0.349999994	200	0	0
10.8129997	6.79039955	-0.330000013	200	0	0
10.7980003	6.79049969	-0.345999986	200	0	0
10.7770004	6.79049969	-0.361000001	200	0	0
10.8059998	6.79049969	-0.287999988	200	0	0
10.7969999	6.79059982	-0.326000005	200	0	0
10.8179998	6.79080009	-0.291000009	200	0	0
10.809	6.79080009	-0.349000007	200	0	0
10.8260002	6.79080009	-0.333000004	200	0	0
10.7869997	6.79069996	-0.342999995	200	0	0
10.8140001	6.79069996	-0.330000013	200	0	0
10.8149996	6.79090071	-0.289999992	200	0	0
10.7939997	6.79110003	-0.344999999	200	0	0
10.7889996	6.79069996	-0.425000012	200	0	0
10.8140001	6.79090071	-0.330000013	200	0	0
10.8050003	6.79090071	-0.34799999	200	0	0
10.7959995	6.79090071	-0.264999986	200	0	0
10.7980003	6.79099989	-0.266000003	200	0	0
10.8170004	6.79099989	-0.291000009	200	0	0
10.7790003	6.79110003	-0.280999988	200	0	0
10.7910004	6.79120016	-0.344000012	200	0	0
10.79	6.79099989	-0.244000003	200	0	0
10.7770004	6.79129982	-0.280000001	200	0	0
10.7840004	6.79129982	-0.321999997	200	0	0
10.7810001	6.79129982	-0.342000008	200	0	0
10.7880001	6.79139996	-0.323000014	200	0	0
10.7959995	6.79139996	-0.345999986	200	0	0
10.7799997	6.79139996	-0.261000007	200	0	0
10.8000002	6.79150105	-0.347000003	200	0	0
10.7959995	6.79159975	-0.345999986	200	0	0
10.7720003	6.79159975	-0.259000003	200	0	0
10.7849998	6.79159975	-0.323000014	200	0	0
10.7810001	6.79159975	-0.280999988	200	0	0
10.7679996	6.79129982	-0.238000005	200	0	0
10.7790003	6.79169989	-0.32100001	200	0	0
10.7869997	6.79180002	-0.323000014	200	0	0
10.7840004	6.79180002	-0.282000005	200	0	0
10.7670002	6.79200029	-0.317999989	200	0	0
10.8059998	6.79200029	-0.34799999	200	0	0
10.8009996	6.79190016	-0.386999995	200	0	0
10.7709999	6.79190016	-0.358999997	200	0	0
10.783	6.79190016	-0.321999997	200	0	0
10.7740002	6.79190016	-0.340000004	200	0	0
10.7729998	6.79180002	-0.360000014	200	0	0
10.7930002	6.79180002	-0.344999999	200	0	0
10.7609997	6.79190016	-0.256000012	200	0	0
10.776	6.79190016	-0.280000001	200	0	0
10.7720003	6.79200029	-0.259000003	200	0	0
10.7910004	6.79200029	-0.284000009	200	0	0
10.7810001	6.79210043	-0.321999997	200	0	0
10.7729998	6.79210043	-0.340000004	200	0	0
10.7740002	6.79219961	-0.319999993	200	0	0
10.7639999	6.79219961	-0.256999999	200	0	0
10.7650003	6.79219961	-0.27700001	200	0	0
10.7700005	6.79210043	-0.259000003	200	0	0
10.7720003	6.79210043	-0.279000014	200	0	0
10.7749996	6.79219961	-0.340000004	200	0	0
10.776	6.79229975	-0.25999999	200	0	0
10.7679996	6.79239988	-0.317999989	200	0	0
10.7609997	6.79239988	-0.356999993	200	0	0
10.7709999	6.79239988	-0.338999987	200	0	0
10.776	6.79250002	-0.340000004	200	0	0
10.7860003	6.79250002	-0.282999992	200	0	0
10.7460003	6.79239988	-0.252000004	200	0	0
10.7580004	6.79239988	-0.236000001	200	0	0
10.7729998	6.79239988	-0.279000014	200	0	0
10.783	6.79260015	-0.282000005	200	0	0
10.7620001	6.79260015	-0.337000012	200	0	0
10.7720003	6.79260015	-0.319000006	200	0	0
10.7539997	6.79270029	-0.31400001	200	0	0
10.7770004	6.79270029	-0.340999991	200	0	0
10.7639999	6.79270029	-0.256999999	200	0	0
10.7720003	6.79270029	-0.279000014	200	0	0
10.7559996	6.79260015	-0.254999995	200	0	0
10.7799997	6.79289961	-0.280999988	200	0	0
10.7709999	6.79289961	-0.338999987	200	0	0
10.7550001	6.79289961	-0.314999998	200	0	0
10.7679996	6.7928009	-0.340000004	200	0	0
10.7749996	6.7928009	-0.321999997	200	0	0
10.75	6.79270029	-0.354000002	200	0	0
10.75	6.7928009	-0.254999995	200	0	0
10.7489996	6.79260015	-0.232999995	200	0	0
10.7519999	6.79289961	-0.233999997	200	0	0
10.7489996	6.79289961	-0.252999991	200	0	0
10.7709999	6.79299974	-0.280999988	200	0	0
10.7810001	6.79309988	-0.282999992	200	0	0
10.7519999	6.79309988	-0.335999995	200	0	0
10.7629995	6.79309988	-0.319000006	200	0	0
10.7620001	6.79309988	-0.257999986	200	0	0
10.7580004	6.79320002	-0.27700001	200	0	0
10.7449999	6.79330015	-0.333999991	200	0	0
10.7709999	6.79330015	-0.32100001	200	0	0
10.7449999	6.79320002	-0.333999991	200	0	0
10.7749996	6.79320002	-0.321999997	200	0	0
10.7519999	6.79340076	-0.335999995	200	0	0
10.7550001	6.79340076	-0.256999999	200	0	0
10.7440004	6.79349995	-0.273999989	200	0	0
10.7639999	6.79349995	-0.259000003	200	0	0
10.7550001	6.79349995	-0.337000012	200	0	0
10.7779999	6.79369974	-0.323000014	200	0	0
10.7589998	6.79369974	-0.257999986	200	0	0
10.75	6.79379988	-0.316000015	200	0	0
10.7489996	6.79390001	-0.254999995	200	0	0
10.7449999	6.79400063	-0.273999989	200	0	0
10.7539997	6.79390001	-0.237000003	200	0	0
10.7519999	6.79400063	-0.316000015	200	0	0
10.7360001	6.79400063	-0.331999987	200	0	0
10.7609997	6.79390001	-0.358999997	200	0	0
10.7410002	6.79390001	-0.333999991	200	0	0
10.7480001	6.79409981	-0.314999998	200	0	0
10.7279997	6.79409981	-0.270000011	200	0	0
10.7410002	6.79409981	-0.254000008	200	0	0
10.7299995	6.79419994	-0.308999985	200	0	0
10.7309999	6.79419994	-0.328999996	200	0	0
10.7370005	6.79409981	-0.333000004	200	0	0
10.7200003	6.79430008	-0.246000007	200	0	0
10.7279997	6.79430008	-0.268000007	200	0	0
10.7089996	6.79409981	-0.224999994	200	0	0
10.7349997	6.79419994	-0.270000011	200	0	0
10.75	6.79419994	-0.233999997	200	0	0
10.7320004	6.79440022	-0.26699999	200	0	0
10.7480001	6.79460001	-0.312000006	200	0	0
10.7399998	6.79450035	-0.308999985	200	0	0
10.7220001	6.79460001	-0.245000005	200	0	0
10.7220001	6.79460001	-0.264999986	200	0	0
10.7299995	6.79450035	-0.226999998	200	0	0
10.743	6.79450035	-0.270000011	200	0	0
10.7469997	6.79450035	-0.250999987	200	0	0
10.7229996	6.79469967	-0.305000007	200	0	0
10.7270002	6.79469967	-0.326000005	200	0	0
10.7229996	6.79460001	-0.324999988	200	0	0
10.7180004	6.79460001	-0.224000007	200	0	0
10.7440004	6.79469967	-0.270000011	200	0	0
10.7460003	6.79469967	-0.250999987	200	0	0
10.7180004	6.79489994	-0.30399999	200	0	0
10.7150002	6.79489994	-0.263000011	200	0	0
10.7189999	6.79489994	-0.324000001	200	0	0
10.7010002	6.79460001	-0.358999997	200	0	0
10.7150002	6.79500008	-0.323000014	200	0	0
10.717	6.79500008	-0.30399999	200	0	0
10.7419996	6.79500008	-0.230000004	200	0	0
10.7139997	6.79500008	-0.243000001	200	0	0
10.7309999	6.79500008	-0.26699999	200	0	0
10.7349997	6.79510021	-0.328000009	200	0	0
10.7320004	6.79520035	-0.268000007	200	0	0
10.7370005	6.79520035	-0.229000002	200	0	0
10.7209997	6.79520035	-0.245000005	200	0	0
10.717	6.79510021	-0.263999999	200	0	0
10.7220001	6.79520035	-0.305000007	200	0	0
10.7209997	6.79530096	-0.305000007	200	0	0
10.7150002	6.79530096	-0.243000001	200	0	0
10.7060003	6.79530096	-0.261000007	200	0	0
10.698	6.79539967	-0.298999995	200	0	0
10.698	6.79539967	-0.218999997	200	0	0
10.7110004	6.79539967	-0.261999995	200	0	0
10.691	6.79530096	-0.216999993	200	0	0
10.7189999	6.79539967	-0.244000003	200	0	0
10.7180004	6.79559994	-0.263999999	200	0	0
10.6879997	6.79559994	-0.316000015	200	0	0
10.7250004	6.79559994	-0.246000007	200	0	0
10.7250004	6.79570007	-0.246000007	200	0	0
10.6820002	6.79580021	-0.31400001	200	0	0
10.6929998	6.79580021	-0.296999991	200	0	0
10.7130003	6.79570007	-0.263000011	200	0	0
10.7080002	6.79570007	-0.32100001	200	0	0
10.6999998	6.79580021	-0.238999993	200	0	0
10.6960001	6.79570007	-0.217999995	200	0	0
10.7089996	6.79559994	-0.222000003	200	0	0
10.684	6.79590082	-0.314999998	200	0	0
10.7189999	6.79590082	-0.244000003	200	0	0
10.6879997	6.79590082	-0.216999993	200	0	0
10.7019997	6.79590082	-0.25999999	200	0	0
10.6809998	6.79580021	-0.215000004	200	0	0
10.7019997	6.79609966	-0.239999995	200	0	0
10.7040005	6.79599953	-0.219999999	200	0	0
10.6949997	6.79599953	-0.298000008	200	0	0
10.7089996	6.79599953	-0.261999995	200	0	0
10.7049999	6.79609966	-0.221000001	200	0	0
10.698	6.79609966	-0.298999995	200	0	0
10.6809998	6.7961998	-0.31400001	200	0	0
10.7040005	6.7961998	-0.300000012	200	0	0
10.7019997	6.7961998	-0.219999999	200	0	0
10.7010002	6.7961998	-0.239999995	200	0	0
10.698	6.79629993	-0.259000003	200	0	0
10.6990004	6.79629993	-0.298999995	200	0	0
10.7019997	6.79629993	-0.239999995	200	0	0
10.6879997	6.79629993	-0.216999993	200	0	0
10.6899996	6.79640007	-0.317000002	200	0	0
10.6859999	6.79640007	-0.216000006	200	0	0
10.6850004	6.79650068	-0.254999995	200	0	0
10.7119999	6.79640007	-0.261999995	200	0	0
10.6870003	6.79650068	-0.296000004	200	0	0
10.6789999	6.79640007	-0.194000006	200	0	0
10.6960001	6.79659986	-0.257999986	200	0	0
10.6879997	6.79650068	-0.216999993	200	0	0
10.6940002	6.7967	-0.296999991	200	0	0
10.684	6.79659986	-0.294999987	200	0	0
10.6820002	6.7967	-0.254999995	200	0	0
10.6960001	6.7967	-0.217999995	200	0	0
10.6870003	6.7967	-0.236000001	200	0	0
10.691	6.79659986	-0.216999993	200	0	0
10.6890001	6.79680014	-0.216999993	200	0	0
10.7060003	6.7968998	-0.261000007	200	0	0
10.677	6.79699993	-0.214000002	200	0	0
10.6920004	6.79699993	-0.256999999	200	0	0
10.691	6.79699993	-0.237000003	200	0	0
10.6809998	6.7968998	-0.215000004	200	0	0
10.6920004	6.7968998	-0.237000003	200	0	0
10.6759996	6.79699993	-0.312999994	200	0	0
10.691	6.79710007	-0.337000012	200	0	0
10.6859999	6.79710007	-0.294999987	200	0	0
10.6859999	6.79710007	-0.216000006	200	0	0
10.6730003	6.79719973	-0.291999996	200	0	0
10.6899996	6.79719973	-0.237000003	200	0	0
10.6630001	6.79719973	-0.209999993	200	0	0
10.6759996	6.79729986	-0.252999991	200	0	0
10.6680002	6.79729986	-0.231000006	200	0	0
10.6890001	6.7974	-0.216000006	200	0	0
10.6680002	6.7974	-0.231000006	200	0	0
10.6899996	6.7974	-0.256999999	200	0	0
10.6669998	6.79750013	-0.287999988	200	0	0
10.6870003	6.79750013	-0.233999997	200	0	0
10.677	6.79750013	-0.250999987	200	0	0
10.6639996	6.79760027	-0.287999988	200	0	0
10.6459999	6.79750013	-0.303000003	200	0	0
10.6780005	6.79750013	-0.211999997	200	0	0
10.665	6.79760027	-0.208000004	200	0	0
10.6820002	6.79760027	-0.193000004	200	0	0
10.6669998	6.79770041	-0.246999994	200	0	0
10.677	6.79770041	-0.209999993	200	0	0
10.6820002	6.79780102	-0.231000006	200	0	0
10.6850004	6.79780102	-0.250999987	200	0	0
10.6490002	6.79789972	-0.182999998	200	0	0
10.6669998	6.79789972	-0.246999994	200	0	0
10.6479998	6.79770041	-0.182999998	200	0	0
10.6809998	6.79780102	-0.210999995	200	0	0
10.6689997	6.79780102	-0.307000011	200	0	0
10.6669998	6.79780102	-0.286000013	200	0	0
10.677	6.79799986	-0.291000009	200	0	0
10.6549997	6.79799986	-0.186000004	200	0	0
10.6739998	6.79799986	-0.25	200	0	0
10.6719999	6.79799986	-0.230000004	200	0	0
10.6759996	6.79809999	-0.250999987	200	0	0
10.665	6.79809999	-0.208000004	200	0	0
10.6619997	6.79809999	-0.226999998	200	0	0
10.6599998	6.79809999	-0.187000006	200	0	0
10.6739998	6.79820013	-0.247999996	200	0	0
10.658	6.79820013	-0.204999998	200	0	0
10.6560001	6.79830027	-0.244000003	200	0	0
10.6499996	6.79830027	-0.222000003	200	0	0
10.6540003	6.79830027	-0.203999996	200	0	0
10.6610003	6.79840088	-0.246999994	200	0	0
10.651	6.79840088	-0.284000009	200	0	0
10.6339998	6.79830027	-0.298000008	200	0	0
10.651	6.79830027	-0.282000005	200	0	0
10.6560001	6.79840088	-0.206	200	0	0
10.6599998	6.79849958	-0.246999994	200	0	0
10.6490002	6.79830027	-0.182999998	200	0	0
10.6680002	6.79849958	-0.209000006	200	0	0
10.6440001	6.79840088	-0.182999998	200	0	0
10.6730003	6.79859972	-0.209999993	200	0	0
10.6660004	6.79859972	-0.228	200	0	0
10.665	6.79869986	-0.208000004	200	0	0
10.6590004	6.79869986	-0.226999998	200	0	0
10.6549997	6.79879999	-0.207000002	200	0	0
10.6470003	6.79879999	-0.186000004	200	0	0
10.6440001	6.79869986	-0.182999998	200	0	0
10.6420002	6.79859972	-0.181999996	200	0	0
10.6440001	6.79890013	-0.284000009	200	0	0
10.6549997	6.79890013	-0.226999998	200	0	0
10.6590004	6.79890013	-0.208000004	200	0	0
10.6599998	6.79890013	-0.188999996	200	0	0
10.6549997	6.79890013	-0.246999994	200	0	0
10.6429996	6.79900074	-0.244000003	200	0	0
10.6389999	6.79900074	-0.202999994	200	0	0
10.6459999	6.79909992	-0.224999994	200	0	0
10.6409998	6.79900074	-0.282999992	200	0	0
10.6590004	6.79909992	-0.188999996	200	0	0
10.6459999	6.79909992	-0.204999998	200	0	0
10.6490002	6.79920006	-0.206	200	0	0
10.6289997	6.79909992	-0.280000001	200	0	0
10.6540003	6.79920006	-0.246999994	200	0	0
10.6479998	6.79920006	-0.186000004	200	0	0
10.6520004	6.79929972	-0.207000002	200	0	0
10.6210003	6.79920006	-0.277999997	200	0	0
10.6269999	6.79929972	-0.180000007	200	0	0
10.651	6.79939985	-0.206	200	0	0
10.6389999	6.79939985	-0.223000005	200	0	0
10.6429996	6.79939985	-0.244000003	200	0	0
10.6409998	6.79939985	-0.184	200	0	0
10.6450005	6.79949999	-0.185000002	200	0	0
10.6379995	6.79949999	-0.223000005	200	0	0
10.6409998	6.79949999	-0.203999996	200	0	0
10.6459999	6.79949999	-0.245000005	200	0	0
10.6440001	6.79960012	-0.244000003	200	0	0
10.6280003	6.79929972	-0.141000003	200	0	0
10.651	6.79960012	-0.225999996	200	0	0
10.6479998	6.79960012	-0.204999998	200	0	0
10.6420002	6.79969978	-0.244000003	200	0	0
10.6409998	6.79969978	-0.184	200	0	0
10.6470003	6.79969978	-0.224999994	200	0	0
10.6370001	6.79969978	-0.202999994	200	0	0
10.6280003	6.79960012	-0.180999994	200	0	0
10.6199999	6.79979992	-0.277999997	200	0	0
10.6459999	6.79979992	-0.30399999	200	0	0
10.6199999	6.79960012	-0.277999997	200	0	0
10.6099997	6.79949999	-0.275000006	200	0	0
10.6280003	6.79939985	-0.298999995	200	0	0
10.6239996	6.79979992	-0.238999993	200	0	0
10.6440001	6.79979992	-0.203999996	200	0	0
10.6490002	6.79979992	-0.224999994	200	0	0
10.625	6.79979992	-0.180000007	200	0	0
10.6409998	6.79990005	-0.223000005	200	0	0
10.6400003	6.79990005	-0.184	200	0	0
10.6429996	6.80000019	-0.186000004	200	0	0
10.6230001	6.80000019	-0.201000005	200	0	0
10.6339998	6.80000019	-0.224000007	200	0	0
10.632	6.80010033	-0.182999998	200	0	0
10.6330004	6.80010033	-0.223000005	200	0	0
10.6370001	6.80010033	-0.203999996	200	0	0
10.6190004	6.80019999	-0.181999996	200	0	0
10.618	6.80019999	-0.221000001	200	0	0
10.632	6.80030107	-0.185000002	200	0	0
10.6149998	6.80019999	-0.239999995	200	0	0
10.6429996	6.80030107	-0.226999998	200	0	0
10.6350002	6.80030107	-0.206	200	0	0
10.6309996	6.80039978	-0.224000007	200	0	0
10.6160002	6.80030107	-0.142000005	200	0	0
10.6339998	6.80039978	-0.204999998	200	0	0
10.6230001	6.80039978	-0.182999998	200	0	0
10.6219997	6.80049992	-0.280999988	200	0	0
10.6309996	6.80049992	-0.203999996	200	0	0
10.6239996	6.80049992	-0.241999999	200	0	0
10.6260004	6.80049992	-0.182999998	200	0	0
10.5860004	6.80030107	-0.291999996	200	0	0
10.6110001	6.80049992	-0.140000001	200	0	0
10.6160002	6.80060005	-0.182999998	200	0	0
10.6199999	6.80039978	-0.143000007	200	0	0
10.592	6.80070019	-0.275000006	200	0	0
10.6230001	6.80070019	-0.203999996	200	0	0
10.6309996	6.80070019	-0.225999996	200	0	0
10.6300001	6.80070019	-0.186000004	200	0	0
10.6079998	6.80070019	-0.141000003	200	0	0
10.6129999	6.80080032	-0.201000005	200	0	0
10.6339998	6.80080032	-0.225999996	200	0	0
10.6149998	6.80080032	-0.181999996	200	0	0
10.6300001	6.80090094	-0.224999994	200	0	0
10.6169996	6.80090094	-0.182999998	200	0	0
10.6359997	6.80090094	-0.207000002	200	0	0
10.6389999	6.80090094	-0.246999994	200	0	0
10.6190004	6.80099964	-0.223000005	200	0	0
10.6330004	6.80099964	-0.206	200	0	0
10.6169996	6.80090094	-0.143000007	200	0	0
10.6269999	6.80099964	-0.185000002	200	0	0
10.6169996	6.80109978	-0.144999996	200	0	0
10.6049995	6.80090094	-0.120999999	200	0	0
10.6140003	6.80109978	-0.202999994	200	0	0
10.6309996	6.80090094	-0.284999996	200	0	0
10.6020002	6.80109978	-0.239999995	200	0	0
10.6289997	6.80119991	-0.226999998	200	0	0
10.6020002	6.80119991	-0.180999994	200	0	0
10.632	6.80119991	-0.208000004	200	0	0
10.6219997	6.80130005	-0.186000004	200	0	0
10.6149998	6.80130005	-0.203999996	200	0	0
10.6129999	6.80109978	-0.123999998	200	0	0
10.6239996	6.80130005	-0.147	200	0	0
10.6059999	6.80140018	-0.201000005	200	0	0
10.6269999	6.80140018	-0.225999996	200	0	0
10.6199999	6.80140018	-0.185000002	200	0	0
10.5939999	6.8015995	-0.219999999	200	0	0
10.6000004	6.8015995	-0.181999996	200	0	0
10.6110001	6.8015995	-0.203999996	200	0	0
10.6110001	6.8015995	-0.144999996	200	0	0
10.585	6.8015008	-0.136999995	200	0	0
10.6149998	6.80169964	-0.207000002	200	0	0
10.6280003	6.80169964	-0.25	200	0	0
10.6110001	6.80169964	-0.147	200	0	0
10.5959997	6.80179977	-0.243000001	200	0	0
10.599	6.80179977	-0.204999998	200	0	0
10.6210003	6.80179977	-0.191	200	0	0
10.6110001	6.80179977	-0.226999998	200	0	0
10.6120005	6.80179977	-0.149000004	200	0	0
10.592	6.80200005	-0.126000002	200	0	0
10.625	6.80200005	-0.153999999	200	0	0
10.5909996	6.80189991	-0.144999996	200	0	0
10.618	6.80200005	-0.231000006	200	0	0
10.6090002	6.80200005	-0.188999996	200	0	0
10.6049995	6.80200005	-0.208000004	200	0	0
10.5900002	6.80179977	-0.300999999	200	0	0
10.6079998	6.80210018	-0.209000006	200	0	0
10.6020002	6.80210018	-0.148000002	200	0	0
10.6079998	6.80219984	-0.150000006	200	0	0
10.6020002	6.80219984	-0.207000002	200	0	0
10.5939999	6.80219984	-0.186000004	200	0	0
10.5799999	6.80210018	-0.240999997	200	0	0
10.6000004	6.80229998	-0.187000006	200	0	0
10.5959997	6.80229998	-0.204999998	200	0	0
10.6059999	6.80249977	-0.187999994	200	0	0
10.599	6.80249977	-0.206	200	0	0
10.5950003	6.80240011	-0.186000004	200	0	0
10.6140003	6.80240011	-0.230000004	200	0	0
10.5970001	6.80240011	-0.206	200	0	0
10.5880003	6.80249977	-0.144999996	200	0	0
10.5950003	6.80240011	-0.145999998	200	0	0
10.6090002	6.80229998	-0.129999995	200	0	0
10.6029997	6.80259991	-0.187999994	200	0	0
10.6190004	6.80259991	-0.210999995	200	0	0
10.5819998	6.80259991	-0.143000007	200	0	0
10.5769997	6.80270004	-0.279000014	200	0	0
10.5679998	6.80270004	-0.238000005	200	0	0
10.5869999	6.80270004	-0.223000005	200	0	0
10.6029997	6.80270004	-0.187000006	200	0	0
10.6120005	6.80270004	-0.150000006	200	0	0
10.5839996	6.80270004	-0.123999998	200	0	0
10.5880003	6.80289984	-0.143999994	200	0	0
10.5819998	6.80289984	-0.123000003	200	0	0
10.599	6.80289984	-0.186000004	200	0	0
10.5979996	6.80289984	-0.206	200	0	0
10.5819998	6.80280113	-0.202000007	200	0	0
10.5760002	6.80280113	-0.239999995	200	0	0
10.5900002	6.80280113	-0.224000007	200	0	0
10.5790005	6.80299997	-0.180999994	200	0	0
10.5760002	6.80299997	-0.219999999	200	0	0
10.5819998	6.80299997	-0.202000007	200	0	0
10.5979996	6.80299997	-0.127000004	200	0	0
10.592	6.80310011	-0.126000002	200	0	0
10.5830002	6.80310011	-0.143000007	200	0	0
10.5939999	6.80320024	-0.143999994	200	0	0
10.573	6.80320024	-0.216999993	200	0	0
10.599	6.80320024	-0.203999996	200	0	0
10.5900002	6.80320024	-0.181999996	200	0	0
10.573	6.80330038	-0.138999999	200	0	0
10.5719995	6.80340099	-0.180000007	200	0	0
10.5880003	6.80340099	-0.202999994	200	0	0
10.5970001	6.80330038	-0.203999996	200	0	0
10.6020002	6.80289984	-0.305999994	200	0	0
10.5600004	6.80340099	-0.118000001	200	0	0
10.559	6.80340099	-0.136999995	200	0	0
10.585	6.80330038	-0.122000001	200	0	0
10.5649996	6.8034997	-0.196999997	200	0	0
10.5930004	6.8034997	-0.224000007	200	0	0
10.5699997	6.8034997	-0.119999997	200	0	0
10.5579996	6.80320024	-0.273000002	200	0	0
10.5679998	6.80359983	-0.197999999	200	0	0
10.5760002	6.80359983	-0.141000003	200	0	0
10.5710001	6.80359983	-0.119999997	200	0	0
10.5830002	6.80380011	-0.181999996	200	0	0
10.552	6.80369997	-0.115999997	200	0	0
10.5799999	6.80380011	-0.142000005	200	0	0
10.5760002	6.80369997	-0.141000003	200	0	0
10.5769997	6.80380011	-0.200000003	200	0	0
10.5500002	6.80390024	-0.213	200	0	0
10.5780001	6.80390024	-0.142000005	200	0	0
10.5880003	6.80390024	-0.202999994	200	0	0
10.5459995	6.80380011	-0.211999997	200	0	0
10.5640001	6.80390024	-0.177000001	200	0	0
10.5769997	6.80390024	-0.239999995	200	0	0
10.5869999	6.80390024	-0.123999998	200	0	0
10.5600004	6.80400085	-0.118000001	200	0	0
10.5719995	6.80400085	-0.140000001	200	0	0
10.5690002	6.80400085	-0.179000005	200	0	0
10.5710001	6.80409956	-0.179000005	200	0	0
10.5419998	6.80390024	-0.270000011	200	0	0
10.585	6.80409956	-0.202000007	200	0	0
10.5790005	6.80409956	-0.221000001	200	0	0
10.5950003	6.80400085	-0.204999998	200	0	0
10.5719995	6.8041997	-0.179000005	200	0	0
10.5740004	6.8041997	-0.120999999	200	0	0
10.5500002	6.80400085	-0.0960000008	200	0	0
10.559	6.80409956	-0.116999999	200	0	0
10.585	6.80429983	-0.143000007	200	0	0
10.5649996	6.80429983	-0.196999997	200	0	0
10.5760002	6.80429983	-0.180000007	200	0	0
10.5780001	6.8041997	-0.201000005	200	0	0
10.5950003	6.80429983	-0.126000002	200	0	0
10.5719995	6.80499983	-0.199000001	200	0	0
10.5609999	6.80499983	-0.177000001	200	0	0
10.5649996	6.80509996	-0.137999997	200	0	0
10.5469999	6.80499983	-0.134000003	200	0	0
10.5469999	6.80509996	-0.193000004	200	0	0
10.5559998	6.80509996	-0.174999997	200	0	0
10.5579996	6.80509996	-0.116999999	200	0	0
10.5559998	6.8052001	-0.174999997	200	0	0
10.5559998	6.8052001	-0.136000007	200	0	0
10.5419998	6.8052001	-0.210999995	200	0	0
10.5600004	6.80579996	-0.141000003	200	0	0
10.5380001	6.80590105	-0.174999997	200	0	0
10.5480003	6.80550003	-0.118000001	200	0	0
10.5489998	6.80539989	-0.116999999	200	0	0
10.5249996	6.80579996	-0.191	200	0	0
10.5489998	6.8052001	-0.115000002	200	0	0
10.5640001	6.80530071	-0.119999997	200	0	0
10.5539999	6.80530071	-0.137999997	200	0	0
10.5670004	6.80560017	-0.181999996	200	0	0
10.5469999	6.80550003	-0.195999995	200	0	0
10.5459995	6.80539989	-0.194000006	200	0	0
10.5579996	6.80530071	-0.178000003	200	0	0
10.5509996	6.80530071	-0.194999993	200	0	0
10.5279999	6.80590105	-0.191	200	0	0
10.5340004	6.80539989	-0.0939999968	200	0	0
10.5389996	6.8057003	-0.115999997	200	0	0
10.5500002	6.80560017	-0.119000003	200	0	0
10.5629997	6.80599976	-0.180999994	200	0	0
10.5450001	6.80599976	-0.118000001	200	0	0
10.5469999	6.80590105	-0.0989999995	200	0	0
10.5410004	6.80579996	-0.0970000029	200	0	0
10.5380001	6.80590105	-0.136000007	200	0	0
10.5539999	6.80590105	-0.119999997	200	0	0
10.5290003	6.80550003	-0.0939999968	200	0	0
10.5450001	6.80560017	-0.0979999974	200	0	0
10.5389996	6.80599976	-0.0970000029	200	0	0
10.5249996	6.80609989	-0.193000004	200	0	0
10.5290003	6.80659962	-0.191	200	0	0
10.5319996	6.80669975	-0.112999998	200	0	0
10.5209999	6.80650091	-0.189999998	200	0	0
10.533	6.80650091	-0.0949999988	200	0	0
10.5430002	6.80659962	-0.115999997	200	0	0
10.533	6.8064003	-0.193000004	200	0	0
10.5480003	6.80650091	-0.178000003	200	0	0
10.5360003	6.80650091	-0.115999997	200	0	0
10.5459995	6.8064003	-0.0989999995	200	0	0
10.5410004	6.80650091	-0.136999995	200	0	0
10.5389996	6.8064003	-0.174999997	200	0	0
10.5389996	6.8064003	-0.115999997	200	0	0
10.54	6.80630016	-0.0989999995	200	0	0
10.5279999	6.80630016	-0.173999995	200	0	0
10.533	6.80620003	-0.0970000029	200	0	0
10.5410004	6.8064003	-0.136999995	200	0	0
10.5419998	6.80620003	-0.178000003	200	0	0
10.5389996	6.80630016	-0.137999997	200	0	0
10.5439997	6.80679989	-0.194000006	200	0	0
10.5349998	6.80679989	-0.172000006	200	0	0
10.5159998	6.80659962	-0.0900000036	200	0	0
10.5249996	6.80690002	-0.0920000002	200	0	0
10.5150003	6.80690002	-0.128000006	200	0	0
10.5100002	6.80679989	-0.0879999995	200	0	0
10.5439997	6.80690002	-0.115999997	200	0	0
10.5240002	6.80679989	-0.130999997	200	0	0
10.5430002	6.80679989	-0.115999997	200	0	0
10.54	6.80719948	-0.112999998	200	0	0
10.526	6.80729961	-0.128999993	200	0	0
10.5220003	6.80749989	-0.166999996	200	0	0
10.5279999	6.8071003	-0.131999999	200	0	0
10.5270004	6.80729961	-0.169	200	0	0
10.526	6.80719948	-0.167999998	200	0	0
10.552	6.80719948	-0.194000006	200	0	0
10.5310001	6.80760002	-0.0920000002	200	0	0
10.526	6.80760002	-0.128999993	200	0	0
10.5200005	6.80760002	-0.108000003	200	0	0
10.5129995	6.80749989	-0.126000002	200	0	0
10.5279999	6.80749989	-0.0909999982	200	0	0
10.5340004	6.80749989	-0.112000003	200	0	0
10.5159998	6.80729961	-0.0879999995	200	0	0
10.5369997	6.80729961	-0.112999998	200	0	0
10.5299997	6.80719948	-0.0909999982	200	0	0
10.4969997	6.80760002	-0.160999998	200	0	0
10.5290003	6.80770016	-0.129999995	200	0	0
10.4860001	6.80760002	-0.178000003	200	0	0
10.5179996	6.80780077	-0.105999999	200	0	0
10.5229998	6.80780077	-0.0879999995	200	0	0
10.4980001	6.80770016	-0.064000003	200	0	0
10.5019999	6.80770016	-0.104000002	200	0	0
10.5249996	6.80770016	-0.0900000036	200	0	0
10.5170002	6.80780077	-0.165000007	200	0	0
10.5120001	6.80809975	-0.104999997	200	0	0
10.5310001	6.80800009	-0.0900000036	200	0	0
10.526	6.80800009	-0.128000006	200	0	0
10.5240002	6.80789995	-0.0879999995	200	0	0
10.5240002	6.80789995	-0.127000004	200	0	0
10.5270004	6.80789995	-0.108999997	200	0	0
10.5	6.80819988	-0.104000002	200	0	0
10.507	6.80809975	-0.0839999989	200	0	0
10.493	6.80809975	-0.158999994	200	0	0
10.5	6.80800009	-0.159999996	200	0	0
10.5100002	6.80840111	-0.126000002	200	0	0
10.4879999	6.80840111	-0.159999996	200	0	0
10.4750004	6.80830002	-0.175999999	200	0	0
10.5159998	6.80830002	-0.127000004	200	0	0
10.5080004	6.80830002	-0.202999994	200	0	0
10.4919996	6.80830002	-0.159999996	200	0	0
10.5150003	6.80830002	-0.0299999993	200	0	0
10.5039997	6.80849981	-0.0860000029	200	0	0
10.5010004	6.80840111	-0.0659999996	200	0	0
10.5030003	6.80840111	-0.0850000009	200	0	0
10.5129995	6.80840111	-0.107000001	200	0	0
10.4969997	6.80830002	-0.064000003	200	0	0
10.4890003	6.80830002	-0.101000004	200	0	0
10.4989996	6.80830002	-0.0839999989	200	0	0
10.4980001	6.80849981	-0.123000003	200	0	0
10.474	6.80840111	-0.174999997	200	0	0
10.5109997	6.80859995	-0.108999997	200	0	0
10.5170002	6.80859995	-0.129999995	200	0	0
10.4910002	6.80859995	-0.0649999976	200	0	0
10.5220003	6.80870008	-0.130999997	200	0	0
10.5039997	6.80870008	-0.0879999995	200	0	0
10.5100002	6.80870008	-0.108999997	200	0	0
10.4949999	6.80859995	-0.0850000009	200	0	0
10.4910002	6.80870008	-0.0649999976	200	0	0
10.4890003	6.80859995	-0.0260000005	200	0	0
10.4989996	6.80859995	-0.164000005	200	0	0
10.4820004	6.80900097	-0.0839999989	200	0	0
10.4870005	6.80900097	-0.125	200	0	0
10.5019999	6.80900097	-0.108999997	200	0	0
10.5010004	6.80890036	-0.0890000015	200	0	0
10.5109997	6.80880022	-0.111000001	200	0	0
10.4879999	6.80909967	-0.0680000037	200	0	0
10.5010004	6.80890036	-0.166999996	200	0	0
10.4940004	6.80909967	-0.128000006	200	0	0
10.4639997	6.80909967	-0.179000005	200	0	0
10.507	6.80929995	-0.0920000002	200	0	0
10.5039997	6.80929995	-0.111000001	200	0	0
10.507	6.80929995	-0.131999999	200	0	0
10.4989996	6.80919981	-0.0900000036	200	0	0
10.4980001	6.80940008	-0.109999999	200	0	0
10.493	6.80940008	-0.0890000015	200	0	0
10.5150003	6.80929995	-0.075000003	200	0	0
10.4689999	6.80919981	-0.064000003	200	0	0
10.4860001	6.80950022	-0.0890000015	200	0	0
10.4969997	6.80950022	-0.130999997	200	0	0
10.4960003	6.80950022	-0.111000001	200	0	0
10.4860001	6.80950022	-0.0700000003	200	0	0
10.4840002	6.80960035	-0.108000003	200	0	0
10.4949999	6.80960035	-0.0920000002	200	0	0
10.4560003	6.80950022	-0.159999996	200	0	0
10.5	6.80989981	-0.074000001	200	0	0
10.4879999	6.80989981	-0.0900000036	200	0	0
10.4989996	6.80969954	-0.131999999	200	0	0
10.4870005	6.80979967	-0.108999997	200	0	0
10.4840002	6.80979967	-0.0890000015	200	0	0
10.5	6.80969954	-0.112999998	200	0	0
10.4870005	6.80969954	-0.0710000023	200	0	0
10.4890003	6.80969954	-0.187999994	200	0	0
10.5010004	6.80989981	-0.131999999	200	0	0
10.4820004	6.80979967	-0.165999994	200	0	0
10.5019999	6.80999994	-0.112999998	200	0	0
10.5019999	6.80999994	-0.0939999968	200	0	0
10.4720001	6.80999994	-0.0670000017	200	0	0
10.5089998	6.80999994	-0.135000005	200	0	0
10.467	6.80999994	-0.163000003	200	0	0
10.5010004	6.81020021	-0.135000005	200	0	0
10.4720001	6.81020021	-0.0890000015	200	0	0
10.5	6.81020021	-0.115000002	200	0	0
10.4820004	6.81010008	-0.0719999969	200	0	0
10.4790001	6.81030083	-0.0710000023	200	0	0
10.4700003	6.81030083	-0.0879999995	200	0	0
10.4659996	6.81020021	-0.0680000037	200	0	0
10.4809999	6.81030083	-0.129999995	200	0	0
10.4700003	6.81040001	-0.108000003	200	0	0
10.4799995	6.81040001	-0.0710000023	200	0	0
10.4879999	6.81040001	-0.0930000022	200	0	0
10.4589996	6.81020021	-0.163000003	200	0	0
10.4770002	6.81049967	-0.0689999983	200	0	0
10.4680004	6.81049967	-0.125	200	0	0
10.4890003	6.81049967	-0.0909999982	200	0	0
10.4899998	6.81049967	-0.111000001	200	0	0
10.4619999	6.81040001	-0.164000005	200	0	0
10.4630003	6.81080008	-0.0659999996	200	0	0
10.4659996	6.81080008	-0.0860000029	200	0	0
10.4820004	6.8105998	-0.128000006	200	0	0
10.4829998	6.81069994	-0.0900000036	200	0	0
10.4890003	6.8105998	-0.111000001	200	0	0
10.467	6.8105998	-0.0670000017	200	0	0
10.4829998	6.8105998	-0.0900000036	200	0	0
10.4750004	6.81080008	-0.127000004	200	0	0
10.4840002	6.81049967	-0.187000006	200	0	0
10.4750004	6.81090069	-0.127000004	200	0	0
10.4860001	6.81090069	-0.109999999	200	0	0
10.4630003	6.81090069	-0.0850000009	200	0	0
10.4569998	6.81090069	-0.064000003	200	0	0
10.474	6.81110001	-0.108000003	200	0	0
10.4770002	6.81099987	-0.0890000015	200	0	0
10.4790001	6.81099987	-0.128000006	200	0	0
10.4720001	6.81099987	-0.0289999992	200	0	0
10.4770002	6.81110001	-0.0689999983	200	0	0
10.46	6.81110001	-0.0850000009	200	0	0
10.4729996	6.81120014	-0.0280000009	200	0	0
10.4829998	6.81120014	-0.0689999983	200	0	0
10.441	6.81120014	-0.156000003	200	0	0
10.4750004	6.81130028	-0.0869999975	200	0	0
10.46	6.81130028	-0.122000001	200	0	0
10.4700003	6.81130028	-0.104999997	200	0	0
10.4519997	6.81130028	-0.061999999	200	0	0
10.4589996	6.81130028	-0.159999996	200	0	0
10.4650002	6.81169987	-0.0260000005	200	0	0
10.4469995	6.81169987	-0.0989999995	200	0	0
10.4499998	6.81169987	-0.0810000002	200	0	0
10.4560003	6.81169987	-0.063000001	200	0	0
10.4700003	6.81159973	-0.104999997	200	0	0
10.4499998	6.81150103	-0.119000003	200	0	0
10.4659996	6.81159973	-0.0839999989	200	0	0
10.4790001	6.81159973	-0.0680000037	200	0	0
10.4650002	6.81150103	-0.0260000005	200	0	0
10.4530001	6.81150103	-0.101000004	200	0	0
10.4779997	6.81150103	-0.0879999995	200	0	0
10.4530001	6.81139994	-0.023	200	0	0
10.4750004	6.81150103	-0.0670000017	200	0	0
10.4659996	6.8118	-0.0850000009	200	0	0
10.4519997	6.81169987	-0.119999997	200	0	0
10.4650002	6.8118	-0.162	200	0	0
10.4420004	6.8118	-0.116999999	200	0	0
10.4720001	6.8118	-0.104999997	200	0	0
10.4549999	6.8118	-0.063000001	200	0	0
10.4549999	6.81190014	-0.063000001	200	0	0
10.4420004	6.81200027	-0.0790000036	200	0	0
10.4469995	6.8118	-0.177000001	200	0	0
10.4680004	6.81190014	-0.0270000007	200	0	0
10.4530001	6.81210041	-0.061999999	200	0	0
10.4469995	6.81210041	-0.0219999999	200	0	0
10.4580002	6.81200027	-0.0250000004	200	0	0
10.4610004	6.81210041	-0.103	200	0	0
10.4519997	6.81210041	-0.0810000002	200	0	0
10.4700003	6.81210041	-0.123999998	200	0	0
10.4420004	6.81210041	-0.156000003	200	0	0
10.4399996	6.81219959	-0.0780000016	200	0	0
10.467	6.81219959	-0.104000002	200	0	0
10.4289999	6.81219959	-0.114	200	0	0
10.4540005	6.81229973	-0.061999999	200	0	0
10.4350004	6.81219959	-0.0579999983	200	0	0
10.4569998	6.81229973	-0.101999998	200	0	0
10.46	6.81229973	-0.0829999968	200	0	0
10.4169998	6.81219959	-0.0149999997	200	0	0
10.4499998	6.81229973	-0.023	200	0	0
10.4639997	6.81229973	-0.123000003	200	0	0
10.4320002	6.81260014	-0.057	200	0	0
10.4440002	6.81270027	-0.118000001	200	0	0
10.441	6.81270027	-0.0979999974	200	0	0
10.46	6.81270027	-0.064000003	200	0	0
10.4499998	6.81270027	-0.0799999982	200	0	0
10.4469995	6.81229973	-0.195999995	200	0	0
10.4630003	6.81270027	-0.180999994	200	0	0
10.4449997	6.81280088	-0.0989999995	200	0	0
10.4359999	6.81270027	-0.0189999994	200	0	0
10.441	6.81280088	-0.0780000016	200	0	0
10.448	6.81280088	-0.0610000007	200	0	0
10.4329996	6.81289959	-0.057	200	0	0
10.427	6.81289959	-0.0939999968	200	0	0
10.4519997	6.81289959	-0.0810000002	200	0	0
10.4519997	6.81299973	-0.0209999997	200	0	0
10.46	6.81299973	-0.100000001	200	0	0
10.4320002	6.81289959	-0.0179999992	200	0	0
10.448	6.81289959	0.0170000009	200	0	0
10.4280005	6.81289959	0.00200000009	200	0	0
10.46	6.81289959	-0.122000001	200	0	0
10.4250002	6.81289959	-0.151999995	200	0	0
10.4469995	6.81309986	-0.0590000004	200	0	0
10.4350004	6.81309986	-0.0939999968	200	0	0
10.427	6.81309986	-0.0729999989	200	0	0
10.4230003	6.81309986	-0.0140000004	200	0	0
10.4499998	6.8132	-0.0790000036	200	0	0
10.4259996	6.81309986	0.00400000019	200	0	0
10.4449997	6.81349993	-0.0970000029	200	0	0
10.4300003	6.81340075	-0.112000003	200	0	0
10.4370003	6.81349993	-0.0560000017	200	0	0
10.4420004	6.81340075	-0.0960000008	200	0	0
10.4180002	6.81330013	-0.108999997	200	0	0
10.4379997	6.81340075	-0.0759999976	200	0	0
10.4460001	6.81330013	-0.0970000029	200	0	0
10.4320002	6.81340075	-0.0549999997	200	0	0
10.4530001	6.81330013	-0.0790000036	200	0	0
10.4569998	6.81330013	-0.0610000007	200	0	0
10.4490004	6.81360006	-0.0780000016	200	0	0
10.4219999	6.81360006	-0.149000004	200	0	0
10.4530001	6.81349993	-0.157000005	200	0	0
10.4379997	6.81369972	-0.0560000017	200	0	0
10.4219999	6.81369972	-0.0719999969	200	0	0
10.4280005	6.81369972	-0.0920000002	200	0	0
10.415	6.81349993	-0.0120000001	200	0	0
10.4420004	6.81379986	-0.0189999994	200	0	0
10.4189997	6.81379986	-0.0710000023	200	0	0
10.4510002	6.81379986	-0.0979999974	200	0	0
10.427	6.81389999	0.00400000019	200	0	0
10.434	6.81389999	-0.0170000009	200	0	0
10.427	6.81389999	-0.0729999989	200	0	0
10.4320002	6.81400108	-0.0549999997	200	0	0
10.4300003	6.81400108	0.00400000019	200	0	0
10.4379997	6.81409979	-0.0560000017	200	0	0
10.4309998	6.81409979	-0.074000001	200	0	0
10.4309998	6.81430006	-0.0549999997	200	0	0
10.4460001	6.8144002	-0.0970000029	200	0	0
10.4230003	6.81430006	-0.0719999969	200	0	0
10.4259996	6.81419992	-0.0529999994	200	0	0
10.4230003	6.81430006	-0.0909999982	200	0	0
10.4320002	6.81419992	-0.0930000022	200	0	0
10.4289999	6.8144002	-0.0540000014	200	0	0
10.4289999	6.81450033	-0.0930000022	200	0	0
10.415	6.81459999	-0.0890000015	200	0	0
10.4379997	6.81459999	-0.0179999992	200	0	0
10.4309998	6.81459999	-0.074000001	200	0	0
10.441	6.81459999	-0.057	200	0	0
10.4169998	6.8144002	-0.0130000003	200	0	0
10.4160004	6.81469965	-0.050999999	200	0	0
10.4069996	6.81469965	-0.00999999978	200	0	0
10.427	6.81459999	0.00400000019	200	0	0
10.4139996	6.81469965	-0.0890000015	200	0	0
10.4250002	6.81469965	-0.0719999969	200	0	0
10.4189997	6.81479979	-0.0130000003	200	0	0
10.4370003	6.81479979	-0.0560000017	200	0	0
10.4090004	6.81479979	-0.107000001	200	0	0
10.4110003	6.81479979	-0.0689999983	200	0	0
10.4309998	6.81500006	-0.0540000014	200	0	0
10.4519997	6.81489992	-0.0209999997	200	0	0
10.4309998	6.81489992	-0.0930000022	200	0	0
10.4230003	6.81489992	-0.0719999969	200	0	0
10.4280005	6.81489992	-0.0540000014	200	0	0
10.4200001	6.81489992	0.00600000005	200	0	0
10.4219999	6.81500006	-0.0710000023	200	0	0
10.4379997	6.81500006	0.00200000009	200	0	0
10.4230003	6.81510019	-0.0909999982	200	0	0
10.4209995	6.81510019	-0.0520000011	200	0	0
10.4139996	6.81530094	-0.0680000037	200	0	0
10.4230003	6.81530094	-0.0890000015	200	0	0
10.4429998	6.81500006	0.0199999996	200	0	0
10.427	6.81530094	-0.0520000011	200	0	0
10.427	6.81539965	-0.0520000011	200	0	0
10.3950005	6.81539965	-0.101999998	200	0	0
10.4209995	6.81539965	-0.0689999983	200	0	0
10.4230003	6.81549978	-0.050999999	200	0	0
10.3870001	6.81549978	-0.100000001	200	0	0
10.4209995	6.81549978	-0.0700000003	200	0	0
10.4119997	6.81549978	-0.0869999975	200	0	0
10.4069996	6.81549978	-0.00800000038	200	0	0
10.4209995	6.81539965	0.00700000022	200	0	0
10.4189997	6.81539965	-0.0109999999	200	0	0
10.4139996	6.81530094	-0.00999999978	200	0	0
10.3979998	6.81559992	-0.064000003	200	0	0
10.4139996	6.81570005	-0.0489999987	200	0	0
10.4160004	6.81570005	-0.0109999999	200	0	0
10.4060001	6.81570005	-0.0659999996	200	0	0
10.4110003	6.8159008	-0.0869999975	200	0	0
10.4259996	6.8159008	-0.0710000023	200	0	0
10.4189997	6.81580019	-0.0109999999	200	0	0
10.4119997	6.81580019	-0.0480000004	200	0	0
