7.83699989	6.72489977	1.32799995	200	0	0
7.83500004	6.72479963	1.34200001	200	0	0
7.83300018	6.72400093	1.44200003	200	0	0
7.84399986	6.72390032	1.44200003	200	0	0
7.83900023	6.72419977	1.42700005	200	0	0
7.83099985	6.72429991	1.41400003	200	0	0
7.84399986	6.72370005	1.472	200	0	0
7.84399986	6.72370005	1.48599994	200	0	0
7.8499999	6.72359991	1.48800004	200	0	0
7.84000015	6.72380018	1.47099996	200	0	0
7.84299994	6.72349977	1.50300002	200	0	0
7.84299994	6.72349977	1.51699996	200	0	0
7.84800005	6.72329998	1.54400003	200	0	0
7.85500002	6.72310019	1.55900002	200	0	0
7.85099983	6.72319984	1.54499996	200	0	0
7.85099983	6.72340107	1.51600003	200	0	0
7.84800005	6.72319984	1.55999994	200	0	0
7.84899998	6.72300005	1.57299995	200	0	0
7.84399986	6.72280073	1.58800006	200	0	0
7.84000015	6.72359991	1.50300002	200	0	0
7.84000015	6.72659969	1.07000005	200	0	0
7.83599997	6.72650099	1.08500004	200	0	0
7.83900023	6.72630024	1.11399996	200	0	0
7.83099985	6.72669983	1.05799997	200	0	0
7.83599997	6.7269001	1.028	200	0	0
7.83300018	6.72679996	1.04299998	200	0	0
7.82299995	6.7269001	1.01699996	200	0	0
7.83599997	6.72669983	1.04299998	200	0	0
7.84499979	6.72380018	1.48500001	200	0	0
7.84399986	6.72409964	1.44000006	200	0	0
7.83900023	6.72390032	1.47000003	200	0	0
7.84200001	6.72370005	1.5	200	0	0
7.8499999	6.72310019	1.57299995	200	0	0
7.85200024	6.72289991	1.58700001	200	0	0
7.84299994	6.72359991	1.51699996	200	0	0
7.85099983	6.72340107	1.54400003	200	0	0
7.81099987	6.72460032	1.375	200	0	0
7.83400011	6.72489977	1.34200001	200	0	0
7.83099985	6.72479963	1.35699999	200	0	0
7.84600019	6.72419977	1.44000006	200	0	0
7.83699989	6.72429991	1.42700005	200	0	0
7.81500006	6.72450018	1.40199995	200	0	0
7.83199978	6.7249999	1.329	200	0	0
7.83500004	6.72520018	1.29999995	200	0	0
7.85300016	6.72159958	1.68499994	200	0	0
7.84899998	6.72210026	1.65699995	200	0	0
7.85300016	6.72259998	1.61600006	200	0	0
7.85900021	6.72239971	1.62800002	200	0	0
7.84899998	6.72249985	1.61500001	200	0	0
7.84299994	6.72229958	1.64400005	200	0	0
7.83199978	6.72700024	1.00100005	200	0	0
7.83799982	6.72710037	0.986000001	200	0	0
7.82000017	6.72700024	1.01699996	200	0	0
7.83199978	6.72719955	0.986999989	200	0	0
7.83099985	6.72710037	1.00100005	200	0	0
7.83099985	6.72719955	0.97299999	200	0	0
7.82800007	6.72729969	0.930999994	200	0	0
7.84100008	6.72630024	1.12800002	200	0	0
7.83199978	6.72640038	1.11399996	200	0	0
7.83699989	6.72609997	1.15499997	200	0	0
7.82999992	6.7262001	1.14199996	200	0	0
7.83900023	6.72590065	1.18400002	200	0	0
7.83900023	6.72669983	1.07000005	200	0	0
7.83699989	6.72659969	1.08500004	200	0	0
7.84399986	6.72590065	1.19799995	200	0	0
7.83500004	6.72599983	1.18499994	200	0	0
7.83500004	6.7256999	1.227	200	0	0
7.83400011	6.72580004	1.21200001	200	0	0
7.83599997	6.72550011	1.255	200	0	0
7.83500004	6.72630024	1.14300001	200	0	0
7.83900023	6.72650099	1.11300004	200	0	0
7.83500004	6.72640038	1.12699997	200	0	0
7.83599997	6.7262001	1.15499997	200	0	0
7.83300018	6.72679996	1.07099998	200	0	0
7.83799982	6.72669983	1.08500004	200	0	0
7.84000015	6.72679996	1.05599999	200	0	0
7.83400011	6.7269001	1.05700004	200	0	0
7.84299994	6.72559977	1.25399995	200	0	0
7.84000015	6.72539997	1.28400004	200	0	0
7.83699989	6.72550011	1.26900005	200	0	0
7.83900023	6.72530079	1.28400004	200	0	0
7.83799982	6.72539997	1.26999998	200	0	0
7.83300018	6.72580004	1.22599995	200	0	0
7.83799982	6.72599983	1.199	200	0	0
7.84000015	6.72590065	1.21200001	200	0	0
7.83799982	6.72609997	1.18299997	200	0	0
7.83199978	6.72659969	1.11399996	200	0	0
7.83799982	6.72640038	1.14100003	200	0	0
7.83400011	6.72650099	1.12800002	200	0	0
7.83099985	6.72630024	1.15799999	200	0	0
7.8499999	6.72119999	1.72599995	200	0	0
7.85099983	6.72130013	1.71300006	200	0	0
7.85099983	6.72099972	1.74000001	200	0	0
7.85300016	6.72150087	1.69799995	200	0	0
7.83900023	6.72159958	1.70000005	200	0	0
7.85300016	6.72179985	1.68599999	200	0	0
7.85300016	6.72169971	1.68599999	200	0	0
7.85500002	6.72150087	1.71200001	200	0	0
7.85099983	6.72130013	1.72599995	200	0	0
7.85900021	6.72109985	1.73899996	200	0	0
7.85599995	6.72060013	1.76699996	200	0	0
7.85599995	6.72070026	1.76699996	200	0	0
7.84899998	6.72049999	1.78199995	200	0	0
7.85300016	6.72030067	1.79499996	200	0	0
7.85099983	6.72140026	1.72599995	200	0	0
7.85900021	6.72119999	1.73899996	200	0	0
7.85599995	6.72219992	1.65600002	200	0	0
7.85699987	6.72259998	1.63	200	0	0
7.85300016	6.72270012	1.61600006	200	0	0
7.8499999	6.72239971	1.64300001	200	0	0
7.85400009	6.72249985	1.62899995	200	0	0
7.84100008	6.7249999	1.34099996	200	0	0
7.84100008	6.72510004	1.32700002	200	0	0
7.83300018	6.72479963	1.37	200	0	0
7.83500004	6.72489977	1.35599995	200	0	0
7.82299995	6.7246995	1.37300003	200	0	0
7.84100008	6.72510004	1.34099996	200	0	0
7.84200001	6.72520018	1.32700002	200	0	0
7.84200001	6.72530079	1.29799998	200	0	0
7.81799984	6.7249999	1.35899997	200	0	0
7.83099985	6.72489977	1.37100005	200	0	0
7.83599997	6.7246995	1.39900005	200	0	0
7.83799982	6.72559977	1.26900005	200	0	0
7.84399986	6.72539997	1.29700005	200	0	0
7.84000015	6.72550011	1.28299999	200	0	0
7.83599997	6.7256999	1.255	200	0	0
7.84299994	6.72400093	1.46800005	200	0	0
7.83699989	6.72429991	1.44099998	200	0	0
7.84800005	6.72390032	1.48300004	200	0	0
7.84399986	6.72380018	1.49899995	200	0	0
7.82600021	6.72440004	1.44200003	200	0	0
7.84399986	6.72390032	1.49699998	200	0	0
7.82800007	6.72409964	1.48399997	200	0	0
7.84100008	6.72419977	1.46800005	200	0	0
7.84499979	6.72400093	1.48199999	200	0	0
7.84299994	6.72409964	1.46800005	200	0	0
7.83199978	6.72370005	1.51499999	200	0	0
7.84399986	6.72380018	1.51199996	200	0	0
7.83400011	6.72590065	1.227	200	0	0
7.83300018	6.72609997	1.19799995	200	0	0
7.84200001	6.72599983	1.21200001	200	0	0
7.84499979	6.72329998	1.55799997	200	0	0
7.84499979	6.72319984	1.574	200	0	0
7.85200024	6.72300005	1.58700001	200	0	0
7.8499999	6.72349977	1.54400003	200	0	0
7.84800005	6.72340107	1.55799997	200	0	0
7.85300016	6.72329998	1.57099998	200	0	0
7.8499999	6.72310019	1.58700001	200	0	0
7.84600019	6.72359991	1.54400003	200	0	0
7.85500002	6.72280073	1.61500001	200	0	0
7.8499999	6.72249985	1.64300001	200	0	0
7.8499999	6.72229958	1.65699995	200	0	0
7.8579998	6.72179985	1.699	200	0	0
7.85699987	6.72169971	1.699	200	0	0
7.85900021	6.72189999	1.68499994	200	0	0
7.8579998	6.72159958	1.71200001	200	0	0
7.84800005	6.72210026	1.68499994	200	0	0
7.85500002	6.72189999	1.70000005	200	0	0
7.85500002	6.72200012	1.68599999	200	0	0
7.84800005	6.72169971	1.71399999	200	0	0
7.85500002	6.72150087	1.72599995	200	0	0
7.85900021	6.72130013	1.73899996	200	0	0
7.84700012	6.72270012	1.63100004	200	0	0
7.84800005	6.72259998	1.64400005	200	0	0
7.85400009	6.72249985	1.65600002	200	0	0
7.85300016	6.72239971	1.65600002	200	0	0
7.84800005	6.72289991	1.61500001	200	0	0
7.85099983	6.72280073	1.62899995	200	0	0
7.82999992	6.72729969	0.944999993	200	0	0
7.82499981	6.72749996	0.903999984	200	0	0
7.8210001	6.72739983	0.94599998	200	0	0
7.82800007	6.72739983	0.930999994	200	0	0
7.8210001	6.72739983	0.917999983	200	0	0
7.82499981	6.72749996	0.917999983	200	0	0
7.82999992	6.72799969	0.788999975	200	0	0
7.829	6.72809982	0.762000024	200	0	0
7.82800007	6.72789955	0.832000017	200	0	0
7.82999992	6.72799969	0.802999973	200	0	0
7.81799984	6.7276001	0.876999974	200	0	0
7.83500004	6.72729969	0.972000003	200	0	0
7.829	6.7276001	0.902999997	200	0	0
7.81400013	6.72770023	0.878000021	200	0	0
7.8210001	6.72749996	0.933000028	200	0	0
7.82600021	6.72780085	0.875999987	200	0	0
7.82800007	6.72780085	0.861000001	200	0	0
7.8210001	6.7276001	0.91900003	200	0	0
7.82399988	6.72749996	0.947000027	200	0	0
7.83500004	6.7276001	0.930999994	200	0	0
7.81599998	6.72770023	0.906000018	200	0	0
7.82299995	6.72809982	0.791999996	200	0	0
7.82299995	6.72819996	0.763000011	200	0	0
7.82600021	6.72819996	0.720000029	200	0	0
7.82700014	6.72819996	0.734000027	200	0	0
7.82000017	6.72830009	0.720000029	200	0	0
7.82600021	6.72830009	0.73299998	200	0	0
7.82499981	6.72780085	0.903999984	200	0	0
7.81500006	6.72789955	0.878000021	200	0	0
7.82600021	6.72789955	0.861000001	200	0	0
7.8210001	6.72789955	0.84799999	200	0	0
7.82700014	6.72799969	0.847000003	200	0	0
7.83199978	6.72799969	0.832000017	200	0	0
7.83199978	6.72710037	1.01499999	200	0	0
7.82700014	6.72710037	1.02999997	200	0	0
7.84000015	6.72700024	1.04200006	200	0	0
7.83099985	6.72679996	1.08599997	200	0	0
7.83400011	6.72700024	1.05700004	200	0	0
7.83400011	6.7269001	1.07099998	200	0	0
7.83699989	6.7269001	1.08500004	200	0	0
7.83599997	6.72669983	1.11300004	200	0	0
7.83699989	6.72650099	1.14100003	200	0	0
7.83400011	6.72659969	1.12800002	200	0	0
7.83199978	6.72719955	1.02900004	200	0	0
7.82999992	6.72719955	1.01499999	200	0	0
7.82999992	6.72719955	1.00100005	200	0	0
7.83900023	6.7262001	1.18299997	200	0	0
7.83400011	6.72640038	1.15600002	200	0	0
7.85300016	6.7198	1.83700001	200	0	0
7.84700012	6.72039986	1.796	200	0	0
7.85500002	6.72060013	1.78100002	200	0	0
7.84499979	6.72070026	1.78199995	200	0	0
7.84399986	6.72049999	1.796	200	0	0
7.84899998	6.7208004	1.76800001	200	0	0
7.85900021	6.71999979	1.82299995	200	0	0
7.86000013	6.72090101	1.76699996	200	0	0
7.85500002	6.7208004	1.78100002	200	0	0
7.84899998	6.72060013	1.796	200	0	0
7.86100006	6.72009993	1.82200003	200	0	0
7.85300016	6.71990013	1.83700001	200	0	0
7.85400009	6.72020006	1.82299995	200	0	0
7.84200001	6.71950006	1.86500001	200	0	0
7.85300016	6.71999979	1.83700001	200	0	0
7.85099983	6.72009993	1.83700001	200	0	0
7.85400009	6.72070026	1.79499996	200	0	0
7.85500002	6.72030067	1.82299995	200	0	0
7.85400009	6.72099972	1.76800001	200	0	0
7.86100006	6.7208004	1.79499996	200	0	0
7.85599995	6.72090101	1.78100002	200	0	0
7.85099983	6.72109985	1.76800001	200	0	0
7.85200024	6.72179985	1.71399999	200	0	0
7.85400009	6.72159958	1.72599995	200	0	0
7.84200001	6.72140026	1.74100006	200	0	0
7.85099983	6.72169971	1.72800004	200	0	0
7.8579998	6.72200012	1.699	200	0	0
7.85300016	6.72150087	1.74000001	200	0	0
7.84299994	6.72189999	1.71500003	200	0	0
7.84700012	6.72159958	1.74100006	200	0	0
7.84399986	6.72119999	1.76800001	200	0	0
7.85200024	6.72099972	1.78199995	200	0	0
7.8579998	6.72109985	1.78100002	200	0	0
7.85500002	6.72090101	1.79499996	200	0	0
7.84700012	6.72020006	1.83700001	200	0	0
7.84899998	6.72039986	1.83700001	200	0	0
7.85200024	6.72030067	1.83700001	200	0	0
7.82600021	6.72840071	0.718999982	200	0	0
7.82299995	6.72840071	0.704999983	200	0	0
7.83300018	6.72849989	0.688000023	200	0	0
7.82700014	6.72849989	0.703999996	200	0	0
7.82600021	6.72860003	0.661000013	200	0	0
7.81899977	6.72860003	0.648000002	200	0	0
7.83400011	6.72879982	0.629999995	200	0	0
7.82800007	6.72860003	0.68900001	200	0	0
7.83099985	6.72870016	0.660000026	200	0	0
7.82399988	6.72870016	0.647000015	200	0	0
7.82299995	6.72870016	0.619000018	200	0	0
7.829	6.72870016	0.632000029	200	0	0
7.81599998	6.72879982	0.561999977	200	0	0
7.82800007	6.72879982	0.616999984	200	0	0
7.81799984	6.72879982	0.575999975	200	0	0
7.82600021	6.72879982	0.588999987	200	0	0
7.80900002	6.72889996	0.505999982	200	0	0
7.81599998	6.72889996	0.49000001	200	0	0
7.82499981	6.72889996	0.47299999	200	0	0
7.8130002	6.72900105	0.476000011	200	0	0
7.80600023	6.72900105	0.419999987	200	0	0
7.81599998	6.72900105	0.44600001	200	0	0
7.81500006	6.72900105	0.402999997	200	0	0
7.82600021	6.72840071	0.73299998	200	0	0
7.82399988	6.72830009	0.762000024	200	0	0
7.829	6.72809982	0.805000007	200	0	0
7.82200003	6.72819996	0.791999996	200	0	0
7.84700012	6.72270012	1.64400005	200	0	0
7.85300016	6.72210026	1.69799995	200	0	0
7.84800005	6.72219992	1.68499994	200	0	0
7.85099983	6.72130013	1.76800001	200	0	0
7.85099983	6.72200012	1.71399999	200	0	0
7.85300016	6.72049999	1.83700001	200	0	0
7.86000013	6.72060013	1.82200003	200	0	0
7.86100006	6.72109985	1.79499996	200	0	0
7.84600019	6.72119999	1.78199995	200	0	0
7.84899998	6.72099972	1.796	200	0	0
7.85900021	6.72070026	1.82200003	200	0	0
7.84100008	6.7196002	1.89300001	200	0	0
7.84700012	6.72219992	1.699	200	0	0
7.85200024	6.72229958	1.68400002	200	0	0
7.85099983	6.72169971	1.74100006	200	0	0
7.84000015	6.72179985	1.72899997	200	0	0
7.84700012	6.72150087	1.76800001	200	0	0
7.84899998	6.72130013	1.78199995	200	0	0
7.8499999	6.72140026	1.76800001	200	0	0
7.85300016	6.72119999	1.79499996	200	0	0
7.85500002	6.7208004	1.82299995	200	0	0
7.8499999	6.72179985	1.74199998	200	0	0
7.84800005	6.72210026	1.71300006	200	0	0
7.84700012	6.72189999	1.72800004	200	0	0
7.84600019	6.72200012	1.72800004	200	0	0
7.8579998	6.72189999	1.74100006	200	0	0
7.8499999	6.72159958	1.76800001	200	0	0
7.84899998	6.72140026	1.78199995	200	0	0
7.85599995	6.72150087	1.78100002	200	0	0
7.85400009	6.72130013	1.79499996	200	0	0
7.85099983	6.72060013	1.83700001	200	0	0
7.8670001	6.72090101	1.82200003	200	0	0
7.84800005	6.72070026	1.83700001	200	0	0
7.85500002	6.72039986	1.85000002	200	0	0
7.8499999	6.72259998	1.65799999	200	0	0
7.84299994	6.72400093	1.49600005	200	0	0
7.84399986	6.72390032	1.51100004	200	0	0
7.84200001	6.72349977	1.55900002	200	0	0
7.85699987	6.72370005	1.53999996	200	0	0
7.84700012	6.72329998	1.58599997	200	0	0
7.84299994	6.72340107	1.57299995	200	0	0
7.84100008	6.72319984	1.58800006	200	0	0
7.84700012	6.72349977	1.57200003	200	0	0
7.84700012	6.72359991	1.55799997	200	0	0
7.85099983	6.72300005	1.61500001	200	0	0
7.85099983	6.72280073	1.64300001	200	0	0
7.85099983	6.72289991	1.62899995	200	0	0
7.8499999	6.72270012	1.65799999	200	0	0
7.83599997	6.72520018	1.34200001	200	0	0
7.83099985	6.72510004	1.35699999	200	0	0
7.84000015	6.72479963	1.39699996	200	0	0
7.82700014	6.7256999	1.26999998	200	0	0
7.83300018	6.72550011	1.29799998	200	0	0
7.83799982	6.72559977	1.28299999	200	0	0
7.84299994	6.72580004	1.25300002	200	0	0
7.82999992	6.72599983	1.22800004	200	0	0
7.83699989	6.7262001	1.19700003	200	0	0
7.83500004	6.72609997	1.21200001	200	0	0
7.83099985	6.72590065	1.25600004	200	0	0
7.83199978	6.72580004	1.26800001	200	0	0
7.83099985	6.72609997	1.227	200	0	0
7.83300018	6.7256999	1.28400004	200	0	0
7.83599997	6.72559977	1.29700005	200	0	0
7.83699989	6.72539997	1.32599998	200	0	0
7.8499999	6.72530079	1.32500005	200	0	0
7.83500004	6.72530079	1.34099996	200	0	0
7.83300018	6.72630024	1.18499994	200	0	0
7.84499979	6.72650099	1.15400004	200	0	0
7.83900023	6.72479963	1.41100001	200	0	0
7.83300018	6.72489977	1.398	200	0	0
7.82000017	6.7249999	1.37199998	200	0	0
7.83400011	6.72510004	1.37	200	0	0
7.84000015	6.7246995	1.426	200	0	0
7.83599997	6.72729969	0.986000001	200	0	0
7.82800007	6.72739983	0.97299999	200	0	0
7.83500004	6.7276001	0.944999993	200	0	0
7.81500006	6.72770023	0.921000004	200	0	0
7.82000017	6.72799969	0.876999974	200	0	0
7.82700014	6.72799969	0.861000001	200	0	0
7.829	6.72770023	0.931999981	200	0	0
7.82299995	6.72780085	0.91900003	200	0	0
7.83099985	6.72739983	0.986999989	200	0	0
7.82700014	6.72729969	1.00199997	200	0	0
7.83099985	6.72749996	0.973999977	200	0	0
7.82700014	6.72729969	1.01600003	200	0	0
7.82700014	6.72770023	0.94599998	200	0	0
7.83099985	6.72749996	0.987999976	200	0	0
7.83500004	6.72739983	1	200	0	0
7.83300018	6.7276001	0.973999977	200	0	0
7.82999992	6.72710037	1.05799997	200	0	0
7.84200001	6.72729969	1.02699995	200	0	0
7.82499981	6.72739983	1.01600003	200	0	0
7.829	6.72700024	1.07200003	200	0	0
7.83099985	6.7276001	0.987999976	200	0	0
7.82600021	6.72749996	1.00300002	200	0	0
7.829	6.72889996	0.616999984	200	0	0
7.8210001	6.72889996	0.546999991	200	0	0
7.80999994	6.72889996	0.592999995	200	0	0
7.82600021	6.72889996	0.560000002	200	0	0
7.81699991	6.72889996	0.577000022	200	0	0
7.81500006	6.72889996	0.518999994	200	0	0
7.82000017	6.72900105	0.589999974	200	0	0
7.81500006	6.72900105	0.518999994	200	0	0
7.81400013	6.72900105	0.577000022	200	0	0
7.81599998	6.72900105	0.561999977	200	0	0
7.81699991	6.72900105	0.547999978	200	0	0
7.81699991	6.72900105	0.504000008	200	0	0
7.81599998	6.72900105	0.49000001	200	0	0
7.80100012	6.72909975	0.375999987	200	0	0
7.81799984	6.72909975	0.430000007	200	0	0
7.81400013	6.72900105	0.360000014	200	0	0
7.81400013	6.72909975	0.416999996	200	0	0
7.81099987	6.72909975	0.402999997	200	0	0
7.8119998	6.72900105	0.374000013	200	0	0
7.8119998	6.72909975	0.49000001	200	0	0
7.81799984	6.72909975	0.474000007	200	0	0
7.8039999	6.72909975	0.448000014	200	0	0
7.83099985	6.72879982	0.660000026	200	0	0
7.82399988	6.72879982	0.647000015	200	0	0
7.82800007	6.72849989	0.731999993	200	0	0
7.82999992	6.72849989	0.717999995	200	0	0
7.83099985	6.72860003	0.703000009	200	0	0
7.81699991	6.72909975	0.503000021	200	0	0
7.81599998	6.72919989	0.298999995	200	0	0
7.81799984	6.72919989	0.356999993	200	0	0
7.81400013	6.72919989	0.344000012	200	0	0
7.80900002	6.72909975	0.360000014	200	0	0
7.80999994	6.72909975	0.344999999	200	0	0
7.81899977	6.72909975	0.328000009	200	0	0
7.80999994	6.72930002	0.402999997	200	0	0
7.81699991	6.72930002	0.328000009	200	0	0
7.80600023	6.72930002	0.375	200	0	0
7.80900002	6.72930002	0.344999999	200	0	0
7.80900002	6.72930002	0.360000014	200	0	0
7.82200003	6.72930002	0.282999992	200	0	0
7.82000017	6.72930002	0.298000008	200	0	0
7.81799984	6.72909975	0.56099999	200	0	0
7.80600023	6.72909975	0.519999981	200	0	0
7.81500006	6.72919989	0.518000007	200	0	0
7.8210001	6.72919989	0.501999974	200	0	0
7.82399988	6.72919989	0.486999989	200	0	0
7.81699991	6.72930002	0.474000007	200	0	0
7.80299997	6.72930002	0.419	200	0	0
7.82600021	6.72830009	0.80400002	200	0	0
7.83099985	6.72830009	0.788999975	200	0	0
7.82700014	6.72819996	0.805000007	200	0	0
7.81500006	6.72840071	0.763999999	200	0	0
7.82499981	6.72860003	0.718999982	200	0	0
7.829	6.72870016	0.703000009	200	0	0
7.82800007	6.72870016	0.68900001	200	0	0
7.82399988	6.72809982	0.834999979	200	0	0
7.829	6.72809982	0.84799999	200	0	0
7.82499981	6.72889996	0.647000015	200	0	0
7.82600021	6.72889996	0.632000029	200	0	0
7.82700014	6.72900105	0.617999971	200	0	0
7.81699991	6.72940016	0.474000007	200	0	0
7.81099987	6.72930002	0.504999995	200	0	0
7.81699991	6.72930002	0.488999993	200	0	0
7.82200003	6.72919989	0.560000002	200	0	0
7.81699991	6.72909975	0.574999988	200	0	0
7.8210001	6.72840071	0.791000009	200	0	0
7.82600021	6.72809982	0.862999976	200	0	0
7.82700014	6.72819996	0.833999991	200	0	0
7.81899977	6.72849989	0.763000011	200	0	0
7.829	6.72780085	0.94599998	200	0	0
7.829	6.72780085	0.931999981	200	0	0
7.8119998	6.72789955	0.907000005	200	0	0
7.82399988	6.72799969	0.917999983	200	0	0
7.81699991	6.72789955	0.920000017	200	0	0
7.81899977	6.72809982	0.878000021	200	0	0
7.82700014	6.72799969	0.903999984	200	0	0
7.82399988	6.72819996	0.876999974	200	0	0
7.829	6.72819996	0.861999989	200	0	0
7.82200003	6.72819996	0.848999977	200	0	0
7.83099985	6.72770023	0.973999977	200	0	0
7.80900002	6.72930002	0.256999999	200	0	0
7.78999996	6.72950029	0.27700001	200	0	0
7.80100012	6.72940016	0.259000003	200	0	0
7.79300022	6.72940016	0.275999993	200	0	0
7.79799986	6.72940016	0.289000005	200	0	0
7.81899977	6.72930002	0.268999994	200	0	0
7.79899979	6.72960043	0.186000004	200	0	0
7.8210001	6.72940016	0.0610000007	200	0	0
7.8119998	6.72969961	0.108000003	200	0	0
7.8119998	6.72969961	0.151999995	200	0	0
7.80900002	6.72930002	0.064000003	200	0	0
7.79699993	6.72960043	0.112999998	200	0	0
7.8210001	6.72930002	0.075000003	200	0	0
7.80299997	6.72919989	0.0659999996	200	0	0
7.81799984	6.72919989	0.0759999976	200	0	0
7.80100012	6.72940016	0.141000003	200	0	0
7.80900002	6.72930002	0.123999998	200	0	0
7.81899977	6.72909975	0.105999999	200	0	0
7.79799986	6.72940016	0.0379999988	200	0	0
7.80499983	6.72930002	0.0350000001	200	0	0
7.80999994	6.72919989	0.0340000018	200	0	0
7.81599998	6.72969961	0.224999994	200	0	0
7.81899977	6.72969961	0.209999993	200	0	0
7.81899977	6.72969961	0.180000007	200	0	0
7.81099987	6.72909975	-0.532000005	200	0	0
7.81699991	6.72919989	-0.503000021	200	0	0
7.80200005	6.72950029	0.347000003	200	0	0
7.81400013	6.72969961	0.342999995	200	0	0
7.82000017	6.72969961	0.268000007	200	0	0
7.81099987	6.72969961	0.330000013	200	0	0
7.80600023	6.72960043	0.345999986	200	0	0
7.82000017	6.72969961	0.282999992	200	0	0
7.79899979	6.72960043	0.25999999	200	0	0
7.81599998	6.72969961	0.298999995	200	0	0
7.79899979	6.72960043	0.273999989	200	0	0
7.80900002	6.72960043	0.330000013	200	0	0
7.79799986	6.72960043	0.289000005	200	0	0
7.79699993	6.72960043	0.30399999	200	0	0
7.80499983	6.72960043	0.375	200	0	0
7.80900002	6.72960043	0.360000014	200	0	0
7.82000017	6.72969961	0.254000008	200	0	0
7.81599998	6.72909975	0.00200000009	200	0	0
7.81599998	6.72979975	-0.0430000015	200	0	0
7.79199982	6.72930002	-0.186000004	200	0	0
7.80700016	6.72979975	-0.145999998	200	0	0
7.81500006	6.72989988	-0.118000001	200	0	0
7.80100012	6.72950029	-0.173999995	200	0	0
7.8130002	6.72989988	-0.0719999969	200	0	0
7.79099989	6.72969961	-0.156000003	200	0	0
7.81099987	6.72989988	-0.101999998	200	0	0
7.80000019	6.72960043	-0.023	200	0	0
7.78599977	6.72909975	-0.184	200	0	0
7.79699993	6.72989988	-0.0820000023	200	0	0
7.80299997	6.72930002	-0.00899999961	200	0	0
7.79300022	6.72900105	-0.00400000019	200	0	0
7.80299997	6.72969961	-0.143999994	200	0	0
7.79400015	6.72930002	-0.172000006	200	0	0
7.80999994	6.72979975	-0.101000004	200	0	0
7.79500008	6.72940016	-0.0209999997	200	0	0
7.80600023	6.72979975	-0.0850000009	200	0	0
7.79899979	6.72960043	-0.0379999988	200	0	0
7.80700016	6.72960043	-0.145999998	200	0	0
7.78299999	6.72900105	-0.0160000008	200	0	0
7.78599977	6.72909975	-0.169	200	0	0
7.8130002	6.72969961	-0.0719999969	200	0	0
7.81500006	6.72930002	-0.0280000009	200	0	0
7.80700016	6.72969961	-0.115999997	200	0	0
7.79699993	6.72969961	-0.0820000023	200	0	0
7.79500008	6.72969961	-0.0970000029	200	0	0
7.81599998	6.72930002	-0.149000004	200	0	0
7.8039999	6.72930002	-0.0390000008	200	0	0
7.79400015	6.72960043	-0.111000001	200	0	0
7.79300022	6.72940016	-0.141000003	200	0	0
7.79500008	6.72960043	-0.0810000002	200	0	0
7.79699993	6.72960043	-0.0970000029	200	0	0
7.78700018	6.72909975	-0.138999999	200	0	0
7.8130002	6.72930002	-0.0719999969	200	0	0
7.8119998	6.72919989	-0.0719999969	200	0	0
7.79799986	6.72930002	-0.0820000023	200	0	0
7.79500008	6.72930002	-0.0970000029	200	0	0
7.82399988	6.72989988	-0.181999996	200	0	0
7.79099989	6.72960043	-0.216000006	200	0	0
7.81099987	6.72930002	-0.238000005	200	0	0
7.81599998	6.72919989	-0.239999995	200	0	0
7.80499983	6.72989988	-0.160999998	200	0	0
7.81099987	6.72979975	-0.193000004	200	0	0
7.80999994	6.72989988	-0.147	200	0	0
7.81599998	6.72979975	-0.179000005	200	0	0
7.79899979	6.72979975	-0.158000007	200	0	0
7.80600023	6.72969961	-0.191	200	0	0
7.79199982	6.72930002	-0.216999993	200	0	0
7.81400013	6.72919989	-0.224000007	200	0	0
7.79400015	6.72960043	-0.187000006	200	0	0
7.81599998	6.72919989	-0.194999993	200	0	0
7.80700016	6.72979975	-0.222000003	200	0	0
7.80900002	6.72979975	-0.238000005	200	0	0
7.8130002	6.72969961	-0.300000012	200	0	0
7.81899977	6.72979975	-0.272000015	200	0	0
7.82000017	6.72979975	-0.256999999	200	0	0
7.78999996	6.72940016	-0.323000014	200	0	0
7.81500006	6.72969961	-0.224999994	200	0	0
7.8130002	6.72969961	-0.238999993	200	0	0
7.796	6.72960043	-0.232999995	200	0	0
7.79300022	6.72960043	-0.263000011	200	0	0
7.81699991	6.72930002	-0.317000002	200	0	0
7.79799986	6.72960043	-0.248999998	200	0	0
7.80999994	6.72930002	-0.298999995	200	0	0
7.82000017	6.72909975	-0.303000003	200	0	0
7.82399988	6.72979975	0.223000005	200	0	0
7.81799984	6.72979975	0.209999993	200	0	0
7.81899977	6.72979975	0.194999993	200	0	0
7.82200003	6.72979975	0.179000005	200	0	0
7.78299999	6.72950029	0.0419999994	200	0	0
7.80800009	6.72979975	0.138999999	200	0	0
7.81799984	6.72979975	0.120999999	200	0	0
7.79500008	6.72969961	0.0689999983	200	0	0
7.81699991	6.72969961	0.0769999996	200	0	0
7.77699995	6.72830009	-0.769999981	200	0	0
7.7750001	6.72809982	-0.768000007	200	0	0
7.78200006	6.72830009	-0.676999986	200	0	0
7.77299976	6.72830009	-0.68900001	200	0	0
7.7750001	6.72819996	-0.671999991	200	0	0
7.81500006	6.72989988	-0.331999987	200	0	0
7.8119998	6.72979975	-0.423000008	200	0	0
7.8130002	6.72979975	-0.316000015	200	0	0
7.80999994	6.72989988	-0.39199999	200	0	0
7.79799986	6.72989988	-0.340999991	200	0	0
7.8130002	6.72989988	-0.377000004	200	0	0
7.8130002	6.72969961	-0.423999995	200	0	0
7.80100012	6.72940016	-0.449999988	200	0	0
7.78499985	6.72950029	-0.444000006	200	0	0
7.81699991	6.72979975	-0.333000004	200	0	0
7.80499983	6.72930002	-0.451999992	200	0	0
7.80999994	6.72969961	-0.314999998	200	0	0
7.80200005	6.72979975	-0.404000014	200	0	0
7.80999994	6.72979975	-0.39199999	200	0	0
7.81099987	6.72979975	-0.345999986	200	0	0
7.80800009	6.72969961	-0.407000005	200	0	0
7.80200005	6.72979975	-0.372999996	200	0	0
7.8119998	6.72969961	-0.39199999	200	0	0
7.79099989	6.72960043	-0.416000009	200	0	0
7.796	6.72960043	-0.324999988	200	0	0
7.80200005	6.72969961	-0.374000013	200	0	0
7.79500008	6.72960043	-0.40200001	200	0	0
7.78999996	6.72960043	-0.338	200	0	0
7.81699991	6.72930002	-0.34799999	200	0	0
7.8039999	6.72940016	-0.374000013	200	0	0
7.80900002	6.72919989	-0.578999996	200	0	0
7.79699993	6.72919989	-0.558000028	200	0	0
7.80700016	6.72919989	-0.531000018	200	0	0
7.80800009	6.72919989	-0.546999991	200	0	0
7.80299997	6.72909975	-0.575999975	200	0	0
7.8039999	6.72909975	-0.56099999	200	0	0
7.80700016	6.72909975	-0.546000004	200	0	0
7.83900023	6.72630024	1.19799995	200	0	0
7.84299994	6.72640038	1.18200004	200	0	0
7.82999992	6.7262001	1.21300006	200	0	0
7.84100008	6.72659969	1.15499997	200	0	0
7.83599997	6.72659969	1.14100003	200	0	0
7.83099985	6.72669983	1.12800002	200	0	0
7.82800007	6.72679996	1.12899995	200	0	0
7.84000015	6.7269001	1.11199999	200	0	0
7.83599997	6.72669983	1.14100003	200	0	0
7.83599997	6.72679996	1.11300004	200	0	0
7.83099985	6.7262001	1.227	200	0	0
7.83500004	6.72599983	1.255	200	0	0
7.82800007	6.72580004	1.28299999	200	0	0
7.83300018	6.72590065	1.26900005	200	0	0
7.83500004	6.7256999	1.29700005	200	0	0
7.83199978	6.72539997	1.34099996	200	0	0
7.83400011	6.72520018	1.35599995	200	0	0
7.83300018	6.72550011	1.32599998	200	0	0
7.84200001	6.72700024	1.08399999	200	0	0
7.82600021	6.72719955	1.05799997	200	0	0
7.83699989	6.72710037	1.07099998	200	0	0
7.84100008	6.72419977	1.48199999	200	0	0
7.83699989	6.72429991	1.46899998	200	0	0
7.84399986	6.72409964	1.49600005	200	0	0
7.83099985	6.72739983	1.02900004	200	0	0
7.83300018	6.72789955	0.944999993	200	0	0
7.82499981	6.72789955	0.933000028	200	0	0
7.82800007	6.72780085	0.975000024	200	0	0
7.83900023	6.72729969	1.05599999	200	0	0
7.82499981	6.72749996	1.01800001	200	0	0
7.83300018	6.72710037	1.08500004	200	0	0
7.83099985	6.72719955	1.07200003	200	0	0
7.83599997	6.72719955	1.08500004	200	0	0
7.84100008	6.72700024	1.11199999	200	0	0
7.83799982	6.72739983	1.05599999	200	0	0
7.83199978	6.72729969	1.07200003	200	0	0
7.83400011	6.7269001	1.12699997	200	0	0
7.83799982	6.72679996	1.14100003	200	0	0
7.82999992	6.72749996	1.03100002	200	0	0
7.82399988	6.7276001	1.00399995	200	0	0
7.82399988	6.72770023	0.989000022	200	0	0
7.8210001	6.72799969	0.933000028	200	0	0
7.81599998	6.72809982	0.907000005	200	0	0
7.82399988	6.72860003	0.73299998	200	0	0
7.82200003	6.72870016	0.734000027	200	0	0
7.82200003	6.72840071	0.805000007	200	0	0
7.8210001	6.72849989	0.791000009	200	0	0
7.82700014	6.72860003	0.760999978	200	0	0
7.82399988	6.72870016	0.718999982	200	0	0
7.82600021	6.72879982	0.703999996	200	0	0
7.82499981	6.72879982	0.718999982	200	0	0
7.83300018	6.72889996	0.688000023	200	0	0
7.82299995	6.72889996	0.662	200	0	0
7.82499981	6.72879982	0.689999998	200	0	0
7.82299995	6.72879982	0.734000027	200	0	0
7.82600021	6.72900105	0.632000029	200	0	0
7.81699991	6.72900105	0.648999989	200	0	0
7.82200003	6.72909975	0.632000029	200	0	0
7.82499981	6.72909975	0.616999984	200	0	0
7.82499981	6.72909975	0.588	200	0	0
7.81599998	6.72969961	0.372000009	200	0	0
7.79500008	6.72960043	0.407000005	200	0	0
7.8039999	6.72969961	0.361000001	200	0	0
7.81899977	6.72979975	0.342000008	200	0	0
7.80800009	6.72979975	0.360000014	200	0	0
7.8130002	6.72969961	0.40200001	200	0	0
7.82200003	6.72930002	0.545000017	200	0	0
7.80900002	6.72930002	0.519999981	200	0	0
7.79699993	6.72979975	-0.449000001	200	0	0
7.79099989	6.72989988	-0.523999989	200	0	0
7.79500008	6.72960043	-0.573000014	200	0	0
7.8119998	6.72989988	-0.469999999	200	0	0
7.80100012	6.72969961	-0.560000002	200	0	0
7.80600023	6.72979975	-0.546000004	200	0	0
7.81400013	6.72989988	-0.486000001	200	0	0
7.79799986	6.72979975	-0.465000004	200	0	0
7.79799986	6.72969961	-0.449000001	200	0	0
7.78999996	6.72979975	-0.523999989	200	0	0
7.78100014	6.72940016	-0.568000019	200	0	0
7.79099989	6.72969961	-0.462000012	200	0	0
7.80000019	6.72969961	-0.54400003	200	0	0
7.80000019	6.72930002	-0.574999988	200	0	0
7.80900002	6.72979975	-0.5	200	0	0
7.78700018	6.72960043	-0.460999995	200	0	0
7.80600023	6.72969961	-0.531000018	200	0	0
7.78999996	6.72960043	-0.477999985	200	0	0
7.80900002	6.72930002	-0.563000023	200	0	0
7.78800011	6.72960043	-0.492000014	200	0	0
7.78499985	6.72940016	-0.537999988	200	0	0
7.78800011	6.72940016	-0.476000011	200	0	0
7.78999996	6.72940016	-0.523999989	200	0	0
7.79799986	6.72930002	-0.465000004	200	0	0
7.81500006	6.72930002	-0.486999989	200	0	0
7.80499983	6.72930002	-0.499000013	200	0	0
7.79099989	6.72909975	-0.617999971	200	0	0
7.79899979	6.72909975	-0.606000006	200	0	0
7.80900002	6.73000002	-0.344999999	200	0	0
7.80600023	6.73000002	-0.405999988	200	0	0
7.81699991	6.72989988	-0.425999999	200	0	0
7.796	6.73000002	-0.386999995	200	0	0
7.81099987	6.73000002	-0.377000004	200	0	0
7.81799984	6.72989988	-0.409999996	200	0	0
7.80000019	6.73000002	-0.54400003	200	0	0
7.79899979	6.73010015	-0.451000005	200	0	0
7.78499985	6.72979975	-0.552999973	200	0	0
7.8039999	6.72989988	-0.545000017	200	0	0
7.80499983	6.73000002	-0.529999971	200	0	0
7.80999994	6.73010015	-0.501999974	200	0	0
7.80900002	6.73010015	-0.470999986	200	0	0
7.8039999	6.73010015	-0.483999997	200	0	0
7.8039999	6.73000002	-0.451999992	200	0	0
7.80800009	6.73000002	-0.469000012	200	0	0
7.79699993	6.73000002	-0.479999989	200	0	0
7.81099987	6.73000002	-0.500999987	200	0	0
7.80200005	6.72989988	-0.451000005	200	0	0
7.80200005	6.72989988	-0.560000002	200	0	0
7.79699993	6.72969961	-0.574000001	200	0	0
7.8119998	6.73000002	-0.423000008	200	0	0
7.8039999	6.73010015	-0.421999991	200	0	0
7.81799984	6.73010015	-0.395999998	200	0	0
7.79899979	6.73010015	-0.405000001	200	0	0
7.81500006	6.73000002	-0.331999987	200	0	0
7.8119998	6.73010015	-0.377999991	200	0	0
7.77099991	6.72960043	-0.611000001	200	0	0
7.79500008	6.72930002	-0.635999978	200	0	0
7.80299997	6.72989988	-0.575999975	200	0	0
7.78299999	6.72969961	-0.600000024	200	0	0
7.79500008	6.72919989	-0.635999978	200	0	0
7.77699995	6.72950029	-0.612999976	200	0	0
7.79500008	6.72979975	-0.573000014	200	0	0
7.78700018	6.72960043	-0.601000011	200	0	0
7.78999996	6.72930002	-0.617999971	200	0	0
7.79400015	6.72919989	-0.620000005	200	0	0
7.79300022	6.72930002	-0.603999972	200	0	0
7.79699993	6.72919989	-0.605000019	200	0	0
7.79799986	6.72909975	-0.652999997	200	0	0
7.77400017	6.72969961	-0.611999989	200	0	0
7.78000021	6.72979975	-0.59799999	200	0	0
7.77600002	6.72950029	-0.628000021	200	0	0
7.82399988	6.72979975	0.326000005	200	0	0
7.8210001	6.72979975	0.252999991	200	0	0
7.82000017	6.72979975	0.268000007	200	0	0
7.81899977	6.72979975	0.298000008	200	0	0
7.8210001	6.72979975	0.282999992	200	0	0
7.829	6.72919989	0.629999995	200	0	0
7.81699991	6.72909975	0.648000002	200	0	0
7.82299995	6.72919989	0.616999984	200	0	0
7.82700014	6.72919989	0.573000014	200	0	0
7.82000017	6.72930002	0.588999987	200	0	0
7.82700014	6.72930002	0.573000014	200	0	0
7.82200003	6.72889996	0.704999983	200	0	0
7.8130002	6.72900105	0.663999975	200	0	0
7.81899977	6.72909975	0.661000013	200	0	0
7.82399988	6.72919989	0.646000028	200	0	0
7.82000017	6.72930002	0.617999971	200	0	0
7.82299995	6.72900105	0.689999998	200	0	0
7.8210001	6.72960043	0.47299999	200	0	0
7.81599998	6.72969961	0.444999993	200	0	0
7.81899977	6.72889996	0.720000029	200	0	0
7.82999992	6.72900105	0.703000009	200	0	0
7.82000017	6.72909975	0.689999998	200	0	0
7.80299997	6.72979975	0.375999987	200	0	0
7.80800009	6.72989988	0.360000014	200	0	0
7.82000017	6.72989988	0.342000008	200	0	0
7.82000017	6.72989988	0.268000007	200	0	0
7.81899977	6.72989988	0.326999992	200	0	0
7.80800009	6.72989988	0.286000013	200	0	0
7.82200003	6.72989988	0.296999991	200	0	0
7.80800009	6.72989988	0.256999999	200	0	0
7.81400013	6.72960043	0.488999993	200	0	0
7.8210001	6.72960043	0.501999974	200	0	0
7.80900002	6.72989988	0.374000013	200	0	0
7.8130002	6.73010015	0.298999995	200	0	0
7.82000017	6.73000002	0.224000007	200	0	0
7.81799984	6.72989988	0.209999993	200	0	0
7.80900002	6.73010015	0.256000012	200	0	0
7.8210001	6.73010015	0.282000005	200	0	0
7.82999992	6.73010015	0.263999999	200	0	0
7.8039999	6.73000002	0.301999986	200	0	0
7.80999994	6.73000002	0.286000013	200	0	0
7.81099987	6.72989988	0.226999998	200	0	0
7.81699991	6.73000002	0.254999995	200	0	0
7.82000017	6.73000002	0.268000007	200	0	0
7.80999994	6.73000002	0.330000013	200	0	0
7.82200003	6.73010015	0.193000004	200	0	0
7.82000017	6.73000002	0.180000007	200	0	0
7.81899977	6.73010015	0.208000004	200	0	0
7.80800009	6.73010015	0.225999996	200	0	0
7.82399988	6.73000002	0.193000004	200	0	0
7.82600021	6.73000002	0.208000004	200	0	0
7.81099987	6.72989988	0.181999996	200	0	0
7.82299995	6.72989988	0.194000006	200	0	0
7.8130002	6.73020029	-0.379000008	200	0	0
7.80700016	6.73020029	-0.453999996	200	0	0
7.81099987	6.73020029	-0.393999994	200	0	0
7.8119998	6.73020029	-0.409000009	200	0	0
7.80499983	6.73020029	-0.421999991	200	0	0
7.82499981	6.73020029	-0.337000012	200	0	0
7.8130002	6.72989988	-0.300000012	200	0	0
7.81699991	6.73020029	-0.349000007	200	0	0
7.80200005	6.73000002	-0.312000006	200	0	0
7.80499983	6.72979975	-0.298000008	200	0	0
7.8119998	6.73010015	-0.331999987	200	0	0
7.80100012	6.72989988	-0.31099999	200	0	0
7.80700016	6.73010015	-0.345999986	200	0	0
7.82700014	6.73000002	0.340000004	200	0	0
7.8210001	6.72989988	0.104999997	200	0	0
7.81400013	6.73020029	0.150999993	200	0	0
7.80900002	6.73020029	0.210999995	200	0	0
7.8119998	6.73010015	0.136000007	200	0	0
7.81400013	6.73000002	0.122000001	200	0	0
7.81599998	6.73020029	0.194000006	200	0	0
7.81699991	6.73020029	0.179000005	200	0	0
7.8210001	6.73010015	0.148000002	200	0	0
7.81500006	6.72989988	0.122000001	200	0	0
7.8119998	6.73000002	0.136999995	200	0	0
7.81799984	6.73010015	0.179000005	200	0	0
7.82200003	6.72989988	0.135000005	200	0	0
7.81500006	6.73000002	0.151999995	200	0	0
7.80900002	6.72989988	0.152999997	200	0	0
7.86100006	6.72060013	1.85000002	200	0	0
7.84800005	6.7208004	1.83700001	200	0	0
7.85400009	6.72099972	1.82299995	200	0	0
7.84899998	6.72090101	1.83700001	200	0	0
7.85099983	6.7208004	1.85099995	200	0	0
7.85500002	6.72140026	1.79499996	200	0	0
7.85099983	6.72109985	1.82299995	200	0	0
7.84899998	6.72090101	1.85099995	200	0	0
7.85099983	6.72109985	1.83700001	200	0	0
7.85300016	6.72119999	1.82299995	200	0	0
7.85200024	6.72239971	1.68400002	200	0	0
7.85200024	6.72219992	1.71200001	200	0	0
7.8499999	6.72229958	1.69799995	200	0	0
7.85500002	6.72200012	1.74100006	200	0	0
7.85500002	6.72179985	1.76900005	200	0	0
7.85200024	6.72159958	1.78100002	200	0	0
7.85400009	6.72169971	1.76900005	200	0	0
7.85400009	6.72210026	1.72599995	200	0	0
7.85200024	6.72150087	1.79499996	200	0	0
7.84800005	6.72310019	1.61500001	200	0	0
7.8499999	6.72289991	1.64300001	200	0	0
7.85500002	6.72300005	1.62800002	200	0	0
7.84800005	6.72340107	1.58599997	200	0	0
7.85400009	6.72280073	1.65600002	200	0	0
7.85599995	6.72249985	1.68400002	200	0	0
7.85400009	6.72259998	1.68499994	200	0	0
7.8499999	6.72239971	1.69799995	200	0	0
7.84899998	6.72249985	1.69799995	200	0	0
7.84600019	6.72229958	1.71300006	200	0	0
7.8499999	6.72219992	1.72599995	200	0	0
7.85400009	6.72319984	1.61399996	200	0	0
7.85500002	6.72310019	1.62800002	200	0	0
7.84700012	6.72289991	1.65699995	200	0	0
7.84899998	6.72300005	1.64300001	200	0	0
7.85300016	6.72270012	1.68499994	200	0	0
7.84800005	6.72239971	1.71200001	200	0	0
7.84800005	6.72179985	1.78299999	200	0	0
7.85099983	6.72189999	1.76900005	200	0	0
7.85200024	6.72159958	1.79499996	200	0	0
7.85300016	6.72169971	1.78299999	200	0	0
7.84700012	6.72370005	1.55499995	200	0	0
7.84299994	6.72380018	1.53999996	200	0	0
7.84899998	6.72400093	1.50899994	200	0	0
7.84000015	6.72359991	1.57299995	200	0	0
7.84399986	6.72349977	1.58599997	200	0	0
7.84299994	6.72329998	1.61399996	200	0	0
7.84700012	6.72310019	1.64300001	200	0	0
7.84800005	6.72319984	1.62899995	200	0	0
7.8499999	6.72300005	1.65699995	200	0	0
7.8499999	6.72259998	1.70000005	200	0	0
7.84899998	6.72280073	1.68400002	200	0	0
7.84899998	6.72270012	1.70000005	200	0	0
7.84100008	6.72249985	1.71300006	200	0	0
7.84899998	6.72229958	1.72599995	200	0	0
7.84299994	6.72210026	1.74100006	200	0	0
7.84700012	6.72259998	1.71399999	200	0	0
7.84899998	6.72249985	1.72599995	200	0	0
7.84899998	6.72229958	1.74000001	200	0	0
7.84800005	6.72219992	1.74000001	200	0	0
7.8499999	6.72239971	1.72599995	200	0	0
7.83900023	6.72419977	1.49600005	200	0	0
7.829	6.72440004	1.47000003	200	0	0
7.84000015	6.72429991	1.48199999	200	0	0
7.84399986	6.72409964	1.50999999	200	0	0
7.84600019	6.72380018	1.55400002	200	0	0
7.84100008	6.72390032	1.53900003	200	0	0
7.84899998	6.72370005	1.56900001	200	0	0
7.84399986	6.72489977	1.41100001	200	0	0
7.84000015	6.7249999	1.39699996	200	0	0
7.83799982	6.72520018	1.37	200	0	0
7.84600019	6.72429991	1.495	200	0	0
7.82800007	6.72440004	1.48399997	200	0	0
7.83599997	6.7246995	1.44099998	200	0	0
7.83900023	6.72479963	1.42499995	200	0	0
7.83699989	6.72419977	1.50999999	200	0	0
7.84800005	6.72329998	1.62699997	200	0	0
7.85099983	6.72340107	1.61300004	200	0	0
7.84899998	6.72359991	1.58599997	200	0	0
7.84200001	6.72319984	1.64300001	200	0	0
7.85200024	6.72280073	1.69799995	200	0	0
7.85099983	6.72289991	1.68400002	200	0	0
7.85400009	6.72310019	1.65600002	200	0	0
7.8499999	6.72380018	1.56700003	200	0	0
7.84200001	6.72390032	1.55299997	200	0	0
7.84700012	6.72400093	1.53699994	200	0	0
7.84100008	6.72370005	1.58399999	200	0	0
7.85400009	6.72349977	1.61300004	200	0	0
7.84899998	6.72329998	1.64100003	200	0	0
7.85099983	6.72340107	1.62699997	200	0	0
7.85400009	6.72130013	1.82299995	200	0	0
7.85400009	6.72099972	1.85000002	200	0	0
7.8499999	6.72189999	1.78299999	200	0	0
7.85200024	6.72169971	1.79700005	200	0	0
7.85599995	6.72200012	1.76800001	200	0	0
7.8499999	6.72179985	1.79700005	200	0	0
7.85599995	6.72140026	1.82299995	200	0	0
7.84600019	6.72550011	1.33800006	200	0	0
7.83500004	6.72530079	1.35500002	200	0	0
7.83300018	6.72559977	1.32599998	200	0	0
7.83099985	6.72599983	1.26999998	200	0	0
7.83300018	6.72590065	1.28299999	200	0	0
7.83900023	6.72580004	1.29499996	200	0	0
7.83500004	6.72609997	1.25399995	200	0	0
7.84399986	6.72630024	1.22599995	200	0	0
7.84100008	6.72630024	1.21200001	200	0	0
7.83099985	6.72530079	1.36899996	200	0	0
7.829	6.72539997	1.35599995	200	0	0
7.83300018	6.7249999	1.41199994	200	0	0
7.83500004	6.72510004	1.398	200	0	0
7.83799982	6.72489977	1.42499995	200	0	0
7.82999992	6.72479963	1.44000006	200	0	0
7.84299994	6.72559977	1.33800006	200	0	0
7.83599997	6.7256999	1.32500005	200	0	0
7.83099985	6.72590065	1.29799998	200	0	0
7.83300018	6.72539997	1.36899996	200	0	0
7.83199978	6.72550011	1.35399997	200	0	0
7.84399986	6.72510004	1.41100001	200	0	0
7.83199978	6.72520018	1.398	200	0	0
7.84200001	6.72650099	1.19700003	200	0	0
7.83599997	6.72640038	1.21099997	200	0	0
7.84000015	6.72650099	1.18299997	200	0	0
7.82700014	6.72640038	1.199	200	0	0
7.83099985	6.72679996	1.15600002	200	0	0
7.84299994	6.72659969	1.18200004	200	0	0
7.82999992	6.72669983	1.15600002	200	0	0
7.84700012	6.72109985	1.85099995	200	0	0
7.84700012	6.72119999	1.83700001	200	0	0
7.82600021	6.72830009	0.847000003	200	0	0
7.83099985	6.72830009	0.832000017	200	0	0
7.82499981	6.72849989	0.805000007	200	0	0
7.83099985	6.72840071	0.846000016	200	0	0
7.82499981	6.72830009	0.861999989	200	0	0
7.82299995	6.72840071	0.833000004	200	0	0
7.82000017	6.72830009	0.876999974	200	0	0
7.82399988	6.72809982	0.920000017	200	0	0
7.82399988	6.72860003	0.790000021	200	0	0
7.83099985	6.72849989	0.832000017	200	0	0
7.82700014	6.72860003	0.80400002	200	0	0
7.82700014	6.72840071	0.861000001	200	0	0
7.83199978	6.72860003	0.832000017	200	0	0
7.82999992	6.72849989	0.846000016	200	0	0
7.82499981	6.72870016	0.805000007	200	0	0
7.81500006	6.72870016	0.791999996	200	0	0
7.8210001	6.72870016	0.763000011	200	0	0
7.82299995	6.72879982	0.762000024	200	0	0
7.81899977	6.72909975	0.704999983	200	0	0
7.81599998	6.72900105	0.721000016	200	0	0
7.80600023	6.72940016	0.592999995	200	0	0
7.82399988	6.72930002	0.646000028	200	0	0
7.81099987	6.72930002	0.634000003	200	0	0
7.83099985	6.72700024	1.12800002	200	0	0
7.82999992	6.72710037	1.11399996	200	0	0
7.83500004	6.72729969	1.08500004	200	0	0
7.83199978	6.72739983	1.07200003	200	0	0
7.83500004	6.7269001	1.14100003	200	0	0
7.83599997	6.72749996	1.05799997	200	0	0
7.82000017	6.7276001	1.01800001	200	0	0
7.82999992	6.72770023	1.00300002	200	0	0
7.83699989	6.72609997	1.26699996	200	0	0
7.83799982	6.7262001	1.25300002	200	0	0
7.83400011	6.72640038	1.22599995	200	0	0
7.83900023	6.72659969	1.19700003	200	0	0
7.83400011	6.72650099	1.21200001	200	0	0
7.83699989	6.72599983	1.28299999	200	0	0
7.83099985	6.7269001	1.15600002	200	0	0
7.84100008	6.72669983	1.18299997	200	0	0
7.82000017	6.72440004	1.49899995	200	0	0
7.84000015	6.72429991	1.50999999	200	0	0
7.81899977	6.72450018	1.48500001	200	0	0
7.82200003	6.72460032	1.47099996	200	0	0
7.84200001	6.7246995	1.46800005	200	0	0
7.83099985	6.72440004	1.51100004	200	0	0
7.84800005	6.72390032	1.56599998	200	0	0
7.84700012	6.72400093	1.551	200	0	0
7.84399986	6.72409964	1.53699994	200	0	0
7.84600019	6.72409964	1.551	200	0	0
7.84000015	6.72419977	1.53799999	200	0	0
7.83900023	6.72489977	1.43900001	200	0	0
7.84499979	6.7249999	1.42400002	200	0	0
7.84100008	6.72479963	1.46700001	200	0	0
7.83900023	6.7262001	1.26699996	200	0	0
7.84899998	6.72630024	1.25300002	200	0	0
7.84000015	6.72650099	1.22500002	200	0	0
7.84000015	6.72669983	1.19700003	200	0	0
7.83799982	6.72659969	1.21099997	200	0	0
7.829	6.72609997	1.28299999	200	0	0
7.84200001	6.7256999	1.33800006	200	0	0
7.84000015	6.72580004	1.32299995	200	0	0
7.82999992	6.72550011	1.36800003	200	0	0
7.83900023	6.72559977	1.35300004	200	0	0
7.83900023	6.72530079	1.39600003	200	0	0
7.84200001	6.72510004	1.42499995	200	0	0
7.83099985	6.72520018	1.41199994	200	0	0
7.84299994	6.7249999	1.43900001	200	0	0
7.83500004	6.72780085	0.986999989	200	0	0
7.82700014	6.72789955	0.975000024	200	0	0
7.83199978	6.72799969	0.944999993	200	0	0
7.82299995	6.72809982	0.934000015	200	0	0
7.81899977	6.72819996	0.907000005	200	0	0
7.84100008	6.72710037	1.12600005	200	0	0
7.84299994	6.72700024	1.13999999	200	0	0
7.84100008	6.72719955	1.11199999	200	0	0
7.82700014	6.72739983	1.08599997	200	0	0
7.82700014	6.72770023	1.04499996	200	0	0
7.82499981	6.72749996	1.074	200	0	0
7.83099985	6.72770023	1.01600003	200	0	0
7.83699989	6.7276001	1.04400003	200	0	0
7.83400011	6.72780085	1.01600003	200	0	0
7.83400011	6.72780085	1.00199997	200	0	0
7.83500004	6.72789955	1.01600003	200	0	0
7.829	6.72780085	1.03100002	200	0	0
7.83099985	6.72789955	1.00199997	200	0	0
7.82700014	6.72789955	0.989000022	200	0	0
7.83099985	6.72799969	0.973999977	200	0	0
7.82800007	6.72819996	0.91900003	200	0	0
7.81599998	6.72849989	0.862999976	200	0	0
7.82000017	6.72840071	0.876999974	200	0	0
7.81599998	6.72830009	0.906000018	200	0	0
7.82399988	6.72830009	0.917999983	200	0	0
7.83400011	6.72819996	0.931999981	200	0	0
7.8210001	6.72700024	1.15799999	200	0	0
7.83400011	6.72679996	1.18400002	200	0	0
7.83500004	6.72729969	1.12699997	200	0	0
7.83900023	6.72710037	1.15499997	200	0	0
7.84100008	6.72719955	1.13999999	200	0	0
7.82800007	6.72729969	1.11399996	200	0	0
7.83199978	6.72719955	1.12800002	200	0	0
7.82999992	6.72710037	1.14199996	200	0	0
7.83799982	6.72739983	1.11300004	200	0	0
7.84000015	6.72749996	1.08500004	200	0	0
7.83500004	6.7269001	1.18400002	200	0	0
7.84499979	6.72679996	1.19599998	200	0	0
7.83199978	6.7276001	1.07299995	200	0	0
7.82999992	6.72640038	1.255	200	0	0
7.83599997	6.72659969	1.22599995	200	0	0
7.83500004	6.72669983	1.21200001	200	0	0
7.82499981	6.72770023	1.05999994	200	0	0
7.83099985	6.72809982	0.947000027	200	0	0
7.82600021	6.72799969	1.00300002	200	0	0
7.83300018	6.72809982	0.975000024	200	0	0
7.82000017	6.72799969	0.99000001	200	0	0
7.82499981	6.72840071	0.903999984	200	0	0
7.82800007	6.72830009	0.94599998	200	0	0
7.82200003	6.72830009	0.933000028	200	0	0
7.829	6.72819996	0.947000027	200	0	0
7.82000017	6.72849989	0.876999974	200	0	0
7.81400013	6.72840071	0.920000017	200	0	0
7.82600021	6.72799969	1.01699996	200	0	0
7.82399988	6.72909975	0.717999995	200	0	0
7.81799984	6.72889996	0.735000014	200	0	0
7.81599998	6.72930002	0.662	200	0	0
7.82700014	6.72889996	0.760999978	200	0	0
7.82700014	6.72900105	0.73299998	200	0	0
7.82499981	6.72919989	0.703000009	200	0	0
7.8210001	6.72930002	0.689999998	200	0	0
7.82800007	6.72919989	0.731000006	200	0	0
7.83599997	6.72919989	0.714999974	200	0	0
7.81599998	6.72909975	0.734000027	200	0	0
7.8210001	6.72930002	0.703999996	200	0	0
7.82600021	6.72900105	0.762000024	200	0	0
7.80499983	6.72960043	0.578000009	200	0	0
7.8119998	6.72960043	0.561999977	200	0	0
7.80600023	6.72960043	0.549000025	200	0	0
7.82499981	6.72969961	0.515999973	200	0	0
7.82000017	6.72969961	0.501999974	200	0	0
7.80499983	6.72960043	0.592999995	200	0	0
7.82499981	6.72879982	0.790000021	200	0	0
7.82800007	6.72879982	0.80400002	200	0	0
7.829	6.72870016	0.832000017	200	0	0
7.83300018	6.72860003	0.846000016	200	0	0
7.83199978	6.72870016	0.846000016	200	0	0
7.83199978	6.72849989	0.902999997	200	0	0
7.8119998	6.72860003	0.864000022	200	0	0
7.81799984	6.72979975	0.488000005	200	0	0
7.8119998	6.72979975	0.416999996	200	0	0
7.81699991	6.72979975	0.474000007	200	0	0
7.81400013	6.72979975	0.430999994	200	0	0
7.82299995	6.72979975	0.545000017	200	0	0
7.8210001	6.72969961	0.588999987	200	0	0
7.81500006	6.72969961	0.546999991	200	0	0
7.8039999	6.72960043	0.621999979	200	0	0
7.82600021	6.72909975	0.75999999	200	0	0
7.82700014	6.72930002	0.731000006	200	0	0
7.8210001	6.72930002	0.717999995	200	0	0
7.8210001	6.72860003	0.904999971	200	0	0
7.82000017	6.72870016	0.876999974	200	0	0
7.82000017	6.72870016	0.862999976	200	0	0
7.81699991	6.72860003	0.876999974	200	0	0
7.829	6.72840071	0.931999981	200	0	0
7.81799984	6.72849989	0.920000017	200	0	0
7.82800007	6.72879982	0.832000017	200	0	0
7.82600021	6.72889996	0.790000021	200	0	0
7.84299994	6.72380018	1.58200002	200	0	0
7.8579998	6.72400093	1.56299996	200	0	0
7.84600019	6.72419977	1.551	200	0	0
7.84200001	6.72429991	1.53699994	200	0	0
7.83500004	6.7246995	1.48300004	200	0	0
7.82499981	6.72460032	1.49800003	200	0	0
7.84299994	6.72390032	1.58099997	200	0	0
7.85099983	6.72409964	1.56400001	200	0	0
7.8499999	6.72359991	1.61300004	200	0	0
7.84499979	6.72400093	1.579	200	0	0
7.84899998	6.72359991	1.62699997	200	0	0
7.84600019	6.72340107	1.64100003	200	0	0
7.84800005	6.72370005	1.61099994	200	0	0
7.8499999	6.72349977	1.62699997	200	0	0
7.84800005	6.72319984	1.65699995	200	0	0
7.84200001	6.72479963	1.48099995	200	0	0
7.83799982	6.72489977	1.46700001	200	0	0
7.84100008	6.72510004	1.43900001	200	0	0
7.83799982	6.7246995	1.49600005	200	0	0
7.83699989	6.72580004	1.33800006	200	0	0
7.83099985	6.72559977	1.36800003	200	0	0
7.83300018	6.7256999	1.35300004	200	0	0
7.85200024	6.72349977	1.64100003	200	0	0
7.85300016	6.72329998	1.65499997	200	0	0
7.85300016	6.72300005	1.68400002	200	0	0
7.84800005	6.72270012	1.71399999	200	0	0
7.84899998	6.72280073	1.71200001	200	0	0
7.85500002	6.72259998	1.727	200	0	0
7.84700012	6.72289991	1.69799995	200	0	0
7.84600019	6.72239971	1.74000001	200	0	0
7.85500002	6.72310019	1.68400002	200	0	0
7.84700012	6.72270012	1.72800004	200	0	0
7.85400009	6.72289991	1.71099997	200	0	0
7.84800005	6.72300005	1.69799995	200	0	0
7.84899998	6.72249985	1.74000001	200	0	0
7.85099983	6.72210026	1.76800001	200	0	0
7.85200024	6.72340107	1.65499997	200	0	0
7.84299994	6.72370005	1.625	200	0	0
7.85099983	6.72380018	1.60899997	200	0	0
7.84899998	6.72359991	1.64100003	200	0	0
7.82999992	6.72590065	1.32599998	200	0	0
7.83199978	6.72599983	1.29799998	200	0	0
7.83799982	6.72609997	1.29499996	200	0	0
7.83400011	6.72630024	1.26900005	200	0	0
7.83400011	6.7262001	1.28199995	200	0	0
