-8.43200016	6.63500023	3.87599993	200	0	0
-8.40999985	6.63500023	3.85700011	200	0	0
-8.41600037	6.63640022	3.82800007	200	0	0
-8.42800045	6.63549995	3.81500006	200	0	0
-8.43500042	6.63599968	3.81599998	200	0	0
-8.4119997	6.63630009	3.8269999	200	0	0
-8.43200016	6.63580036	3.81500006	200	0	0
-8.41600037	6.63590097	3.81299996	200	0	0
-8.41699982	6.63619995	3.82800007	200	0	0
-8.42599964	6.63560009	3.82999992	200	0	0
-8.40799999	6.63570023	3.8269999	200	0	0
-8.42000008	6.63580036	3.829	200	0	0
-8.4289999	6.63549995	3.8599999	200	0	0
-8.43599987	6.63560009	3.86100006	200	0	0
-8.42000008	6.63590097	3.85899997	200	0	0
-8.41100025	6.63580036	3.85700011	200	0	0
-8.42199993	6.63630009	3.79900002	200	0	0
-8.43599987	6.63509989	3.80100012	200	0	0
-8.42800045	6.63490009	3.81500006	200	0	0
-8.42399979	6.63490009	3.829	200	0	0
-8.43700027	6.63549995	3.78600001	200	0	0
-8.41399956	6.63640022	3.7980001	200	0	0
-8.42399979	6.63609982	3.78399992	200	0	0
-8.42000008	6.63599968	3.78399992	200	0	0
-8.41399956	6.63560009	3.78299999	200	0	0
-8.41899967	6.63570023	3.78299999	200	0	0
-8.41399956	6.63640022	3.78299999	200	0	0
-8.43400002	6.63630009	3.78600001	200	0	0
-8.41699982	6.63490009	3.7980001	200	0	0
-8.42099953	6.63520002	3.78399992	200	0	0
-8.42700005	6.63500023	3.79999995	200	0	0
-8.42500019	6.63580036	3.70900011	200	0	0
-8.42700005	6.63590097	3.71000004	200	0	0
-8.41499996	6.63640022	3.70799994	200	0	0
-8.41899967	6.63549995	3.73799992	200	0	0
-8.41499996	6.63609982	3.70799994	200	0	0
-8.41300011	6.63570023	3.72300005	200	0	0
-8.40600014	6.63560009	3.73600006	200	0	0
-8.42599964	6.63580036	3.72399998	200	0	0
-8.41399956	6.63549995	3.75300002	200	0	0
-8.41300011	6.63590097	3.72300005	200	0	0
-8.4090004	6.63599968	3.72199988	200	0	0
-8.41300011	6.63640022	3.72300005	200	0	0
-8.42599964	6.63570023	3.73900008	200	0	0
-8.42000008	6.63560009	3.75300002	200	0	0
-8.42599964	6.63630009	3.72399998	200	0	0
-8.43299961	6.63609982	3.7249999	200	0	0
-8.43299961	6.63619995	3.7249999	200	0	0
-8.43099976	6.63580036	3.74000001	200	0	0
-8.41300011	6.63640022	3.73699999	200	0	0
-8.41300011	6.63599968	3.73699999	200	0	0
-8.43099976	6.63590097	3.74000001	200	0	0
-8.41899967	6.63609982	3.73799992	200	0	0
-8.41600037	6.63580036	3.75300002	200	0	0
-8.41800022	6.63619995	3.73799992	200	0	0
-8.41600037	6.63590097	3.75300002	200	0	0
-8.41100025	6.63599968	3.75200009	200	0	0
-8.41399956	6.63640022	3.75300002	200	0	0
-8.41800022	6.63630009	3.75300002	200	0	0
-8.44499969	6.63429976	3.78900003	200	0	0
-8.42399979	6.63450003	3.78600001	200	0	0
-8.43299961	6.63460016	3.78699994	200	0	0
-8.43200016	6.63500023	3.78500009	200	0	0
-8.42700005	6.63469982	3.74099994	200	0	0
-8.42599964	6.63490009	3.72399998	200	0	0
-8.41499996	6.63570023	3.70799994	200	0	0
-8.41100025	6.63549995	3.70700002	200	0	0
-8.4289999	6.63479996	3.74099994	200	0	0
-8.42099953	6.63560009	3.70900011	200	0	0
-8.42599964	6.63500023	3.72399998	200	0	0
-8.44200039	6.63490009	3.7420001	200	0	0
-8.4289999	6.63509989	3.7249999	200	0	0
-8.42300034	6.63549995	3.72399998	200	0	0
-8.42800045	6.63490009	3.75500011	200	0	0
-8.41699982	6.63509989	3.73799992	200	0	0
-8.41399956	6.63500023	3.75300002	200	0	0
-8.42099953	6.63509989	3.75399995	200	0	0
-8.40699959	6.63509989	3.70700002	200	0	0
-8.41600037	6.63490009	3.70799994	200	0	0
-8.42199993	6.63479996	3.71000004	200	0	0
-8.42099953	6.63439989	3.74000001	200	0	0
-8.43200016	6.63429976	3.75699997	200	0	0
-8.4119997	6.63450003	3.73900008	200	0	0
-8.43099976	6.63460016	3.727	200	0	0
-8.41100025	6.63479996	3.72399998	200	0	0
-8.42399979	6.63469982	3.72600007	200	0	0
-8.4289999	6.63439989	3.75600004	200	0	0
-8.42099953	6.63460016	3.74000001	200	0	0
-8.43900013	6.63450003	3.7579999	200	0	0
-8.43400002	6.63460016	3.75699997	200	0	0
-8.41600037	6.63450003	3.71000004	200	0	0
-8.41800022	6.63460016	3.71000004	200	0	0
-8.4289999	6.63419962	3.74099994	200	0	0
-8.42099953	6.63469982	3.71000004	200	0	0
-8.43700027	6.63500023	3.65100002	200	0	0
-8.41699982	6.63640022	3.6329999	200	0	0
-8.41399956	6.63490009	3.67799997	200	0	0
-8.41899967	6.63500023	3.66300011	200	0	0
-8.42599964	6.63509989	3.6500001	200	0	0
-8.41499996	6.63630009	3.6329999	200	0	0
-8.41300011	6.63640022	3.648	200	0	0
-8.43299961	6.63500023	3.68000007	200	0	0
-8.43299961	6.63619995	3.63599992	200	0	0
-8.42300034	6.63509989	3.66400003	200	0	0
-8.41699982	6.63549995	3.6329999	200	0	0
-8.42500019	6.63609982	3.63400006	200	0	0
-8.41800022	6.63599968	3.6329999	200	0	0
-8.42399979	6.63560009	3.63400006	200	0	0
-8.42800045	6.63630009	3.6500001	200	0	0
-8.43700027	6.63509989	3.68099999	200	0	0
-8.41600037	6.63640022	3.66300011	200	0	0
-8.42700005	6.63590097	3.63499999	200	0	0
-8.43299961	6.63570023	3.63599992	200	0	0
-8.43599987	6.63580036	3.63599992	200	0	0
-8.41800022	6.63640022	3.67799997	200	0	0
-8.42000008	6.63549995	3.64899993	200	0	0
-8.42099953	6.63609982	3.64899993	200	0	0
-8.41300011	6.63599968	3.648	200	0	0
-8.42199993	6.63560009	3.64899993	200	0	0
-8.41300011	6.63580036	3.648	200	0	0
-8.42199993	6.63590097	3.64899993	200	0	0
-8.42399979	6.63570023	3.64899993	200	0	0
-8.43799973	6.63630009	3.68099999	200	0	0
-8.41100025	6.63609982	3.66199994	200	0	0
-8.43500042	6.63549995	3.66599989	200	0	0
-8.43000031	6.63619995	3.68000007	200	0	0
-8.42000008	6.63560009	3.66400003	200	0	0
-8.42300034	6.63590097	3.66400003	200	0	0
-8.43200016	6.63570023	3.66499996	200	0	0
-8.43299961	6.63580036	3.66499996	200	0	0
-8.42500019	6.63609982	3.6789999	200	0	0
-8.42000008	6.63560009	3.6789999	200	0	0
-8.41499996	6.63590097	3.67799997	200	0	0
-8.43799973	6.63570023	3.68099999	200	0	0
-8.42599964	6.63580036	3.6789999	200	0	0
-8.43200016	6.63490009	3.66499996	200	0	0
-8.43799973	6.63429976	3.71300006	200	0	0
-8.42000008	6.63419962	3.7249999	200	0	0
-8.42800045	6.63429976	3.65100002	200	0	0
-8.42300034	6.63439989	3.65100002	200	0	0
-8.42599964	6.63490009	3.6500001	200	0	0
-8.42300034	6.63450003	3.65100002	200	0	0
-8.41800022	6.63460016	3.6500001	200	0	0
-8.43000031	6.63469982	3.65199995	200	0	0
-8.42800045	6.63429976	3.66599989	200	0	0
-8.43200016	6.63439989	3.66700006	200	0	0
-8.42399979	6.63450003	3.66599989	200	0	0
-8.42300034	6.63469982	3.66599989	200	0	0
-8.43099976	6.63460016	3.66700006	200	0	0
-8.43400002	6.63429976	3.68199992	200	0	0
-8.42800045	6.63439989	3.68099999	200	0	0
-8.42399979	6.63450003	3.68099999	200	0	0
-8.44400024	6.63450003	3.63899994	200	0	0
-8.42099953	6.63460016	3.63499999	200	0	0
-8.42199993	6.63509989	3.63400006	200	0	0
-8.42199993	6.63469982	3.63599992	200	0	0
-8.42800045	6.63500023	3.63499999	200	0	0
-8.43299961	6.63490009	3.63599992	200	0	0
-8.44299984	6.63479996	3.63800001	200	0	0
-8.43900013	6.63429976	3.63800001	200	0	0
-8.42599964	6.63419962	3.65100002	200	0	0
-8.43000031	6.63439989	3.63700008	200	0	0
-8.43500042	6.63460016	3.56299996	200	0	0
-8.43500042	6.63560009	3.57599998	200	0	0
-8.43299961	6.63439989	3.5769999	200	0	0
-8.4289999	6.63570023	3.58999991	200	0	0
-8.43599987	6.63469982	3.56299996	200	0	0
-8.42500019	6.63490009	3.55999994	200	0	0
-8.42300034	6.63500023	3.55999994	200	0	0
-8.4289999	6.63509989	3.55999994	200	0	0
-8.43200016	6.63429976	3.59200001	200	0	0
-8.44099998	6.63580036	3.60700011	200	0	0
-8.44499969	6.63479996	3.56399989	200	0	0
-8.43700027	6.63450003	3.57800007	200	0	0
-8.41600037	6.63570023	3.60299993	200	0	0
-8.43099976	6.63560009	3.58999991	200	0	0
-8.43299961	6.63460016	3.5769999	200	0	0
-8.43599987	6.63439989	3.59299994	200	0	0
-8.43099976	6.63429976	3.60700011	200	0	0
-8.42500019	6.63469982	3.57599998	200	0	0
-8.43000031	6.63549995	3.58999991	200	0	0
-8.43200016	6.63450003	3.59200001	200	0	0
-8.43099976	6.63490009	3.57500005	200	0	0
-8.43200016	6.63479996	3.5769999	200	0	0
-8.43099976	6.63500023	3.57500005	200	0	0
-8.43500042	6.63509989	3.57599998	200	0	0
-8.43900013	6.63560009	3.60599995	200	0	0
-8.40999985	6.63549995	3.60299993	200	0	0
-8.43999958	6.63439989	3.60800004	200	0	0
-8.43700027	6.63460016	3.59299994	200	0	0
-8.43099976	6.63469982	3.59200001	200	0	0
-8.44299984	6.63450003	3.60899997	200	0	0
-8.42000008	6.63490009	3.58899999	200	0	0
-8.43000031	6.63509989	3.58999991	200	0	0
-8.44499969	6.63479996	3.5940001	200	0	0
-8.43299961	6.63500023	3.59100008	200	0	0
-8.43299961	6.63460016	3.60700011	200	0	0
-8.43799973	6.63469982	3.60800004	200	0	0
-8.42399979	6.63500023	3.60400009	200	0	0
-8.4289999	6.63509989	3.60500002	200	0	0
-8.43000031	6.63490009	3.60500002	200	0	0
-8.44699955	6.63479996	3.60899997	200	0	0
-8.43299961	6.63580036	3.56100011	200	0	0
-8.44400024	6.63570023	3.5769999	200	0	0
-8.43200016	6.63590097	3.56100011	200	0	0
-8.43400002	6.63580036	3.57599998	200	0	0
-8.43200016	6.63599968	3.56100011	200	0	0
-8.43200016	6.63609982	3.56100011	200	0	0
-8.42800045	6.63590097	3.57500005	200	0	0
-8.43299961	6.63619995	3.56100011	200	0	0
-8.41300011	6.63640022	3.55800009	200	0	0
-8.42099953	6.63630009	3.55900002	200	0	0
-8.42599964	6.63580036	3.58999991	200	0	0
-8.42399979	6.63599968	3.57500005	200	0	0
-8.42500019	6.63590097	3.58999991	200	0	0
-8.42700005	6.63609982	3.57500005	200	0	0
-8.43500042	6.63619995	3.57599998	200	0	0
-8.42700005	6.63630009	3.57500005	200	0	0
-8.42500019	6.63599968	3.58999991	200	0	0
-8.41699982	6.63640022	3.57399988	200	0	0
-8.43099976	6.63590097	3.60500002	200	0	0
-8.42800045	6.63599968	3.60500002	200	0	0
-8.42500019	6.63619995	3.58999991	200	0	0
-8.43400002	6.63630009	3.59100008	200	0	0
-8.43999958	6.63609982	3.60700011	200	0	0
-8.41399956	6.63640022	3.58800006	200	0	0
-8.43299961	6.63619995	3.60599995	200	0	0
-8.41100025	6.63630009	3.60299993	200	0	0
-8.41300011	6.63640022	3.60299993	200	0	0
-8.41800022	6.63549995	3.55900002	200	0	0
-8.43299961	6.63570023	3.56100011	200	0	0
-8.43700027	6.63560009	3.56100011	200	0	0
-8.44200039	6.63450003	3.56399989	200	0	0
-8.43700027	6.63439989	3.56299996	200	0	0
-8.43500042	6.63429976	3.56299996	200	0	0
-8.43500042	6.63429976	3.57800007	200	0	0
-8.43299961	6.63549995	3.5309999	200	0	0
-8.42800045	6.63509989	3.48600006	200	0	0
-8.43299961	6.63500023	3.48600006	200	0	0
-8.43099976	6.63490009	3.48600006	200	0	0
-8.43299961	6.63429976	3.48799992	200	0	0
-8.42800045	6.63509989	3.50099993	200	0	0
-8.43700027	6.63439989	3.48799992	200	0	0
-8.4460001	6.63479996	3.48900008	200	0	0
-8.4289999	6.63469982	3.48699999	200	0	0
-8.43000031	6.63460016	3.48699999	200	0	0
-8.44299984	6.63450003	3.48900008	200	0	0
-8.43599987	6.63500023	3.50200009	200	0	0
-8.43400002	6.63490009	3.50099993	200	0	0
-8.43299961	6.63509989	3.51600003	200	0	0
-8.44299984	6.63429976	3.50399995	200	0	0
-8.43099976	6.63479996	3.50200009	200	0	0
-8.43799973	6.63439989	3.50300002	200	0	0
-8.43599987	6.63500023	3.51600003	200	0	0
-8.43000031	6.63460016	3.50200009	200	0	0
-8.43200016	6.63450003	3.50300002	200	0	0
-8.44099998	6.63469982	3.50399995	200	0	0
-8.43999958	6.63509989	3.53200006	200	0	0
-8.43900013	6.63490009	3.51699996	200	0	0
-8.43700027	6.63429976	3.51799989	200	0	0
-8.44799995	6.63500023	3.53299999	200	0	0
-8.43400002	6.63419962	3.53299999	200	0	0
-8.43999958	6.63439989	3.51799989	200	0	0
-8.43200016	6.63469982	3.51699996	200	0	0
-8.43799973	6.63450003	3.51799989	200	0	0
-8.44699955	6.63460016	3.51900005	200	0	0
-8.43500042	6.63490009	3.5309999	200	0	0
-8.43700027	6.63429976	3.53299999	200	0	0
-8.43000031	6.63479996	3.53200006	200	0	0
-8.43999958	6.63439989	3.53299999	200	0	0
-8.44400024	6.63450003	3.53399992	200	0	0
-8.44200039	6.63469982	3.53399992	200	0	0
-8.43799973	6.63460016	3.53299999	200	0	0
-8.43299961	6.63599968	3.48600006	200	0	0
-8.42599964	6.63619995	3.5	200	0	0
-8.41300011	6.63640022	3.52900004	200	0	0
-8.43400002	6.63590097	3.48600006	200	0	0
-8.43500042	6.63580036	3.48600006	200	0	0
-8.44400024	6.63630009	3.51699996	200	0	0
-8.4289999	6.63609982	3.50099993	200	0	0
-8.43799973	6.63549995	3.48699999	200	0	0
-8.43599987	6.63560009	3.48699999	200	0	0
-8.42599964	6.63630009	3.52999997	200	0	0
-8.43900013	6.63599968	3.50200009	200	0	0
-8.43799973	6.63619995	3.51699996	200	0	0
-8.41499996	6.63549995	3.49900007	200	0	0
-8.43700027	6.63590097	3.50200009	200	0	0
-8.43400002	6.63609982	3.51600003	200	0	0
-8.43400002	6.63580036	3.50099993	200	0	0
-8.43799973	6.63570023	3.50200009	200	0	0
-8.43799973	6.63619995	3.53200006	200	0	0
-8.43900013	6.63560009	3.50200009	200	0	0
-8.43000031	6.63599968	3.51600003	200	0	0
-8.42800045	6.63590097	3.51600003	200	0	0
-8.43799973	6.63609982	3.53200006	200	0	0
-8.43099976	6.63580036	3.51600003	200	0	0
-8.42300034	6.63549995	3.5150001	200	0	0
-8.42800045	6.63599968	3.52999997	200	0	0
-8.43099976	6.63570023	3.51600003	200	0	0
-8.43500042	6.63560009	3.51600003	200	0	0
-8.43500042	6.63590097	3.5309999	200	0	0
-8.43700027	6.63580036	3.53200006	200	0	0
-8.43000031	6.63570023	3.5309999	200	0	0
-8.43700027	6.63560009	3.53200006	200	0	0
-8.43000031	6.63630009	3.48600006	200	0	0
-8.41300011	6.63640022	3.49900007	200	0	0
-8.43200016	6.63619995	3.48600006	200	0	0
-8.43799973	6.63609982	3.48699999	200	0	0
-8.43000031	6.63630009	3.50099993	200	0	0
-8.41800022	6.63640022	3.51399994	200	0	0
-8.43900013	6.63509989	3.44199991	200	0	0
-8.43599987	6.63590097	3.44199991	200	0	0
-8.43999958	6.63490009	3.45700002	200	0	0
-8.43700027	6.63609982	3.45700002	200	0	0
-8.44099998	6.63580036	3.44300008	200	0	0
-8.43900013	6.63570023	3.44199991	200	0	0
-8.43799973	6.63560009	3.44199991	200	0	0
-8.43700027	6.63500023	3.45700002	200	0	0
-8.43400002	6.63599968	3.45700002	200	0	0
-8.43500042	6.63549995	3.44199991	200	0	0
-8.43500042	6.63590097	3.45700002	200	0	0
-8.43599987	6.63509989	3.45700002	200	0	0
-8.43500042	6.63580036	3.45700002	200	0	0
-8.43599987	6.63570023	3.45700002	200	0	0
-8.43900013	6.63560009	3.45700002	200	0	0
-8.43299961	6.63549995	3.45700002	200	0	0
-8.43400002	6.63590097	3.42700005	200	0	0
-8.44200039	6.63429976	3.4289999	200	0	0
-8.43799973	6.63570023	3.41199994	200	0	0
-8.43999958	6.63450003	3.41400003	200	0	0
-8.43599987	6.63580036	3.42700005	200	0	0
-8.4460001	6.63429976	3.44499993	200	0	0
-8.43799973	6.63439989	3.4289999	200	0	0
-8.43599987	6.63560009	3.41199994	200	0	0
-8.43799973	6.63460016	3.41400003	200	0	0
-8.43400002	6.63429976	3.45799994	200	0	0
-8.43799973	6.63570023	3.42700005	200	0	0
-8.43700027	6.63549995	3.41199994	200	0	0
-8.44099998	6.63450003	3.4289999	200	0	0
-8.44299984	6.63439989	3.44400001	200	0	0
-8.43500042	6.63469982	3.41400003	200	0	0
-8.43799973	6.63479996	3.41400003	200	0	0
-8.43900013	6.63560009	3.42700005	200	0	0
-8.43700027	6.63490009	3.41199994	200	0	0
-8.43799973	6.63460016	3.4289999	200	0	0
-8.43999958	6.63439989	3.45900011	200	0	0
-8.43700027	6.63500023	3.41199994	200	0	0
-8.44400024	6.63450003	3.44400001	200	0	0
-8.43599987	6.63509989	3.41199994	200	0	0
-8.42099953	6.63549995	3.42499995	200	0	0
-8.43700027	6.63469982	3.4289999	200	0	0
-8.44099998	6.63450003	3.45900011	200	0	0
-8.43799973	6.63460016	3.44400001	200	0	0
-8.43999958	6.63479996	3.4289999	200	0	0
-8.43799973	6.63490009	3.42700005	200	0	0
-8.43599987	6.63500023	3.42700005	200	0	0
-8.43400002	6.63509989	3.42700005	200	0	0
-8.43999958	6.63469982	3.44400001	200	0	0
-8.43700027	6.63460016	3.45799994	200	0	0
-8.43999958	6.63479996	3.44400001	200	0	0
-8.43799973	6.63469982	3.45900011	200	0	0
-8.43500042	6.63490009	3.44199991	200	0	0
-8.43900013	6.63500023	3.44199991	200	0	0
-8.43599987	6.63479996	3.45799994	200	0	0
-8.43799973	6.63439989	3.41400003	200	0	0
-8.44099998	6.63429976	3.41400003	200	0	0
-8.42199993	6.63640022	3.41100001	200	0	0
-8.43599987	6.63630009	3.41199994	200	0	0
-8.43700027	6.63619995	3.41199994	200	0	0
-8.43900013	6.63580036	3.41300011	200	0	0
-8.43700027	6.63609982	3.41199994	200	0	0
-8.43700027	6.63590097	3.41199994	200	0	0
-8.44499969	6.63599968	3.41300011	200	0	0
-8.43400002	6.63630009	3.42700005	200	0	0
-8.43700027	6.63619995	3.42700005	200	0	0
-8.43799973	6.63609982	3.42700005	200	0	0
-8.43700027	6.63599968	3.42700005	200	0	0
-8.43799973	6.63630009	3.44199991	200	0	0
-8.41600037	6.63640022	3.45499992	200	0	0
-8.43700027	6.63619995	3.44199991	200	0	0
-8.44799995	6.63599968	3.44300008	200	0	0
-8.44200039	6.63609982	3.44300008	200	0	0
-8.43900013	6.63630009	3.45700002	200	0	0
-8.43599987	6.63619995	3.45700002	200	0	0
-8.42399979	6.63549995	3.352	200	0	0
-8.43799973	6.63590097	3.3829999	200	0	0
-8.44499969	6.63429976	3.38499999	200	0	0
-8.43999958	6.63469982	3.35500002	200	0	0
-8.44400024	6.63450003	3.36999989	200	0	0
-8.44099998	6.63479996	3.35500002	200	0	0
-8.44099998	6.63580036	3.3829999	200	0	0
-8.44099998	6.63490009	3.35299993	200	0	0
-8.44699955	6.63439989	3.38499999	200	0	0
-8.43900013	6.63500023	3.35299993	200	0	0
-8.44200039	6.63560009	3.36800003	200	0	0
-8.43700027	6.63509989	3.35299993	200	0	0
-8.44299984	6.63460016	3.36999989	200	0	0
-8.43500042	6.63549995	3.36800003	200	0	0
-8.43799973	6.63570023	3.3829999	200	0	0
-8.44099998	6.63450003	3.38499999	200	0	0
-8.43999958	6.63469982	3.36999989	200	0	0
-8.43999958	6.63560009	3.3829999	200	0	0
-8.43799973	6.63490009	3.36800003	200	0	0
-8.44099998	6.63460016	3.38499999	200	0	0
-8.44099998	6.63500023	3.36800003	200	0	0
-8.42300034	6.63549995	3.38100004	200	0	0
-8.43999958	6.63509989	3.36800003	200	0	0
-8.44200039	6.63469982	3.38499999	200	0	0
-8.43999958	6.63479996	3.38400006	200	0	0
-8.44099998	6.63490009	3.3829999	200	0	0
-8.44200039	6.63500023	3.3829999	200	0	0
-8.43900013	6.63509989	3.3829999	200	0	0
-8.43999958	6.63630009	3.35299993	200	0	0
-8.44099998	6.63560009	3.35299993	200	0	0
-8.43799973	6.63619995	3.35299993	200	0	0
-8.42199993	6.63640022	3.36599994	200	0	0
-8.43799973	6.63609982	3.35299993	200	0	0
-8.44299984	6.63570023	3.35400009	200	0	0
-8.44099998	6.63599968	3.35299993	200	0	0
-8.43799973	6.63580036	3.35299993	200	0	0
-8.43900013	6.63590097	3.35299993	200	0	0
-8.43799973	6.63630009	3.36800003	200	0	0
-8.42099953	6.63640022	3.38100004	200	0	0
-8.43799973	6.63619995	3.36800003	200	0	0
-8.43999958	6.63609982	3.36800003	200	0	0
-8.43999958	6.63580036	3.36800003	200	0	0
-8.43799973	6.63599968	3.36800003	200	0	0
-8.43900013	6.63590097	3.36800003	200	0	0
-8.43700027	6.63630009	3.3829999	200	0	0
-8.43900013	6.63619995	3.3829999	200	0	0
-8.43900013	6.63609982	3.3829999	200	0	0
-8.43999958	6.63599968	3.3829999	200	0	0
-8.42399979	6.63549995	3.33699989	200	0	0
-8.43799973	6.63630009	3.33800006	200	0	0
-8.44200039	6.63560009	3.33899999	200	0	0
-8.43900013	6.63609982	3.33800006	200	0	0
-8.43900013	6.63599968	3.33800006	200	0	0
-8.4460001	6.63580036	3.33899999	200	0	0
-8.43999958	6.63590097	3.33800006	200	0	0
-8.43999958	6.63469982	3.33999991	200	0	0
-8.43999958	6.63460016	3.33999991	200	0	0
-8.44200039	6.63450003	3.33999991	200	0	0
-8.44200039	6.63439989	3.33999991	200	0	0
-8.44400024	6.63429976	3.33999991	200	0	0
-8.43900013	6.63460016	3.35500002	200	0	0
-8.44200039	6.63450003	3.35500002	200	0	0
-8.44299984	6.63439989	3.35500002	200	0	0
-8.44200039	6.63429976	3.35500002	200	0	0
-8.44799995	6.63439989	3.36999989	200	0	0
-8.44499969	6.63429976	3.36999989	200	0	0
-8.43500042	6.63509989	3.33800006	200	0	0
-8.43700027	6.63500023	3.33800006	200	0	0
-8.43799973	6.63490009	3.33800006	200	0	0
-8.43999958	6.63479996	3.33999991	200	0	0
-8.44099998	6.63469982	3.29500008	200	0	0
-8.43700027	6.63509989	3.26399994	200	0	0
-8.44699955	6.63490009	3.27999997	200	0	0
-8.44299984	6.63609982	3.27900004	200	0	0
-8.44200039	6.63469982	3.30999994	200	0	0
-8.45199966	6.63599968	3.27999997	200	0	0
-8.44099998	6.63479996	3.29500008	200	0	0
-8.44799995	6.63549995	3.2650001	200	0	0
-8.43900013	6.63500023	3.27900004	200	0	0
-8.44400024	6.63609982	3.29399991	200	0	0
-8.44099998	6.63490009	3.29399991	200	0	0
-8.43900013	6.63509989	3.27900004	200	0	0
-8.43999958	6.63479996	3.30999994	200	0	0
-8.43799973	6.63500023	3.29399991	200	0	0
-8.43999958	6.63490009	3.30900002	200	0	0
-8.4289999	6.63609982	3.30800009	200	0	0
-8.42500019	6.63549995	3.27800012	200	0	0
-8.43799973	6.63509989	3.29399991	200	0	0
-8.43799973	6.63500023	3.30800009	200	0	0
-8.44999981	6.63590097	3.30999994	200	0	0
-8.46100044	6.63580036	3.31100011	200	0	0
-8.43799973	6.63509989	3.30800009	200	0	0
-8.43700027	6.63549995	3.29399991	200	0	0
-8.43799973	6.63549995	3.30800009	200	0	0
-8.44200039	6.63460016	3.296	200	0	0
-8.44499969	6.63450003	3.296	200	0	0
-8.4460001	6.63439989	3.296	200	0	0
-8.44799995	6.63429976	3.296	200	0	0
-8.44200039	6.63460016	3.30999994	200	0	0
-8.44099998	6.63450003	3.30999994	200	0	0
-8.44299984	6.63439989	3.30999994	200	0	0
-8.44400024	6.63429976	3.31100011	200	0	0
-8.44200039	6.63429976	3.26600003	200	0	0
-8.43999958	6.63500023	3.26399994	200	0	0
-8.44900036	6.63439989	3.26600003	200	0	0
-8.44999981	6.63490009	3.2650001	200	0	0
-8.43000031	6.63450003	3.2650001	200	0	0
-8.45400047	6.63479996	3.26699996	200	0	0
-8.45300007	6.63469982	3.26699996	200	0	0
-8.45400047	6.63429976	3.28200006	200	0	0
-8.44699955	6.63439989	3.2809999	200	0	0
-8.44200039	6.63450003	3.2809999	200	0	0
-8.44499969	6.63460016	3.2809999	200	0	0
-8.44400024	6.63479996	3.2809999	200	0	0
-8.44799995	6.63469982	3.2809999	200	0	0
-8.44499969	6.63609982	3.2650001	200	0	0
-8.45300007	6.63619995	3.27999997	200	0	0
-8.43500042	6.63509989	3.20499992	200	0	0
-8.45300007	6.63429976	3.20799994	200	0	0
-8.43900013	6.63500023	3.20499992	200	0	0
-8.4460001	6.63439989	3.20700002	200	0	0
-8.44299984	6.63490009	3.20499992	200	0	0
-8.4460001	6.63450003	3.20700002	200	0	0
-8.44900036	6.63460016	3.20700002	200	0	0
-8.44200039	6.63479996	3.20700002	200	0	0
-8.44799995	6.63469982	3.20700002	200	0	0
-8.43200016	6.63509989	3.2190001	200	0	0
-8.44099998	6.63429976	3.22099996	200	0	0
-8.43500042	6.63500023	3.2190001	200	0	0
-8.44400024	6.63439989	3.22199988	200	0	0
-8.4289999	6.63450003	3.22000003	200	0	0
-8.44400024	6.63490009	3.22000003	200	0	0
-8.44299984	6.63479996	3.22099996	200	0	0
-8.4460001	6.63469982	3.22199988	200	0	0
-8.43799973	6.63509989	3.23399997	200	0	0
-8.43799973	6.63500023	3.23399997	200	0	0
-8.44299984	6.63439989	3.23600006	200	0	0
-8.44799995	6.63490009	3.2349999	200	0	0
-8.44400024	6.63479996	3.23600006	200	0	0
-8.45100021	6.63469982	3.23699999	200	0	0
-8.47000027	6.63570023	3.19300008	200	0	0
-8.4460001	6.63450003	3.19199991	200	0	0
-8.44799995	6.63460016	3.19199991	200	0	0
-8.44799995	6.63469982	3.19199991	200	0	0
-8.44499969	6.63479996	3.19199991	200	0	0
-8.44499969	6.63490009	3.19099998	200	0	0
-8.43999958	6.63500023	3.19000006	200	0	0
-8.43599987	6.63509989	3.19000006	200	0	0
-8.47099972	6.63590097	3.19300008	200	0	0
-8.44900036	6.63619995	3.19099998	200	0	0
-8.45899963	6.63599968	3.20700002	200	0	0
-8.45300007	6.63619995	3.20600009	200	0	0
-8.45300007	6.63619995	3.22099996	200	0	0
-8.44799995	6.63439989	3.19199991	200	0	0
-8.45199966	6.63429976	3.19300008	200	0	0
-8.43200016	6.63469982	3.1170001	200	0	0
-8.44799995	6.63450003	3.1329999	200	0	0
-8.42099953	6.63490009	3.11500001	200	0	0
-8.43599987	6.63479996	3.1170001	200	0	0
-8.45499992	6.63429976	3.16300011	200	0	0
-8.42099953	6.63500023	3.11500001	200	0	0
-8.44900036	6.63439989	3.148	200	0	0
-8.44799995	6.63460016	3.1329999	200	0	0
-8.46800041	6.63580036	3.16300011	200	0	0
-8.45100021	6.63469982	3.1329999	200	0	0
-8.44799995	6.63450003	3.148	200	0	0
-8.44799995	6.63439989	3.16300011	200	0	0
-8.46500015	6.63560009	3.148	200	0	0
-8.4460001	6.63479996	3.1329999	200	0	0
-8.44799995	6.63460016	3.148	200	0	0
-8.43700027	6.63490009	3.13100004	200	0	0
-8.44099998	6.63500023	3.13100004	200	0	0
-8.44799995	6.63450003	3.16300011	200	0	0
-8.44200039	6.63509989	3.13100004	200	0	0
-8.45800018	6.63549995	3.14700007	200	0	0
-8.45199966	6.63469982	3.148	200	0	0
-8.45100021	6.63460016	3.16300011	200	0	0
-8.44799995	6.63479996	3.148	200	0	0
-8.45899963	6.63549995	3.16199994	200	0	0
-8.44499969	6.63490009	3.14599991	200	0	0
-8.44200039	6.63500023	3.14599991	200	0	0
-8.44900036	6.63469982	3.16300011	200	0	0
-8.43799973	6.63509989	3.14599991	200	0	0
-8.4460001	6.63479996	3.16199994	200	0	0
-8.44499969	6.63490009	3.16100001	200	0	0
-8.44099998	6.63500023	3.16100001	200	0	0
-8.43799973	6.63509989	3.16000009	200	0	0
-8.44799995	6.63460016	3.11800003	200	0	0
-8.44400024	6.63450003	3.11800003	200	0	0
-8.44799995	6.63429976	3.11800003	200	0	0
-8.45100021	6.63439989	3.11899996	200	0	0
-8.43500042	6.63419962	3.13199997	200	0	0
-8.44900036	6.63439989	3.1329999	200	0	0
-8.45300007	6.63429976	3.1329999	200	0	0
-8.45600033	6.63429976	3.148	200	0	0
-8.45199966	6.63630009	3.13199997	200	0	0
-8.44099998	6.63609982	3.13100004	200	0	0
-8.46199989	6.63630009	3.14700007	200	0	0
-8.45300007	6.63619995	3.14700007	200	0	0
-8.44799995	6.63609982	3.14599991	200	0	0
-8.45300007	6.63619995	3.16199994	200	0	0
-8.4460001	6.63609982	3.16100001	200	0	0
-8.45600033	6.63599968	3.16199994	200	0	0
-8.36200047	6.63439989	3.05299997	200	0	0
-8.36100006	6.63450003	3.05299997	200	0	0
-8.36499977	6.63460016	3.05299997	200	0	0
-8.43799973	6.63450003	3.08800006	200	0	0
-8.36600018	6.63460016	3.03900003	200	0	0
-8.36400032	6.63469982	3.03900003	200	0	0
-8.35000038	6.63479996	3.05200005	200	0	0
-8.35499954	6.63479996	2.99399996	200	0	0
-8.36999989	6.63409996	3.00999999	200	0	0
-8.36400032	6.63469982	3.00999999	200	0	0
-8.36400032	6.63460016	3.00999999	200	0	0
-8.36499977	6.63450003	3.00999999	200	0	0
-8.36299992	6.63429976	3.00999999	200	0	0
-8.35999966	6.63439989	3.00900006	200	0	0
-8.35599995	6.63479996	3.03800011	200	0	0
-8.36900043	6.63409996	3.03900003	200	0	0
-8.36900043	6.63409996	3.0539999	200	0	0
-8.36699963	6.63419962	3.03900003	200	0	0
-8.36100006	6.63450003	3.03900003	200	0	0
-8.36299992	6.63429976	3.03900003	200	0	0
-8.36200047	6.63439989	3.03900003	200	0	0
-8.36400032	6.63429976	3.05299997	200	0	0
-8.43599987	6.63450003	2.97000003	200	0	0
-8.43299961	6.63469982	2.97000003	200	0	0
-8.43700027	6.63439989	2.9849999	200	0	0
-8.4460001	6.63460016	2.97000003	200	0	0
-8.43299961	6.63490009	2.93899989	200	0	0
-8.32600021	6.63539982	2.93300009	200	0	0
-8.44200039	6.63479996	2.97000003	200	0	0
-8.44099998	6.63490009	2.9690001	200	0	0
-8.43500042	6.63509989	2.96799994	200	0	0
-8.43500042	6.63500023	2.96799994	200	0	0
-8.45100021	6.63439989	2.97099996	200	0	0
-8.44400024	6.63429976	2.97000003	200	0	0
-8.42399979	6.63509989	2.89400005	200	0	0
-8.42199993	6.63509989	2.90899992	200	0	0
-8.44699955	6.63490009	2.89499998	200	0	0
-8.42199993	6.63479996	2.89499998	200	0	0
-8.44499969	6.63429976	2.89700007	200	0	0
-8.43299961	6.63509989	2.92400002	200	0	0
-8.42800045	6.63460016	2.89599991	200	0	0
-8.42800045	6.63439989	2.89599991	200	0	0
-8.46100044	6.63419962	2.91199994	200	0	0
-8.42800045	6.63500023	2.92400002	200	0	0
-8.44099998	6.63509989	2.93899989	200	0	0
-8.44699955	6.63479996	2.91100001	200	0	0
-8.42300034	6.63469982	2.91000009	200	0	0
-8.43299961	6.63429976	2.91100001	200	0	0
-8.45199966	6.63490009	2.92499995	200	0	0
-8.45199966	6.63500023	2.94000006	200	0	0
-8.43900013	6.63460016	2.91100001	200	0	0
-8.43700027	6.63439989	2.91100001	200	0	0
-8.43900013	6.63450003	2.91100001	200	0	0
-8.44299984	6.63419962	2.92600012	200	0	0
-8.43500042	6.63479996	2.92600012	200	0	0
-8.4460001	6.63429976	2.92600012	200	0	0
-8.44499969	6.63460016	2.92600012	200	0	0
-8.44499969	6.63439989	2.92600012	200	0	0
-8.43400002	6.63450003	2.92600012	200	0	0
-8.44400024	6.63419962	2.94099998	200	0	0
-8.44299984	6.63479996	2.94099998	200	0	0
-8.44799995	6.63469982	2.94099998	200	0	0
-8.4460001	6.63429976	2.94099998	200	0	0
-8.4460001	6.63439989	2.94099998	200	0	0
-8.44299984	6.63460016	2.94099998	200	0	0
-8.4460001	6.63450003	2.94099998	200	0	0
-8.44799995	6.63560009	2.93899989	200	0	0
-8.44999981	6.63549995	2.92499995	200	0	0
-8.43599987	6.63560009	2.96799994	200	0	0
-8.44299984	6.63549995	2.93899989	200	0	0
-8.43099976	6.63549995	2.98300004	200	0	0
-8.4289999	6.63549995	2.96799994	200	0	0
-8.43500042	6.63450003	2.852	200	0	0
-8.43900013	6.63580036	2.9690001	200	0	0
-8.43500042	6.63580036	2.90899992	200	0	0
-8.43099976	6.63429976	2.86599994	200	0	0
-8.43099976	6.63460016	2.852	200	0	0
-8.42199993	6.63509989	2.8499999	200	0	0
-8.44200039	6.63570023	2.98300004	200	0	0
-8.41600037	6.63500023	2.8499999	200	0	0
-8.42099953	6.63469982	2.85100007	200	0	0
-8.4289999	6.63580036	2.93799996	200	0	0
-8.42300034	6.63479996	2.85100007	200	0	0
-8.42300034	6.63439989	2.86599994	200	0	0
-8.43299961	6.63490009	2.8499999	200	0	0
-8.43900013	6.63570023	2.9690001	200	0	0
-8.43099976	6.63570023	2.90899992	200	0	0
-8.43700027	6.63450003	2.8670001	200	0	0
-8.43799973	6.63570023	2.92400002	200	0	0
-8.4460001	6.63570023	2.93899989	200	0	0
-8.44299984	6.63460016	2.8670001	200	0	0
-8.44799995	6.63560009	2.91000009	200	0	0
-8.42500019	6.63509989	2.86500001	200	0	0
-8.43099976	6.63549995	2.89400005	200	0	0
-8.43799973	6.63500023	2.86500001	200	0	0
-8.43700027	6.63490009	2.86500001	200	0	0
-8.44400024	6.63549995	2.91000009	200	0	0
-8.35999966	6.63590097	3.0079999	200	0	0
-8.42700005	6.63580036	2.98300004	200	0	0
-8.44099998	6.63590097	2.91000009	200	0	0
-8.44400024	6.63599968	2.93899989	200	0	0
-8.43299961	6.63590097	2.92400002	200	0	0
-8.44799995	6.63590097	2.93899989	200	0	0
-8.44499969	6.63590097	2.9690001	200	0	0
-8.43299961	6.63419962	2.852	200	0	0
-8.41699982	6.63590097	2.83500004	200	0	0
-8.43400002	6.63429976	2.83699989	200	0	0
-8.43999958	6.63599968	2.86500001	200	0	0
-8.41600037	6.63570023	2.81999993	200	0	0
-8.42399979	6.63599968	2.92400002	200	0	0
-8.43999958	6.63590097	2.85100007	200	0	0
-8.41499996	6.63580036	2.83500004	200	0	0
-8.44299984	6.63599968	2.89499998	200	0	0
-8.43200016	6.63599968	2.90899992	200	0	0
-8.43400002	6.63429976	2.852	200	0	0
-8.42700005	6.63439989	2.83699989	200	0	0
-8.43500042	6.63460016	2.82299995	200	0	0
-8.43400002	6.63590097	2.86500001	200	0	0
-8.42599964	6.63549995	2.8210001	200	0	0
-8.43999958	6.63439989	2.852	200	0	0
-8.43099976	6.63580036	2.8499999	200	0	0
-8.42399979	6.63450003	2.83699989	200	0	0
-8.42599964	6.63590097	2.89400005	200	0	0
-8.42800045	6.63560009	2.83500004	200	0	0
-8.44099998	6.63460016	2.83800006	200	0	0
-8.43000031	6.63490009	2.8210001	200	0	0
-8.42700005	6.63580036	2.86500001	200	0	0
-8.43700027	6.63570023	2.85100007	200	0	0
-8.41399956	6.63509989	2.81999993	200	0	0
-8.4289999	6.63500023	2.8210001	200	0	0
-8.42099953	6.63549995	2.83500004	200	0	0
-8.42300034	6.63580036	2.89400005	200	0	0
-8.4460001	6.63570023	2.86599994	200	0	0
-8.43400002	6.63479996	2.83699989	200	0	0
-8.43900013	6.63490009	2.83599997	200	0	0
-8.40999985	6.63549995	2.84899998	200	0	0
-8.41499996	6.63509989	2.83500004	200	0	0
-8.43200016	6.63500023	2.83599997	200	0	0
-8.42300034	6.63560009	2.86500001	200	0	0
-8.45199966	6.63439989	2.82299995	200	0	0
-8.43799973	6.63419962	2.82299995	200	0	0
-8.42399979	6.63640022	2.89400005	200	0	0
-8.42000008	6.63609982	2.86500001	200	0	0
-8.42399979	6.63640022	2.90899992	200	0	0
-8.42099953	6.63640022	2.93799996	200	0	0
-8.42599964	6.63640022	2.92400002	200	0	0
-8.43599987	6.63630009	2.98300004	200	0	0
-8.43599987	6.63630009	2.89499998	200	0	0
-8.42599964	6.63630009	2.96799994	200	0	0
-8.43599987	6.63630009	2.90899992	200	0	0
-8.43599987	6.63619995	2.89499998	200	0	0
-8.43200016	6.63630009	2.92400002	200	0	0
-8.42000008	6.63609982	2.89400005	200	0	0
-8.44900036	6.63630009	2.94000006	200	0	0
-8.43299961	6.63609982	2.98300004	200	0	0
-8.42599964	6.63619995	2.92400002	200	0	0
-8.42599964	6.63619995	2.93799996	200	0	0
-8.43799973	6.63609982	2.96799994	200	0	0
-8.43700027	6.63609982	2.92400002	200	0	0
-8.43000031	6.63609982	2.93899989	200	0	0
-8.36299992	6.63609982	3.0079999	200	0	0
-8.35999966	6.63599968	3.0079999	200	0	0
-8.36100006	6.63590097	3.03699994	200	0	0
-8.3579998	6.63580036	3.03699994	200	0	0
-8.42000008	6.63490009	2.76200008	200	0	0
-8.42399979	6.63500023	2.77699995	200	0	0
-8.43299961	6.63439989	2.76399994	200	0	0
-8.43000031	6.63500023	2.79099989	200	0	0
-8.44799995	6.63419962	2.79399991	200	0	0
-8.4289999	6.63439989	2.79299998	200	0	0
-8.42300034	6.63640022	2.83500004	200	0	0
-8.42599964	6.63609982	2.8210001	200	0	0
-8.41499996	6.63580036	2.81999993	200	0	0
-8.42700005	6.63590097	2.8210001	200	0	0
-8.43200016	6.63640022	2.8499999	200	0	0
-8.43099976	6.63609982	2.83599997	200	0	0
-8.42300034	6.63599968	2.83500004	200	0	0
-8.42500019	6.63640022	2.86500001	200	0	0
-8.43400002	6.63619995	2.8499999	200	0	0
-8.42199993	6.63630009	2.86500001	200	0	0
-8.43299961	6.63549995	2.76200008	200	0	0
-8.43500042	6.63570023	2.77699995	200	0	0
-8.44200039	6.63570023	2.79200006	200	0	0
-8.43400002	6.63549995	2.77699995	200	0	0
-8.35299969	6.63650084	3.06599998	200	0	0
-8.35599995	6.63650084	3.05100012	200	0	0
-8.35700035	6.63650084	3.03699994	200	0	0
-8.35599995	6.63640022	3.05100012	200	0	0
-8.35299969	6.63630009	3.05100012	200	0	0
-8.35900021	6.63640022	3.03699994	200	0	0
-8.35200024	6.63619995	3.05100012	200	0	0
-8.3579998	6.63630009	3.03699994	200	0	0
-8.35700035	6.63609982	3.05100012	200	0	0
-8.35400009	6.63580036	3.05100012	200	0	0
-8.35599995	6.63599968	3.05100012	200	0	0
-8.35999966	6.63590097	3.05200005	200	0	0
-8.35700035	6.63619995	3.03699994	200	0	0
-8.35999966	6.63630009	3.0079999	200	0	0
-8.35499954	6.63609982	3.03699994	200	0	0
-8.35900021	6.63599968	3.03699994	200	0	0
-8.42300034	6.63640022	2.76200008	200	0	0
-8.42599964	6.63640022	2.77699995	200	0	0
-8.43000031	6.63570023	2.76200008	200	0	0
-8.42500019	6.63580036	2.76200008	200	0	0
-8.4289999	6.63640022	2.79099989	200	0	0
-8.43200016	6.63580036	2.77699995	200	0	0
-8.41699982	6.63640022	2.81999993	200	0	0
-8.43200016	6.63469982	2.74900007	200	0	0
-8.44200039	6.63500023	2.74799991	200	0	0
-8.43000031	6.63490009	2.74699998	200	0	0
-8.42300034	6.63640022	2.74699998	200	0	0
-8.42500019	6.63640022	2.71799994	200	0	0
-8.42300034	6.63640022	2.70300007	200	0	0
-8.35499954	6.63650084	2.68700004	200	0	0
-8.35400009	6.63650084	2.67199993	200	0	0
-8.35900021	6.63650084	2.62899995	200	0	0
-8.35700035	6.63650084	2.64299989	200	0	0
-8.35900021	6.63650084	2.5999999	200	0	0
-8.35499954	6.63650084	2.61400008	200	0	0
-8.36400032	6.63650084	2.54099989	200	0	0
-8.36299992	6.63650084	2.55599999	200	0	0
-8.35599995	6.63650084	2.56999993	200	0	0
-8.3579998	6.63650084	2.52699995	200	0	0
-8.36299992	6.63650084	2.454	200	0	0
-8.35999966	6.63650084	2.4690001	200	0	0
-8.36200047	6.63650084	2.48300004	200	0	0
-8.3579998	6.63650084	2.49799991	200	0	0
-8.36499977	6.63650084	2.38100004	200	0	0
-8.3579998	6.63650084	2.39599991	200	0	0
-8.36400032	6.63650084	2.41000009	200	0	0
-8.36900043	6.63650084	2.42499995	200	0	0
-8.35900021	6.63650084	2.30800009	200	0	0
-8.36299992	6.63650084	2.32299995	200	0	0
-8.36200047	6.63650084	2.33699989	200	0	0
-8.36100006	6.63650084	2.352	200	0	0
-8.36400032	6.63650084	2.2349999	200	0	0
-8.36499977	6.63650084	2.25	200	0	0
-8.36400032	6.63650084	2.2650001	200	0	0
-8.35999966	6.63650084	2.27900004	200	0	0
-8.36200047	6.63650084	2.16300011	200	0	0
-8.36499977	6.63650084	2.17700005	200	0	0
-8.36100006	6.63650084	2.19199991	200	0	0
-8.36200047	6.63650084	2.20600009	200	0	0
-8.36400032	6.63650084	2.08899999	200	0	0
-8.36900043	6.63650084	2.10400009	200	0	0
-8.36400032	6.63650084	2.11899996	200	0	0
-8.36400032	6.63650084	2.1329999	200	0	0
-8.36800003	6.63650084	2.01600003	200	0	0
-8.36600018	6.63650084	2.0309999	200	0	0
-8.36699963	6.63650084	2.046	200	0	0
-8.36600018	6.63650084	2.05999994	200	0	0
-8.36600018	6.63650084	1.94299996	200	0	0
-8.37199974	6.63650084	1.95700002	200	0	0
-8.36100006	6.63650084	1.97300005	200	0	0
-8.36600018	6.63650084	1.98699999	200	0	0
-8.36100006	6.63650084	1.91400003	200	0	0
-8.41399956	6.63640022	1.83700001	200	0	0
-8.44299984	6.63549995	1.80499995	200	0	0
-8.44099998	6.63549995	1.82000005	200	0	0
-8.43099976	6.63590097	1.76199996	200	0	0
-8.43900013	6.63570023	1.82000005	200	0	0
-8.41100025	6.63640022	1.76300001	200	0	0
-8.43900013	6.63580036	1.82000005	200	0	0
-8.41699982	6.63599968	1.79299998	200	0	0
-8.4119997	6.63640022	1.79299998	200	0	0
-8.41600037	6.63630009	1.80700004	200	0	0
-8.42199993	6.63640022	1.80700004	200	0	0
-8.41399956	6.63640022	1.82200003	200	0	0
-8.42700005	6.63590097	1.71800005	200	0	0
-8.42199993	6.63609982	1.73300004	200	0	0
-8.45300007	6.63549995	1.71500003	200	0	0
-8.43700027	6.63570023	1.71700001	200	0	0
-8.44099998	6.63590097	1.73099995	200	0	0
-8.4289999	6.63549995	1.73199999	200	0	0
-8.43299961	6.63590097	1.74699998	200	0	0
-8.42099953	6.63570023	1.74800003	200	0	0
-8.43500042	6.63560009	1.74699998	200	0	0
-8.43999958	6.63549995	1.74600005	200	0	0
-8.44099998	6.63570023	1.76100004	200	0	0
-8.43599987	6.63560009	1.76100004	200	0	0
-8.43999958	6.63630009	1.67200005	200	0	0
-8.43599987	6.63560009	1.67200005	200	0	0
-8.44400024	6.63609982	1.67200005	200	0	0
-8.44499969	6.63580036	1.67200005	200	0	0
-8.45800018	6.63549995	1.68499994	200	0	0
-8.43400002	6.63560009	1.68799996	200	0	0
-8.43200016	6.63570023	1.68799996	200	0	0
-8.43799973	6.63590097	1.68700004	200	0	0
-8.42099953	6.63609982	1.71800005	200	0	0
-8.4460001	6.63549995	1.64199996	200	0	0
-8.45499992	6.63560009	1.64100003	200	0	0
-8.44099998	6.63630009	1.64199996	200	0	0
-8.46399975	6.63549995	1.65499997	200	0	0
-8.45100021	6.63570023	1.64100003	200	0	0
-8.4289999	6.63619995	1.64300001	200	0	0
-8.44499969	6.63599968	1.64199996	200	0	0
-8.44099998	6.63580036	1.64199996	200	0	0
-8.42700005	6.63609982	1.64400005	200	0	0
-8.45199966	6.63560009	1.65600002	200	0	0
-8.42800045	6.63630009	1.65799999	200	0	0
-8.45800018	6.63549995	1.66999996	200	0	0
-8.44900036	6.63609982	1.65600002	200	0	0
-8.43299961	6.63619995	1.65799999	200	0	0
-8.4460001	6.63570023	1.65699995	200	0	0
-8.44799995	6.63580036	1.65600002	200	0	0
-8.43400002	6.63590097	1.65799999	200	0	0
-8.45400047	6.63570023	1.59599996	200	0	0
-8.45600033	6.63560009	1.61099994	200	0	0
-8.44299984	6.63599968	1.58299994	200	0	0
-8.45699978	6.63580036	1.59599996	200	0	0
-8.44099998	6.63609982	1.58299994	200	0	0
-8.44299984	6.63619995	1.58299994	200	0	0
-8.43700027	6.63630009	1.58299994	200	0	0
-8.44400024	6.63570023	1.61199999	200	0	0
-8.44900036	6.63599968	1.597	200	0	0
-8.44900036	6.63609982	1.597	200	0	0
-8.44099998	6.63580036	1.61300004	200	0	0
-8.43500042	6.63619995	1.59800005	200	0	0
-8.44200039	6.63590097	1.61199999	200	0	0
-8.43799973	6.63599968	1.61300004	200	0	0
-8.44400024	6.63609982	1.61199999	200	0	0
-8.45300007	6.63619995	1.61099994	200	0	0
-8.43099976	6.63630009	1.61399996	200	0	0
-8.46399975	6.63580036	1.58000004	200	0	0
-8.45400047	6.63590097	1.58099997	200	0	0
-8.46199989	6.63570023	1.58099997	200	0	0
-8.46199989	6.63549995	1.58099997	200	0	0
-8.46000004	6.63560009	1.58099997	200	0	0
-8.46199989	6.63549995	1.59599996	200	0	0
-8.4460001	6.63560009	1.597	200	0	0
-8.45300007	6.63549995	1.61099994	200	0	0
-8.44900036	6.63609982	1.56700003	200	0	0
-8.45400047	6.63599968	1.56700003	200	0	0
-8.46100044	6.63590097	1.56599998	200	0	0
-8.44900036	6.63509989	1.56700003	200	0	0
-8.45499992	6.63580036	1.56700003	200	0	0
-8.45100021	6.63570023	1.56700003	200	0	0
-8.45699978	6.63549995	1.56599998	200	0	0
-8.45400047	6.63560009	1.56700003	200	0	0
-8.44099998	6.63619995	1.56799996	200	0	0
-8.45499992	6.63630009	1.56599998	200	0	0
-8.46000004	6.63609982	1.50600004	200	0	0
-8.4460001	6.63509989	1.523	200	0	0
-8.44699955	6.63630009	1.523	200	0	0
-8.45400047	6.63599968	1.50699997	200	0	0
-8.46199989	6.63549995	1.50600004	200	0	0
-8.45600033	6.63590097	1.50699997	200	0	0
-8.46500015	6.63560009	1.50600004	200	0	0
-8.46199989	6.63580036	1.50600004	200	0	0
-8.45800018	6.63570023	1.50699997	200	0	0
-8.44499969	6.63619995	1.523	200	0	0
-8.45899963	6.63509989	1.53600001	200	0	0
-8.44799995	6.63630009	1.53699994	200	0	0
-8.44900036	6.63609982	1.52199996	200	0	0
-8.45699978	6.63599968	1.52199996	200	0	0
-8.46000004	6.63549995	1.52100003	200	0	0
-8.45800018	6.63590097	1.52100003	200	0	0
-8.45100021	6.63619995	1.53699994	200	0	0
-8.46100044	6.63580036	1.52100003	200	0	0
-8.4630003	6.63570023	1.52100003	200	0	0
-8.45199966	6.63560009	1.52199996	200	0	0
-8.45499992	6.63609982	1.53699994	200	0	0
-8.45100021	6.63599968	1.53699994	200	0	0
-8.45600033	6.63549995	1.53699994	200	0	0
-8.44699955	6.63590097	1.53799999	200	0	0
-8.45600033	6.63560009	1.53699994	200	0	0
-8.45499992	6.63580036	1.53699994	200	0	0
-8.45100021	6.63570023	1.53699994	200	0	0
-8.46199989	6.63570023	1.49100006	200	0	0
-8.47000027	6.63609982	1.49000001	200	0	0
-8.45100021	6.63630009	1.49199998	200	0	0
-8.46199989	6.63590097	1.49100006	200	0	0
-8.45699978	6.63580036	1.49199998	200	0	0
-8.45300007	6.63619995	1.49199998	200	0	0
-8.44999981	6.63599968	1.49199998	200	0	0
-8.45300007	6.63630009	1.50699997	200	0	0
-8.44999981	6.63619995	1.50699997	200	0	0
-8.45899963	6.63549995	1.49100006	200	0	0
-8.4630003	6.63560009	1.49100006	200	0	0
-8.45800018	6.63509989	1.50699997	200	0	0
-8.45600033	6.63509989	1.49199998	200	0	0
-8.46100044	6.63500023	1.50600004	200	0	0
-8.46199989	6.63429976	1.61199999	200	0	0
-8.46100044	6.63500023	1.49100006	200	0	0
-8.46399975	6.63570023	1.41600001	200	0	0
-8.46500015	6.63549995	1.43099999	200	0	0
-8.46700001	6.63580036	1.41600001	200	0	0
-8.46100044	6.63590097	1.41600001	200	0	0
-8.45899963	6.63630009	1.41700006	200	0	0
-8.4630003	6.63619995	1.41600001	200	0	0
-8.46199989	6.63560009	1.43099999	200	0	0
-8.45800018	6.63599968	1.41700006	200	0	0
-8.45699978	6.63609982	1.41700006	200	0	0
-8.46399975	6.63570023	1.43099999	200	0	0
-8.4630003	6.63549995	1.44599998	200	0	0
-8.46100044	6.63580036	1.43099999	200	0	0
-8.4630003	6.63630009	1.43099999	200	0	0
-8.46199989	6.63590097	1.43099999	200	0	0
-8.45800018	6.63560009	1.44700003	200	0	0
-8.46399975	6.63599968	1.43099999	200	0	0
-8.46500015	6.63549995	1.46099997	200	0	0
-8.46199989	6.63609982	1.43099999	200	0	0
-8.45699978	6.63619995	1.43200004	200	0	0
-8.46100044	6.63570023	1.44599998	200	0	0
-8.45899963	6.63560009	1.46200001	200	0	0
-8.46000004	6.63580036	1.44700003	200	0	0
-8.4659996	6.63590097	1.44599998	200	0	0
-8.45199966	6.63630009	1.44700003	200	0	0
-8.46399975	6.63599968	1.44599998	200	0	0
-8.46100044	6.63609982	1.44599998	200	0	0
-8.44999981	6.63619995	1.44799995	200	0	0
-8.45600033	6.63570023	1.46200001	200	0	0
-8.45699978	6.63580036	1.46200001	200	0	0
-8.44099998	6.63630009	1.46399999	200	0	0
-8.45300007	6.63590097	1.46200001	200	0	0
-8.46399975	6.63599968	1.46099997	200	0	0
-8.46199989	6.63619995	1.46099997	200	0	0
-8.44499969	6.63609982	1.46300006	200	0	0
-8.4659996	6.63439989	1.46200001	200	0	0
-8.4630003	6.63509989	1.43099999	200	0	0
-8.47799969	6.63479996	1.44599998	200	0	0
-8.4829998	6.63479996	1.46000004	200	0	0
-8.45699978	6.63500023	1.44700003	200	0	0
-8.45600033	6.63509989	1.44700003	200	0	0
-8.45499992	6.63500023	1.46200001	200	0	0
-8.44900036	6.63509989	1.46300006	200	0	0
-8.46399975	6.63560009	1.41600001	200	0	0
-8.46100044	6.63509989	1.41600001	200	0	0
-8.46500015	6.63549995	1.41600001	200	0	0
-8.47700024	6.63479996	1.43099999	200	0	0
-8.47700024	6.63479996	1.41600001	200	0	0
-8.46199989	6.63429976	1.43299997	200	0	0
-8.43700027	6.63419962	1.46599996	200	0	0
-8.44099998	6.63429976	1.68799996	200	0	0
-8.44499969	6.63419962	1.67299998	200	0	0
-8.4659996	6.63429976	1.671	200	0	0
-8.46500015	6.63509989	1.34099996	200	0	0
-8.4630003	6.63630009	1.34099996	200	0	0
-8.46100044	6.63619995	1.34099996	200	0	0
-8.46199989	6.63609982	1.34099996	200	0	0
-8.4630003	6.63509989	1.35599995	200	0	0
-8.46000004	6.63630009	1.35699999	200	0	0
-8.4659996	6.63599968	1.34099996	200	0	0
-8.46100044	6.63619995	1.35599995	200	0	0
-8.46800041	6.63549995	1.34099996	200	0	0
-8.46500015	6.63590097	1.34099996	200	0	0
-8.46800041	6.63560009	1.34099996	200	0	0
-8.46700001	6.63580036	1.34099996	200	0	0
-8.4630003	6.63509989	1.37100005	200	0	0
-8.46399975	6.63570023	1.34099996	200	0	0
-8.45699978	6.63630009	1.37199998	200	0	0
-8.46399975	6.63609982	1.35599995	200	0	0
-8.45300007	6.63630009	1.38699996	200	0	0
-8.46100044	6.63509989	1.38600004	200	0	0
-8.4630003	6.63599968	1.35599995	200	0	0
-8.46000004	6.63619995	1.37199998	200	0	0
-8.4659996	6.63549995	1.35599995	200	0	0
-8.46500015	6.63590097	1.35599995	200	0	0
-8.4659996	6.63560009	1.35599995	200	0	0
-8.46399975	6.63580036	1.35599995	200	0	0
-8.4630003	6.63570023	1.35599995	200	0	0
-8.46000004	6.63609982	1.37199998	200	0	0
-8.46100044	6.63619995	1.38600004	200	0	0
-8.46399975	6.63599968	1.37100005	200	0	0
-8.46199989	6.63609982	1.38600004	200	0	0
-8.4630003	6.63549995	1.37100005	200	0	0
-8.45899963	6.63590097	1.37199998	200	0	0
-8.45899963	6.63580036	1.37199998	200	0	0
-8.46199989	6.63570023	1.37100005	200	0	0
-8.45899963	6.63599968	1.38699996	200	0	0
-8.46100044	6.63590097	1.38600004	200	0	0
-8.4630003	6.63549995	1.38600004	200	0	0
-8.46100044	6.63580036	1.38600004	200	0	0
-8.4630003	6.63560009	1.38600004	200	0	0
-8.46500015	6.63570023	1.38600004	200	0	0
-8.43999958	6.63419962	1.39100003	200	0	0
-8.44200039	6.63419962	1.41999996	200	0	0
-8.43999958	6.63419962	1.76300001	200	0	0
-8.43200016	6.63429976	1.76300001	200	0	0
-8.44299984	6.63419962	1.74800003	200	0	0
-8.43900013	6.63429976	1.74800003	200	0	0
-8.46100044	6.63429976	1.71599996	200	0	0
-8.45100021	6.63419962	1.71700001	200	0	0
-8.47200012	6.63450003	1.26600003	200	0	0
-8.46500015	6.63570023	1.26600003	200	0	0
-8.46100044	6.63599968	1.31099999	200	0	0
-8.46199989	6.63580036	1.28100002	200	0	0
-8.4659996	6.63560009	1.26600003	200	0	0
-8.4630003	6.63590097	1.31099999	200	0	0
-8.47200012	6.63450003	1.28100002	200	0	0
-8.46700001	6.63549995	1.26600003	200	0	0
-8.46399975	6.63570023	1.28100002	200	0	0
-8.46700001	6.63580036	1.296	200	0	0
-8.46700001	6.63560009	1.28100002	200	0	0
-8.4659996	6.63580036	1.31099999	200	0	0
-8.43900013	6.63509989	1.26999998	200	0	0
-8.47299957	6.63450003	1.296	200	0	0
-8.4630003	6.63570023	1.296	200	0	0
-8.46800041	6.63549995	1.27999997	200	0	0
-8.46700001	6.63560009	1.296	200	0	0
-8.4630003	6.63570023	1.31099999	200	0	0
-8.47500038	6.63549995	1.29400003	200	0	0
-8.44400024	6.63509989	1.28400004	200	0	0
-8.46700001	6.63560009	1.31099999	200	0	0
-8.47200012	6.63549995	1.30999994	200	0	0
-8.44299984	6.63509989	1.29900002	200	0	0
-8.46100044	6.63509989	1.31099999	200	0	0
-8.46500015	6.63580036	1.26600003	200	0	0
-8.46500015	6.63590097	1.26600003	200	0	0
-8.46500015	6.63630009	1.26600003	200	0	0
-8.47799969	6.63630009	1.27900004	200	0	0
-8.46800041	6.63599968	1.29499996	200	0	0
-8.46500015	6.63609982	1.296	200	0	0
-8.46399975	6.63630009	1.296	200	0	0
-8.46000004	6.63609982	1.31200004	200	0	0
-8.46100044	6.63619995	1.31099999	200	0	0
-8.46000004	6.63630009	1.31200004	200	0	0
-8.44200039	6.63419962	1.83599997	200	0	0
-8.45199966	6.63419962	1.82099998	200	0	0
-8.44499969	6.63419962	1.80700004	200	0	0
-8.44400024	6.63419962	1.79200006	200	0	0
-8.44999981	6.63509989	1.22300005	200	0	0
-8.46500015	6.63509989	1.23599994	200	0	0
-8.46700001	6.63469982	1.222	200	0	0
-8.46700001	6.63469982	1.23699999	200	0	0
-8.46000004	6.63630009	1.23599994	200	0	0
-8.45699978	6.63549995	1.20700002	200	0	0
-8.45199966	6.63560009	1.20700002	200	0	0
-8.4659996	6.63599968	1.22000003	200	0	0
-8.43799973	6.63549995	1.22500002	200	0	0
-8.46500015	6.63590097	1.22099996	200	0	0
-8.4659996	6.63560009	1.22000003	200	0	0
-8.46199989	6.63580036	1.22099996	200	0	0
-8.46500015	6.63570023	1.22099996	200	0	0
-8.46800041	6.63549995	1.23500001	200	0	0
-8.4659996	6.63590097	1.23500001	200	0	0
-8.4659996	6.63560009	1.23500001	200	0	0
-8.46500015	6.63580036	1.23599994	200	0	0
-8.46500015	6.63570023	1.23599994	200	0	0
-8.34700012	6.63539982	1.28299999	200	0	0
-8.37199974	6.63650084	1.20500004	200	0	0
-8.3739996	6.63570023	1.15999997	200	0	0
-8.38300037	6.63580036	1.15799999	200	0	0
-8.3760004	6.63580036	1.17400002	200	0	0
-8.38899994	6.63590097	1.17200005	200	0	0
-8.3739996	6.63560009	1.14499998	200	0	0
-8.38000011	6.63619995	1.17400002	200	0	0
-8.38099957	6.63609982	1.15900004	200	0	0
-8.37899971	6.63580036	1.14400005	200	0	0
-8.37699986	6.63570023	1.14400005	200	0	0
-8.3760004	6.63609982	1.17400002	200	0	0
-8.38000011	6.63599968	1.15900004	200	0	0
-8.3760004	6.63590097	1.15900004	200	0	0
-8.34300041	6.63520002	1.22399998	200	0	0
-8.33699989	6.63539982	1.37300003	200	0	0
-8.34000015	6.63530111	1.35800004	200	0	0
-8.34799957	6.63539982	1.35699999	200	0	0
-8.34399986	6.63539982	1.32799995	200	0	0
-8.34000015	6.63539982	1.31299996	200	0	0
-8.34200001	6.63539982	1.29799998	200	0	0
-8.37899971	6.63590097	1.12899995	200	0	0
-8.375	6.63599968	1.12899995	200	0	0
-8.375	6.63609982	1.12899995	200	0	0
-8.37899971	6.63590097	1.14400005	200	0	0
-8.37899971	6.63619995	1.12899995	200	0	0
