-3.87700009	6.78310013	4.22800016	200	0	0
-3.85500002	6.78280067	4.1789999	200	0	0
-3.8599999	6.78289986	4.18900013	200	0	0
-3.84599996	6.7823	4.15999985	200	0	0
-3.8440001	6.78219986	4.15999985	200	0	0
-3.85500002	6.78249979	4.16499996	200	0	0
-3.86899996	6.78299999	4.20900011	200	0	0
-3.852	6.78240013	4.16300011	200	0	0
-3.85800004	6.78270006	4.18100023	200	0	0
-3.86400008	6.78280067	4.19099998	200	0	0
-3.87199998	6.78299999	4.22700024	200	0	0
-3.88400006	6.78299999	4.24100018	200	0	0
-3.85299993	6.78259993	4.1789999	200	0	0
-3.85800004	6.78270006	4.18900013	200	0	0
-3.84200001	6.78219986	4.17500019	200	0	0
-3.84599996	6.7823	4.17600012	200	0	0
-3.85500002	6.78249979	4.17999983	200	0	0
-3.86100006	6.78280067	4.20599985	200	0	0
-3.85299993	6.78240013	4.17999983	200	0	0
-3.86500001	6.78259993	4.19299984	200	0	0
-3.85500002	6.78249979	4.1880002	200	0	0
-3.84599996	6.78219986	4.18400002	200	0	0
-3.85599995	6.78270006	4.20499992	200	0	0
-3.85100007	6.78240013	4.1869998	200	0	0
-3.86400008	6.78280067	4.22300005	200	0	0
-3.8499999	6.7823	4.18599987	200	0	0
-3.86599994	6.78280067	4.23199987	200	0	0
-3.85400009	6.78259993	4.204	200	0	0
-3.852	6.78249979	4.20300007	200	0	0
-3.84100008	6.78219986	4.19799995	200	0	0
-3.86599994	6.78270006	4.2249999	200	0	0
-3.84200001	6.7823	4.19899988	200	0	0
-3.86599994	6.78270006	4.23400021	200	0	0
-3.85700011	6.78240013	4.20499992	200	0	0
-3.8599999	6.78259993	4.22300005	200	0	0
-3.85400009	6.78259993	4.22800016	200	0	0
-3.84899998	6.78249979	4.21799994	200	0	0
-3.84299994	6.78249979	4.22300005	200	0	0
-3.83999991	6.78219986	4.21400023	200	0	0
-3.84599996	6.7823	4.21600008	200	0	0
-3.85100007	6.78240013	4.21899986	200	0	0
-3.85299993	6.78240013	4.22800016	200	0	0
-3.84899998	6.7823	4.22599983	200	0	0
-3.852	6.78219986	4.22800016	200	0	0
-3.84599996	6.7823	4.24100018	200	0	0
-3.86400008	6.78219986	4.24900007	200	0	0
-3.8829999	6.78349972	4.21400023	200	0	0
-3.84599996	6.78219986	4.08099985	200	0	0
-3.85400009	6.78249979	4.06899977	200	0	0
-3.87599993	6.78340101	4.22700024	200	0	0
-3.85500002	6.78259993	4.06899977	200	0	0
-3.86100006	6.78289986	4.0710001	200	0	0
-3.85899997	6.78280067	4.07000017	200	0	0
-3.88199997	6.7833004	4.23000002	200	0	0
-3.85899997	6.78270006	4.0710001	200	0	0
-3.88100004	6.78349972	4.19700003	200	0	0
-3.88100004	6.78320026	4.09399986	200	0	0
-3.852	6.7823	4.08400011	200	0	0
-3.87899995	6.78340101	4.21299982	200	0	0
-3.8499999	6.78240013	4.08300018	200	0	0
-3.87700009	6.7833004	4.10699987	200	0	0
-3.87800002	6.78310013	4.09200001	200	0	0
-3.84299994	6.78219986	4.09600019	200	0	0
-3.87700009	6.78320026	4.22800016	200	0	0
-3.88400006	6.7833004	4.21500015	200	0	0
-3.84899998	6.78249979	4.08300018	200	0	0
-3.85400009	6.78280067	4.08300018	200	0	0
-3.88499999	6.78340101	4.19099998	200	0	0
-3.8599999	6.78289986	4.08599997	200	0	0
-3.8440001	6.7823	4.09600019	200	0	0
-3.87599993	6.78340101	4.19500017	200	0	0
-3.85800004	6.78259993	4.08599997	200	0	0
-3.875	6.78320026	4.10699987	200	0	0
-3.84699988	6.78219986	4.10500002	200	0	0
-3.88800001	6.7833004	4.19999981	200	0	0
-3.86400008	6.78270006	4.08900023	200	0	0
-3.88000011	6.78320026	4.1170001	200	0	0
-3.84899998	6.78240013	4.09800005	200	0	0
-3.87700009	6.78320026	4.21199989	200	0	0
-3.88400006	6.7833004	4.19099998	200	0	0
-3.84699988	6.7823	4.10500002	200	0	0
-3.84800005	6.78249979	4.09800005	200	0	0
-3.84800005	6.78219986	4.12099981	200	0	0
-3.85100007	6.78259993	4.09899998	200	0	0
-3.88100004	6.7833004	4.15700006	200	0	0
-3.88700008	6.78320026	4.19199991	200	0	0
-3.85700011	6.78280067	4.0999999	200	0	0
-3.87899995	6.78320026	4.19700003	200	0	0
-3.86500001	6.78289986	4.10400009	200	0	0
-3.84500003	6.78249979	4.10500002	200	0	0
-3.85700011	6.78240013	4.11000013	200	0	0
-3.8599999	6.78270006	4.10300016	200	0	0
-3.86999989	6.78299999	4.11399984	200	0	0
-3.84599996	6.7823	4.12099981	200	0	0
-3.84200001	6.78219986	4.13500023	200	0	0
-3.88499999	6.78320026	4.15899992	200	0	0
-3.86199999	6.78289986	4.11000013	200	0	0
-3.88000011	6.78310013	4.19700003	200	0	0
-3.85599995	6.78280067	4.1079998	200	0	0
-3.85400009	6.78259993	4.1079998	200	0	0
-3.88199997	6.78310013	4.13399982	200	0	0
-3.88199997	6.78310013	4.19000006	200	0	0
-3.875	6.78320026	4.17000008	200	0	0
-3.84800005	6.78219986	4.14599991	200	0	0
-3.86599994	6.78270006	4.11299992	200	0	0
-3.84899998	6.78240013	4.12200022	200	0	0
-3.84899998	6.7823	4.13800001	200	0	0
-3.852	6.78249979	4.12300014	200	0	0
-3.875	6.78310013	4.17000008	200	0	0
-3.85800004	6.78289986	4.125	200	0	0
-3.852	6.7823	4.14699984	200	0	0
-3.85299993	6.78280067	4.12300014	200	0	0
-3.88100004	6.78299999	4.1500001	200	0	0
-3.84699988	6.78240013	4.13700008	200	0	0
-3.87199998	6.78299999	4.18599987	200	0	0
-3.85500002	6.78259993	4.125	200	0	0
-3.85800004	6.78270006	4.12599993	200	0	0
-3.85500002	6.78240013	4.14799976	200	0	0
-3.85299993	6.78249979	4.13999987	200	0	0
-3.85299993	6.78249979	4.14699984	200	0	0
-3.8599999	6.78289986	4.14900017	200	0	0
-3.85899997	6.78280067	4.14099979	200	0	0
-3.86199999	6.78259993	4.14300013	200	0	0
-3.86599994	6.78289986	4.16800022	200	0	0
-3.85700011	6.78270006	4.14099979	200	0	0
-3.86500001	6.78280067	4.15100002	200	0	0
-3.85899997	6.78259993	4.1500001	200	0	0
-3.86100006	6.78270006	4.15100002	200	0	0
-3.86299992	6.78280067	4.16599989	200	0	0
-3.8900001	6.78390026	4.15999985	200	0	0
-3.88199997	6.78390026	4.22900009	200	0	0
-3.898	6.78390026	4.1789999	200	0	0
-3.88700008	6.78390026	4.21500015	200	0	0
-3.88899994	6.78390026	4.19199991	200	0	0
-3.88599992	6.78390026	4.19899988	200	0	0
-3.88199997	6.78380013	4.23000002	200	0	0
-3.88499999	6.78380013	4.21500015	200	0	0
-3.89100003	6.78380013	4.19399977	200	0	0
-3.8829999	6.78380013	4.19799995	200	0	0
-3.8829999	6.78369999	4.23099995	200	0	0
-3.88499999	6.78369999	4.21500015	200	0	0
-3.88000011	6.78359985	4.21299982	200	0	0
-3.8829999	6.78359985	4.19799995	200	0	0
-3.87899995	6.78349972	4.22900009	200	0	0
-3.8499999	6.78240013	4.06699991	200	0	0
-3.89199996	6.78400087	4.19299984	200	0	0
-3.89199996	6.78400087	4.20100021	200	0	0
-3.898	6.78400087	4.23600006	200	0	0
-3.8900001	6.78400087	4.21700001	200	0	0
-3.84299994	6.78219986	4.06400013	200	0	0
-3.852	6.7823	4.06799984	200	0	0
-3.89199996	6.78409958	4.13600016	200	0	0
-3.89499998	6.78439999	4.17700005	200	0	0
-3.8900001	6.78429985	4.15899992	200	0	0
-3.90499997	6.78439999	4.23899984	200	0	0
-3.88499999	6.78400087	4.13399982	200	0	0
-3.89299989	6.78419971	4.15299988	200	0	0
-3.8900001	6.78439999	4.19099998	200	0	0
-3.89899993	6.78439999	4.21999979	200	0	0
-3.8900001	6.78439999	4.19999981	200	0	0
-3.88700008	6.78429985	4.17399979	200	0	0
-3.89499998	6.78419971	4.16099977	200	0	0
-3.88599992	6.78409958	4.14900017	200	0	0
-3.88800001	6.78380013	4.13600016	200	0	0
-3.89100003	6.78429985	4.19199991	200	0	0
-3.89199996	6.78429985	4.19999981	200	0	0
-3.8900001	6.78409958	4.15899992	200	0	0
-3.88599992	6.78419971	4.17299986	200	0	0
-3.89499998	6.78429985	4.21799994	200	0	0
-3.91199994	6.78419971	4.2420001	200	0	0
-3.89299989	6.78400087	4.15299988	200	0	0
-3.88199997	6.78390026	4.14799976	200	0	0
-3.88899994	6.78400087	4.15899992	200	0	0
-3.89400005	6.78419971	4.19299984	200	0	0
-3.89700007	6.78419971	4.20300007	200	0	0
-3.88899994	6.78409958	4.17500019	200	0	0
-3.88899994	6.78419971	4.21500015	200	0	0
-3.89499998	6.78409958	4.19399977	200	0	0
-3.88800001	6.78400087	4.17500019	200	0	0
-3.88899994	6.78409958	4.23199987	200	0	0
-3.88899994	6.78409958	4.19899988	200	0	0
-3.88700008	6.78409958	4.21400023	200	0	0
-3.852	6.78259993	3.99000001	200	0	0
-3.87700009	6.78310013	4.05200005	200	0	0
-3.85800004	6.78280067	4.00699997	200	0	0
-3.852	6.78249979	3.99000001	200	0	0
-3.8670001	6.78299999	4.03399992	200	0	0
-3.8499999	6.78240013	3.98900008	200	0	0
-3.84699988	6.7823	3.98799992	200	0	0
-3.84800005	6.78219986	3.98900008	200	0	0
-3.86500001	6.78289986	4.0250001	200	0	0
-3.875	6.78299999	4.05299997	200	0	0
-3.85800004	6.78270006	4.0079999	200	0	0
-3.8670001	6.78289986	4.03399992	200	0	0
-3.85100007	6.78259993	4.00500011	200	0	0
-3.8599999	6.78280067	4.02299976	200	0	0
-3.86899996	6.78299999	4.06599998	200	0	0
-3.84899998	6.78249979	4.00400019	200	0	0
-3.84800005	6.78240013	4.00400019	200	0	0
-3.8599999	6.78280067	4.03100014	200	0	0
-3.85899997	6.78289986	4.046	200	0	0
-3.84500003	6.7823	4.00299978	200	0	0
-3.84699988	6.78219986	4.00299978	200	0	0
-3.8599999	6.78270006	4.02400017	200	0	0
-3.86500001	6.78289986	4.06400013	200	0	0
-3.85100007	6.78259993	4.01999998	200	0	0
-3.85599995	6.78270006	4.03000021	200	0	0
-3.86100006	6.78280067	4.04699993	200	0	0
-3.85100007	6.78249979	4.02099991	200	0	0
-3.85599995	6.78259993	4.03000021	200	0	0
-3.84699988	6.78240013	4.01900005	200	0	0
-3.85800004	6.78280067	4.0619998	200	0	0
-3.84500003	6.78219986	4.01800013	200	0	0
-3.84899998	6.7823	4.01999998	200	0	0
-3.85599995	6.78270006	4.046	200	0	0
-3.85400009	6.78249979	4.03000021	200	0	0
-3.85100007	6.78240013	4.02799988	200	0	0
-3.85100007	6.78270006	4.05999994	200	0	0
-3.85299993	6.78259993	4.04500008	200	0	0
-3.8499999	6.7823	4.02799988	200	0	0
-3.84599996	6.78219986	4.02699995	200	0	0
-3.852	6.78249979	4.04400015	200	0	0
-3.85100007	6.78259993	4.05999994	200	0	0
-3.84800005	6.78240013	4.04300022	200	0	0
-3.84699988	6.7823	4.04300022	200	0	0
-3.84500003	6.78219986	4.04199982	200	0	0
-3.8499999	6.78249979	4.05900002	200	0	0
-3.8499999	6.78240013	4.05900002	200	0	0
-3.83999991	6.78219986	4.05499983	200	0	0
-3.84500003	6.7823	4.05700016	200	0	0
-3.88100004	6.78310013	3.99900007	200	0	0
-3.875	6.78299999	3.99000001	200	0	0
-3.84299994	6.78219986	3.97900009	200	0	0
-3.86100006	6.78289986	3.9849999	200	0	0
-3.84299994	6.7823	3.97900009	200	0	0
-3.87899995	6.78320026	4.01399994	200	0	0
-3.8599999	6.78280067	3.98399997	200	0	0
-3.84500003	6.78240013	3.98000002	200	0	0
-3.85100007	6.78270006	3.98200011	200	0	0
-3.87800002	6.78299999	3.99900007	200	0	0
-3.84899998	6.78259993	3.98099995	200	0	0
-3.852	6.78249979	3.98200011	200	0	0
-3.86400008	6.78289986	3.99399996	200	0	0
-3.87800002	6.7833004	4.05200005	200	0	0
-3.88400006	6.78320026	4.03200006	200	0	0
-3.88100004	6.7833004	4.06899977	200	0	0
-3.86199999	6.78280067	3.99300003	200	0	0
-3.88400006	6.78320026	4.03900003	200	0	0
-3.8599999	6.78270006	3.99300003	200	0	0
-3.87800002	6.78299999	4.01499987	200	0	0
-3.87700009	6.78310013	4.02899981	200	0	0
-3.87400007	6.78320026	4.05100012	200	0	0
-3.87700009	6.78320026	4.07600021	200	0	0
-3.8599999	6.78289986	4.00699997	200	0	0
-3.87400007	6.78320026	4.06699991	200	0	0
-3.87899995	6.78310013	3.99000001	200	0	0
-3.88400006	6.78320026	4	200	0	0
-3.87599993	6.78299999	3.9749999	200	0	0
-3.88199997	6.7833004	3.99099994	200	0	0
-3.87199998	6.78320026	3.98799992	200	0	0
-3.88100004	6.7833004	3.99900007	200	0	0
-3.88800001	6.78400087	4.11100006	200	0	0
-3.8900001	6.78439999	4.15899992	200	0	0
-3.89299989	6.78419971	4.13600016	200	0	0
-3.89100003	6.78429985	4.15100002	200	0	0
-3.88199997	6.78380013	4.11000013	200	0	0
-3.89100003	6.78400087	4.12099981	200	0	0
-3.88800001	6.78390026	4.11899996	200	0	0
-3.88800001	6.78409958	4.05499983	200	0	0
-3.88800001	6.78409958	4.0710001	200	0	0
-3.88599992	6.78409958	4.1170001	200	0	0
-3.88499999	6.78369999	4.01599979	200	0	0
-3.89199996	6.78409958	4.11199999	200	0	0
-3.88000011	6.78409958	4.09100008	200	0	0
-3.88800001	6.78400087	4.05600023	200	0	0
-3.87800002	6.78400087	4.06699991	200	0	0
-3.88499999	6.78400087	4.07800007	200	0	0
-3.8829999	6.78400087	4.09299994	200	0	0
-3.89199996	6.78419971	4.07299995	200	0	0
-3.88899994	6.78419971	4.079	200	0	0
-3.88800001	6.78419971	4.09399986	200	0	0
-3.88700008	6.78419971	4.11800003	200	0	0
-3.88800001	6.78419971	4.11000013	200	0	0
-3.89899993	6.78450012	4.08199978	200	0	0
-3.90400004	6.78450012	4.23699999	200	0	0
-3.9059999	6.78479958	4.19700003	200	0	0
-3.90199995	6.78479958	4.12300014	200	0	0
-3.91199994	6.78479958	4.18400002	200	0	0
-3.89499998	6.78429985	4.07399988	200	0	0
-3.89899993	6.78460026	4.09800005	200	0	0
-3.90300012	6.78479958	4.13999987	200	0	0
-3.90100002	6.78460026	4.21999979	200	0	0
-3.90400004	6.78469992	4.20499992	200	0	0
-3.89899993	6.78469992	4.11399984	200	0	0
-3.89899993	6.78439999	4.08300018	200	0	0
-3.90899992	6.78479958	4.15799999	200	0	0
-3.90799999	6.78479958	4.16599989	200	0	0
-3.90400004	6.78469992	4.19700003	200	0	0
-3.90300012	6.78469992	4.12400007	200	0	0
-3.89199996	6.78450012	4.09499979	200	0	0
-3.89599991	6.78429985	4.08199978	200	0	0
-3.91000009	6.78460026	4.20699978	200	0	0
-3.89299989	6.78460026	4.11100006	200	0	0
-3.89700007	6.78450012	4.21799994	200	0	0
-3.9000001	6.78469992	4.13800001	200	0	0
-3.90199995	6.78469992	4.1789999	200	0	0
-3.88899994	6.78439999	4.09499979	200	0	0
-3.90300012	6.78469992	4.15600014	200	0	0
-3.90100002	6.78469992	4.16300011	200	0	0
-3.90300012	6.78460026	4.12400007	200	0	0
-3.9000001	6.78460026	4.19500017	200	0	0
-3.91000009	6.78450012	4.20699978	200	0	0
-3.88899994	6.78429985	4.09499979	200	0	0
-3.9000001	6.78450012	4.11499977	200	0	0
-3.9000001	6.78460026	4.13800001	200	0	0
-3.89700007	6.78460026	4.17700005	200	0	0
-3.90300012	6.78450012	4.12400007	200	0	0
-3.8900001	6.78460026	4.1500001	200	0	0
-3.89899993	6.78460026	4.16200018	200	0	0
-3.89700007	6.78450012	4.19299984	200	0	0
-3.89899993	6.78439999	4.11499977	200	0	0
-3.90700006	6.78450012	4.18200016	200	0	0
-3.89899993	6.78450012	4.13800001	200	0	0
-3.89100003	6.78439999	4.11999989	200	0	0
-3.90300012	6.78450012	4.16400003	200	0	0
-3.89499998	6.78450012	4.15199995	200	0	0
-3.90199995	6.78429985	4.11600018	200	0	0
-3.89199996	6.78429985	4.11999989	200	0	0
-3.89199996	6.78439999	4.13600016	200	0	0
-3.90300012	6.78439999	4.15700006	200	0	0
-3.89299989	6.78429985	4.13600016	200	0	0
-3.91300011	6.78479958	4.20900011	200	0	0
-3.89400005	6.78479958	4.21700001	200	0	0
-3.9059999	6.78489971	4.15700006	200	0	0
-3.90499997	6.78489971	4.16499996	200	0	0
-3.91300011	6.78489971	4.20900011	200	0	0
-3.90499997	6.78489971	4.18100023	200	0	0
-3.90799999	6.78489971	4.19799995	200	0	0
-3.92400002	6.78489971	4.23000002	200	0	0
-3.85100007	6.7823	3.96700001	200	0	0
-3.89599991	6.78439999	4.04199982	200	0	0
-3.8900001	6.78429985	4.03999996	200	0	0
-3.9000001	6.78469992	4.05900002	200	0	0
-3.90499997	6.78499985	4.10099983	200	0	0
-3.90899992	6.78499985	4.16599989	200	0	0
-3.89199996	6.78419971	4.04099989	200	0	0
-3.91400003	6.78489971	4.08900023	200	0	0
-3.90899992	6.78499985	4.15799999	200	0	0
-3.89400005	6.78409958	4.04199982	200	0	0
-3.90899992	6.78499985	4.11800003	200	0	0
-3.91499996	6.78499985	4.14499998	200	0	0
-3.90199995	6.78479958	4.07600021	200	0	0
-3.91199994	6.78499985	4.12799978	200	0	0
-3.90499997	6.78460026	4.06099987	200	0	0
-3.88899994	6.78450012	4.05499983	200	0	0
-3.90400004	6.78489971	4.0999999	200	0	0
-3.9059999	6.78479958	4.08500004	200	0	0
-3.9000001	6.78469992	4.07499981	200	0	0
-3.89400005	6.78439999	4.05700016	200	0	0
-3.90199995	6.78489971	4.11499977	200	0	0
-3.90899992	6.78489971	4.12599993	200	0	0
-3.90400004	6.78489971	4.13999987	200	0	0
-3.89100003	6.78419971	4.05600023	200	0	0
-3.90199995	6.78469992	4.08400011	200	0	0
-3.89700007	6.78429985	4.05900002	200	0	0
-3.90100002	6.78479958	4.09899998	200	0	0
-3.9000001	6.78460026	4.07499981	200	0	0
-3.89400005	6.78450012	4.07200003	200	0	0
-3.898	6.78460026	4.08199978	200	0	0
-3.90400004	6.78479958	4.11600018	200	0	0
-3.90300012	6.78469992	4.0999999	200	0	0
-3.89199996	6.78439999	4.07299995	200	0	0
-3.92799997	6.78530073	4.1500001	200	0	0
-3.92600012	6.78530073	4.20599985	200	0	0
-3.9230001	6.78520012	4.22900009	200	0	0
-3.91599989	6.78530073	4.21000004	200	0	0
-3.93000007	6.78530073	4.17600012	200	0	0
-3.921	6.78520012	4.13000011	200	0	0
-3.92600012	6.78530073	4.16599989	200	0	0
-3.9230001	6.78530073	4.18900013	200	0	0
-3.93199992	6.78520012	4.20800018	200	0	0
-3.91400003	6.78509998	4.11999989	200	0	0
-3.92400002	6.78520012	4.14799976	200	0	0
-3.91599989	6.78520012	4.20900011	200	0	0
-3.91199994	6.78509998	4.12799978	200	0	0
-3.92700005	6.78520012	4.17299986	200	0	0
-3.92499995	6.78520012	4.1880002	200	0	0
-3.90899992	6.78509998	4.22300005	200	0	0
-3.91700006	6.78520012	4.16099977	200	0	0
-3.91499996	6.78499985	4.22599983	200	0	0
-3.91700006	6.78509998	4.14599991	200	0	0
-3.91400003	6.78509998	4.20900011	200	0	0
-3.91300011	6.78509998	4.20100021	200	0	0
-3.92000008	6.78509998	4.171	200	0	0
-3.91100001	6.78509998	4.15899992	200	0	0
-3.91199994	6.78509998	4.18400002	200	0	0
-3.91199994	6.78499985	4.20800018	200	0	0
-3.90799999	6.78499985	4.19799995	200	0	0
-3.91100001	6.78499985	4.18400002	200	0	0
-3.91300011	6.78509998	4.10400009	200	0	0
-3.92600012	6.78530073	4.23099995	200	0	0
-3.85700011	6.78270006	3.89199996	200	0	0
-3.84299994	6.78219986	3.90199995	200	0	0
-3.88000011	6.78320026	3.92199993	200	0	0
-3.87400007	6.7833004	3.93499994	200	0	0
-3.84899998	6.7823	3.90499997	200	0	0
-3.84699988	6.78240013	3.90400004	200	0	0
-3.852	6.78280067	3.90400004	200	0	0
-3.86100006	6.78289986	3.90799999	200	0	0
-3.8499999	6.78219986	3.91199994	200	0	0
-3.84699988	6.78249979	3.90400004	200	0	0
-3.87899995	6.78320026	3.93600011	200	0	0
-3.84599996	6.7823	3.91100001	200	0	0
-3.85299993	6.78259993	3.9059999	200	0	0
-3.85700011	6.78270006	3.90700006	200	0	0
-3.83500004	6.78219986	3.92199993	200	0	0
-3.86500001	6.78289986	3.91700006	200	0	0
-3.852	6.78240013	3.91300011	200	0	0
-3.85599995	6.78280067	3.91400003	200	0	0
-3.87100005	6.78310013	3.93300009	200	0	0
-3.85500002	6.78249979	3.91400003	200	0	0
-3.85599995	6.78270006	3.91499996	200	0	0
-3.85599995	6.78259993	3.91499996	200	0	0
-3.83899999	6.7823	3.92400002	200	0	0
-3.87700009	6.78320026	3.95900011	200	0	0
-3.85400009	6.78289986	3.92799997	200	0	0
-3.84299994	6.78240013	3.92499995	200	0	0
-3.87899995	6.78310013	3.9519999	200	0	0
-3.88000011	6.78320026	3.97600007	200	0	0
-3.88599992	6.78310013	3.96199989	200	0	0
-3.85500002	6.78280067	3.92799997	200	0	0
-3.8440001	6.78219986	3.94099998	200	0	0
-3.8499999	6.78249979	3.92799997	200	0	0
-3.85100007	6.78270006	3.92799997	200	0	0
-3.87299991	6.78299999	3.95099998	200	0	0
-3.85899997	6.78259993	3.93099999	200	0	0
-3.84500003	6.78219986	3.94899988	200	0	0
-3.84699988	6.7823	3.94199991	200	0	0
-3.84899998	6.78240013	3.94300008	200	0	0
-3.85599995	6.78280067	3.94400001	200	0	0
-3.84299994	6.78219986	3.96300006	200	0	0
-3.85599995	6.7823	3.95300007	200	0	0
-3.86299992	6.78289986	3.95499992	200	0	0
-3.8499999	6.78259993	3.94300008	200	0	0
-3.8440001	6.78240013	3.94899988	200	0	0
-3.85500002	6.78270006	3.94499993	200	0	0
-3.85599995	6.78249979	3.9460001	200	0	0
-3.85500002	6.78280067	3.95099998	200	0	0
-3.8499999	6.78249979	3.95099998	200	0	0
-3.852	6.78259993	3.95099998	200	0	0
-3.86299992	6.78289986	3.97000003	200	0	0
-3.8599999	6.78270006	3.95499992	200	0	0
-3.84800005	6.78240013	3.96499991	200	0	0
-3.85299993	6.78280067	3.96600008	200	0	0
-3.84699988	6.78249979	3.96499991	200	0	0
-3.84699988	6.78259993	3.96499991	200	0	0
-3.85700011	6.78270006	3.9690001	200	0	0
-3.8829999	6.78400087	4.01399994	200	0	0
-3.88800001	6.78400087	4.03200006	200	0	0
-3.88100004	6.78369999	3.99900007	200	0	0
-3.85100007	6.78249979	3.8900001	200	0	0
-3.84699988	6.7823	3.88800001	200	0	0
-3.84800005	6.78240013	3.88899994	200	0	0
-3.84800005	6.78219986	3.88899994	200	0	0
-3.89299989	6.78400087	3.96399999	200	0	0
-3.88199997	6.78400087	3.9749999	200	0	0
-3.89299989	6.78400087	4.00299978	200	0	0
-3.88800001	6.78400087	3.99300003	200	0	0
-3.87899995	6.7833004	3.91300011	200	0	0
-3.87599993	6.78320026	3.91199994	200	0	0
-3.88400006	6.7833004	3.9000001	200	0	0
-3.87800002	6.78320026	3.89700007	200	0	0
-3.86999989	6.78299999	3.89599991	200	0	0
-3.85100007	6.78259993	3.8900001	200	0	0
-3.85800004	6.78280067	3.89100003	200	0	0
-3.85700011	6.78289986	3.89100003	200	0	0
-3.88899994	6.78400087	3.95499992	200	0	0
-3.88899994	6.78409958	3.977	200	0	0
-3.88599992	6.78409958	3.99099994	200	0	0
-3.89499998	6.78409958	4.00299978	200	0	0
-3.88499999	6.78409958	4.03000021	200	0	0
-3.89100003	6.78409958	4.0170002	200	0	0
-3.88599992	6.78419971	4.01499987	200	0	0
-3.88800001	6.78419971	4.03100014	200	0	0
-3.89400005	6.78409958	3.96300006	200	0	0
-3.88599992	6.78320026	3.87800002	200	0	0
-3.88499999	6.78310013	3.87700009	200	0	0
-3.86400008	6.78289986	3.87800002	200	0	0
-3.88199997	6.7833004	3.88400006	200	0	0
-3.88499999	6.78320026	3.88499999	200	0	0
-3.88000011	6.78310013	3.8829999	200	0	0
-3.89299989	6.78419971	3.95600009	200	0	0
-3.88800001	6.78409958	3.93799996	200	0	0
-3.89199996	6.78419971	3.96300006	200	0	0
-3.89400005	6.78419971	3.97900009	200	0	0
-3.898	6.78419971	3.99600005	200	0	0
-3.88599992	6.78419971	3.99900007	200	0	0
-3.88800001	6.78409958	3.95300007	200	0	0
-3.88599992	6.78400087	3.93799996	200	0	0
-3.89199996	6.78429985	4.0170002	200	0	0
-3.89499998	6.78460026	4.03299999	200	0	0
-3.90400004	6.78489971	4.07600021	200	0	0
-3.90100002	6.78469992	4.04400015	200	0	0
-3.90400004	6.78479958	4.06099987	200	0	0
-3.898	6.78450012	4.03499985	200	0	0
-3.9059999	6.78460026	4.04500008	200	0	0
-3.8900001	6.78439999	4.03200006	200	0	0
-3.90300012	6.78450012	4.04400015	200	0	0
-3.88899994	6.78429985	4.03200006	200	0	0
-3.91000009	6.78499985	4.08699989	200	0	0
-3.92199993	6.78520012	4.12300014	200	0	0
-3.91199994	6.78499985	4.07999992	200	0	0
-3.89700007	6.78450012	3.96399999	200	0	0
-3.90899992	6.78499985	4.02299976	200	0	0
-3.89599991	6.78439999	3.96399999	200	0	0
-3.90100002	6.78469992	3.98099995	200	0	0
-3.9059999	6.78489971	4.00600004	200	0	0
-3.90799999	6.78499985	4.03800011	200	0	0
-3.91300011	6.78499985	4.04899979	200	0	0
-3.89599991	6.78429985	3.96399999	200	0	0
-3.90300012	6.78479958	3.99699998	200	0	0
-3.89499998	6.78460026	3.97799993	200	0	0
-3.90199995	6.78499985	4.05999994	200	0	0
-3.90300012	6.78489971	4.02099991	200	0	0
-3.9059999	6.78479958	4.00600004	200	0	0
-3.89700007	6.78450012	3.97900009	200	0	0
-3.89599991	6.78469992	3.99399996	200	0	0
-3.9000001	6.78489971	4.03499985	200	0	0
-3.90899992	6.78489971	4.0630002	200	0	0
-3.89199996	6.78439999	3.97799993	200	0	0
-3.9000001	6.78489971	4.04300022	200	0	0
-3.88800001	6.78429985	3.977	200	0	0
-3.90799999	6.78469992	4.00699997	200	0	0
-3.90100002	6.78479958	4.01999998	200	0	0
-3.89400005	6.78460026	3.99399996	200	0	0
-3.91100001	6.78479958	4.03900003	200	0	0
-3.89499998	6.78450012	3.99399996	200	0	0
-3.89700007	6.78460026	4.00299978	200	0	0
-3.90400004	6.78479958	4.04500008	200	0	0
-3.9000001	6.78469992	4.01999998	200	0	0
-3.89199996	6.78439999	3.99399996	200	0	0
-3.89700007	6.78450012	4.00299978	200	0	0
-3.90400004	6.78469992	4.03700018	200	0	0
-3.89499998	6.78429985	3.99499989	200	0	0
-3.89599991	6.78460026	4.01800013	200	0	0
-3.89599991	6.78439999	4.00299978	200	0	0
-3.89499998	6.78429985	4.00299978	200	0	0
-3.89599991	6.78450012	4.01800013	200	0	0
-3.89100003	6.78439999	4.0170002	200	0	0
-3.88899994	6.78429985	3.93799996	200	0	0
-3.89199996	6.78439999	3.95499992	200	0	0
-3.88899994	6.78419971	3.93799996	200	0	0
-3.89299989	6.78429985	3.95600009	200	0	0
-3.91599989	6.78509998	4.04199982	200	0	0
-3.92000008	6.78509998	4.09100008	200	0	0
-3.90400004	6.78509998	4.04500008	200	0	0
-3.91499996	6.78509998	4.06500006	200	0	0
-3.90499997	6.78509998	4.07700014	200	0	0
-3.91799998	6.78530073	4.02699995	200	0	0
-3.9289999	6.78539991	4.0539999	200	0	0
-3.92700005	6.78539991	4.10900021	200	0	0
-3.90700006	6.78499985	3.99900007	200	0	0
-3.93000007	6.78539991	4.09399986	200	0	0
-3.91499996	6.78509998	4.01000023	200	0	0
-3.9000001	6.78489971	3.99600005	200	0	0
-3.92600012	6.78539991	4.06899977	200	0	0
-3.92199993	6.78539991	4.08300018	200	0	0
-3.92199993	6.78520012	4.02699995	200	0	0
-3.91799998	6.78530073	4.12200022	200	0	0
-3.91799998	6.78530073	4.04199982	200	0	0
-3.90899992	6.78499985	4.0079999	200	0	0
-3.92600012	6.78530073	4.0539999	200	0	0
-3.92499995	6.78530073	4.10900021	200	0	0
-3.92499995	6.78530073	4.06899977	200	0	0
-3.92499995	6.78530073	4.09299994	200	0	0
-3.90799999	6.78509998	4.02299976	200	0	0
-3.92199993	6.78530073	4.08400011	200	0	0
-3.91799998	6.78520012	4.04099989	200	0	0
-3.92499995	6.78520012	4.05200005	200	0	0
-3.92700005	6.78520012	4.10900021	200	0	0
-3.9230001	6.78520012	4.06699991	200	0	0
-3.92499995	6.78520012	4.09200001	200	0	0
-3.91899991	6.78520012	4.08199978	200	0	0
-3.93400002	6.78539991	4.20900011	200	0	0
-3.92499995	6.78539991	4.21299982	200	0	0
-3.91300011	6.78539991	4.22399998	200	0	0
-3.93000007	6.78569984	4.16699982	200	0	0
-3.93000007	6.78550005	4.13399982	200	0	0
-3.92499995	6.78539991	4.12400007	200	0	0
-3.93300009	6.78569984	4.17600012	200	0	0
-3.93300009	6.78560019	4.15199995	200	0	0
-3.93099999	6.78569984	4.21600008	200	0	0
-3.93199992	6.78569984	4.20800018	200	0	0
-3.93300009	6.78569984	4.19199991	200	0	0
-3.93199992	6.78539991	4.13500023	200	0	0
-3.93000007	6.78560019	4.16699982	200	0	0
-3.93000007	6.78550005	4.1500001	200	0	0
-3.93499994	6.78560019	4.17700005	200	0	0
-3.93000007	6.78560019	4.21600008	200	0	0
-3.93400002	6.78560019	4.20900011	200	0	0
-3.92799997	6.78560019	4.19000006	200	0	0
-3.93000007	6.78530073	4.13500023	200	0	0
-3.9289999	6.78550005	4.16599989	200	0	0
-3.93000007	6.78539991	4.1500001	200	0	0
-3.93899989	6.78550005	4.17799997	200	0	0
-3.9289999	6.78550005	4.19099998	200	0	0
-3.92499995	6.78550005	4.20499992	200	0	0
-3.93199992	6.78539991	4.16699982	200	0	0
-3.91400003	6.78550005	4.20800018	200	0	0
-3.93499994	6.78539991	4.17700005	200	0	0
-3.92700005	6.78539991	4.19000006	200	0	0
-3.93000007	6.78569984	4.09399986	200	0	0
-3.92499995	6.78569984	4.14799976	200	0	0
-3.9289999	6.78569984	4.11000013	200	0	0
-3.93099999	6.78569984	4.12599993	200	0	0
-3.92799997	6.78569984	4.1329999	200	0	0
-3.93499994	6.78560019	4.08799982	200	0	0
-3.92600012	6.78550005	4.06899977	200	0	0
-3.93199992	6.78560019	4.09499979	200	0	0
-3.93499994	6.78560019	4.12799978	200	0	0
-3.93099999	6.78560019	4.13399982	200	0	0
-3.92400002	6.78560019	4.1079998	200	0	0
-3.9230001	6.78550005	4.08300018	200	0	0
-3.93300009	6.78550005	4.09499979	200	0	0
-3.93000007	6.78550005	4.11000013	200	0	0
-3.92700005	6.78550005	4.125	200	0	0
-3.92400002	6.78539991	4.04400015	200	0	0
-3.94199991	6.78579998	4.17999983	200	0	0
-3.93199992	6.78579998	4.12699986	200	0	0
-3.93799996	6.78579998	4.13800001	200	0	0
-3.93600011	6.78579998	4.16900015	200	0	0
-3.93700004	6.78579998	4.15299988	200	0	0
-3.93799996	6.78579998	4.19399977	200	0	0
-3.93300009	6.78579998	4.21700001	200	0	0
-3.93199992	6.78579998	4.20800018	200	0	0
-3.85400009	6.78270006	3.87599993	200	0	0
-3.852	6.78259993	3.875	200	0	0
-3.84500003	6.78240013	3.87299991	200	0	0
-3.84699988	6.78219986	3.87299991	200	0	0
-3.85400009	6.78249979	3.87599993	200	0	0
-3.8499999	6.7823	3.87400007	200	0	0
-3.89700007	6.78489971	3.95600009	200	0	0
-3.921	6.78530073	4.01200008	200	0	0
-3.90799999	6.78499985	3.96799994	200	0	0
-3.92700005	6.78520012	4.00500011	200	0	0
-3.90199995	6.78479958	3.95799994	200	0	0
-3.898	6.78489971	3.96399999	200	0	0
-3.91000009	6.78509998	3.98399997	200	0	0
-3.92499995	6.78520012	4.01300001	200	0	0
-3.90199995	6.78469992	3.95799994	200	0	0
-3.89100003	6.78450012	3.954	200	0	0
-3.89599991	6.78460026	3.95600009	200	0	0
-3.90100002	6.78479958	3.96499991	200	0	0
-3.90899992	6.78499985	3.98399997	200	0	0
-3.9000001	6.78469992	3.96499991	200	0	0
-3.91199994	6.78509998	4.00099993	200	0	0
-3.90100002	6.78489971	3.98099995	200	0	0
-3.90199995	6.78460026	3.96600008	200	0	0
-3.90199995	6.78479958	3.98099995	200	0	0
-3.93199992	6.78560019	4.03100014	200	0	0
-3.92400002	6.78550005	4.00500011	200	0	0
-3.91599989	6.78509998	3.97099996	200	0	0
-3.93600011	6.78560019	4.04899979	200	0	0
-3.93400002	6.78560019	4.07200003	200	0	0
-3.93600011	6.78560019	4.05700016	200	0	0
-3.9289999	6.78550005	4.01399994	200	0	0
-3.92400002	6.78530073	3.99000001	200	0	0
-3.92499995	6.78539991	4.00500011	200	0	0
-3.9230001	6.78520012	3.98799992	200	0	0
-3.92600012	6.78550005	4.02899981	200	0	0
-3.93000007	6.78539991	4.01499987	200	0	0
-3.93000007	6.78550005	4.0539999	200	0	0
-3.92499995	6.78550005	4.04500008	200	0	0
-3.91599989	6.78530073	4.00199986	200	0	0
-3.92199993	6.78539991	4.02799988	200	0	0
-3.93099999	6.78579998	4.04699993	200	0	0
-3.93700004	6.78579998	4.05700016	200	0	0
-3.93899989	6.78590107	4.09800005	200	0	0
-3.93600011	6.78590107	4.11299992	200	0	0
-3.93300009	6.78590107	4.08699989	200	0	0
-3.93499994	6.78569984	4.04799986	200	0	0
-3.93600011	6.78579998	4.07200003	200	0	0
-3.93700004	6.78569984	4.05700016	200	0	0
-3.93600011	6.78579998	4.11299992	200	0	0
-3.93799996	6.78579998	4.09800005	200	0	0
-3.93199992	6.78579998	4.08699989	200	0	0
-3.93199992	6.78569984	4.0710001	200	0	0
-3.93199992	6.78569984	4.08699989	200	0	0
-3.94300008	6.78590107	4.13999987	200	0	0
-3.94000006	6.78590107	4.19500017	200	0	0
-3.94199991	6.78590107	4.17999983	200	0	0
-3.93700004	6.78590107	4.15299988	200	0	0
-3.93600011	6.78590107	4.16900015	200	0	0
-3.93899989	6.78590107	4.13000011	200	0	0
-3.93099999	6.78609991	4.20699978	200	0	0
-3.94000006	6.78590107	4.07399988	200	0	0
-3.94099998	6.78620005	4.11499977	200	0	0
-3.93300009	6.78609991	4.09499979	200	0	0
-3.94700003	6.78620005	4.17399979	200	0	0
-3.93600011	6.78599977	4.08799982	200	0	0
-3.94499993	6.78620005	4.1329999	200	0	0
-3.93799996	6.78609991	4.19500017	200	0	0
-3.94499993	6.78620005	4.14099979	200	0	0
-3.94499993	6.78620005	4.15700006	200	0	0
-3.9230001	6.78599977	4.204	200	0	0
-3.94400001	6.78609991	4.11600018	200	0	0
-3.94199991	6.78599977	4.09899998	200	0	0
-3.94099998	6.78609991	4.1789999	200	0	0
-3.94199991	6.78599977	4.1960001	200	0	0
-3.94099998	6.78609991	4.171	200	0	0
-3.9460001	6.78609991	4.14099979	200	0	0
-3.94099998	6.78609991	4.15500021	200	0	0
-3.94199991	6.78599977	4.11499977	200	0	0
-3.94000006	6.78599977	4.1789999	200	0	0
-3.93799996	6.78599977	4.13000011	200	0	0
-3.93799996	6.78599977	4.17000008	200	0	0
-3.94099998	6.78599977	4.13899994	200	0	0
-3.93899989	6.78599977	4.15399981	200	0	0
-3.94199991	6.78620005	4.1960001	200	0	0
-3.93000007	6.78620005	4.20699978	200	0	0
-3.95000005	6.78609991	4.22399998	200	0	0
-3.94099998	6.78599977	4.07499981	200	0	0
-3.93400002	6.78569984	4.03200006	200	0	0
-3.93799996	6.78590107	4.05800009	200	0	0
-3.86999989	6.7833004	3.81900001	200	0	0
-3.88100004	6.78320026	3.82299995	200	0	0
-3.88199997	6.78340101	3.84599996	200	0	0
-3.87800002	6.7833004	3.83699989	200	0	0
-3.88800001	6.78310013	3.82500005	200	0	0
-3.87800002	6.7833004	3.8440001	200	0	0
-3.87800002	6.78299999	3.82299995	200	0	0
-3.87800002	6.78320026	3.83699989	200	0	0
-3.86400008	6.78219986	3.83400011	200	0	0
-3.84599996	6.7823	3.82800007	200	0	0
-3.8499999	6.78219986	3.83699989	200	0	0
-3.88000011	6.78320026	3.84500003	200	0	0
-3.88000011	6.78310013	3.83699989	200	0	0
-3.87299991	6.7833004	3.85800004	200	0	0
-3.84599996	6.7823	3.83500004	200	0	0
-3.88199997	6.7833004	3.87599993	200	0	0
-3.8440001	6.78219986	3.8499999	200	0	0
-3.87599993	6.78310013	3.84299994	200	0	0
-3.86299992	6.78240013	3.83400011	200	0	0
-3.85299993	6.78249979	3.82999992	200	0	0
-3.85700011	6.78289986	3.82999992	200	0	0
-3.84899998	6.78240013	3.83599997	200	0	0
-3.85299993	6.78280067	3.829	200	0	0
-3.87700009	6.78320026	3.85899997	200	0	0
-3.85400009	6.78270006	3.82999992	200	0	0
-3.85599995	6.78259993	3.83100009	200	0	0
-3.84500003	6.7823	3.8499999	200	0	0
-3.84699988	6.78219986	3.86599994	200	0	0
-3.85700011	6.78249979	3.83899999	200	0	0
-3.86299992	6.78289986	3.83999991	200	0	0
-3.85400009	6.78280067	3.83699989	200	0	0
-3.85500002	6.78259993	3.83800006	200	0	0
-3.85500002	6.78270006	3.83800006	200	0	0
-3.84599996	6.78240013	3.8499999	200	0	0
-3.84699988	6.7823	3.86599994	200	0	0
-3.85100007	6.78249979	3.852	200	0	0
-3.86100006	6.78289986	3.85400009	200	0	0
-3.84699988	6.78240013	3.86599994	200	0	0
-3.852	6.78270006	3.852	200	0	0
-3.85599995	6.78280067	3.85299993	200	0	0
-3.85599995	6.78259993	3.85400009	200	0	0
-3.84899998	6.78249979	3.8670001	200	0	0
-3.8499999	6.78259993	3.8670001	200	0	0
-3.85899997	6.78270006	3.86999989	200	0	0
-3.85800004	6.78280067	3.87599993	200	0	0
-3.88899994	6.78409958	3.88400006	200	0	0
-3.89299989	6.78409958	3.90100002	200	0	0
-3.88899994	6.78409958	3.9230001	200	0	0
-3.88199997	6.78400087	3.8829999	200	0	0
-3.88899994	6.78409958	3.87700009	200	0	0
-3.89299989	6.78419971	3.90100002	200	0	0
-3.8829999	6.78419971	3.91300011	200	0	0
-3.88599992	6.78419971	3.92199993	200	0	0
-3.89599991	6.78439999	3.92600012	200	0	0
-3.89700007	6.78460026	3.94099998	200	0	0
-3.89199996	6.78429985	3.92400002	200	0	0
-3.89599991	6.78450012	3.94000006	200	0	0
-3.88700008	6.78439999	3.93799996	200	0	0
-3.9000001	6.78450012	3.88000011	200	0	0
-3.90100002	6.78489971	3.92700005	200	0	0
-3.90899992	6.78460026	3.89100003	200	0	0
-3.89400005	6.78439999	3.87899995	200	0	0
-3.89299989	6.78450012	3.88499999	200	0	0
-3.90400004	6.78489971	3.94300008	200	0	0
-3.90499997	6.78479958	3.92000008	200	0	0
-3.88700008	6.78419971	3.87599993	200	0	0
-3.89400005	6.78429985	3.87899995	200	0	0
-3.90499997	6.78479958	3.92799997	200	0	0
-3.89700007	6.78439999	3.88800001	200	0	0
-3.90199995	6.78460026	3.90400004	200	0	0
-3.89700007	6.78469992	3.91700006	200	0	0
-3.89299989	6.78429985	3.88599992	200	0	0
-3.90100002	6.78479958	3.94199991	200	0	0
-3.89299989	6.78419971	3.88599992	200	0	0
-3.89400005	6.78450012	3.90100002	200	0	0
-3.9059999	6.78469992	3.92799997	200	0	0
-3.9000001	6.78460026	3.91799998	200	0	0
-3.9059999	6.78469992	3.94400001	200	0	0
-3.89700007	6.78439999	3.90300012	200	0	0
-3.9000001	6.78460026	3.92600012	200	0	0
-3.89599991	6.78450012	3.91700006	200	0	0
-3.89899993	6.78429985	3.90400004	200	0	0
-3.89499998	6.78450012	3.92400002	200	0	0
-3.89299989	6.78439999	3.91700006	200	0	0
-3.89499998	6.78429985	3.91700006	200	0	0
-3.89299989	6.78409958	3.86299992	200	0	0
-3.88899994	6.78419971	3.86199999	200	0	0
-3.89400005	6.78409958	3.84800005	200	0	0
-3.89899993	6.78439999	3.86500001	200	0	0
-3.88899994	6.78429985	3.86199999	200	0	0
-3.89700007	6.78489971	3.91799998	200	0	0
-3.89899993	6.78460026	3.87899995	200	0	0
-3.90799999	6.78469992	3.89100003	200	0	0
-3.90499997	6.78479958	3.90499997	200	0	0
-3.9059999	6.78499985	3.94400001	200	0	0
-3.90300012	6.78499985	3.95799994	200	0	0
-3.90899992	6.78499985	3.93000007	200	0	0
-3.89199996	6.78409958	3.83999991	200	0	0
-3.89599991	6.78419971	3.84899998	200	0	0
-3.9000001	6.78460026	3.86500001	200	0	0
-3.90199995	6.78489971	3.88800001	200	0	0
-3.90899992	6.78509998	3.92199993	200	0	0
-3.90100002	6.78450012	3.86500001	200	0	0
-3.90499997	6.78479958	3.88199997	200	0	0
-3.90300012	6.78499985	3.90400004	200	0	0
-3.91100001	6.78509998	3.93000007	200	0	0
-3.90799999	6.78509998	3.94499993	200	0	0
-3.90899992	6.78509998	3.96099997	200	0	0
-3.91100001	6.78479958	3.89199996	200	0	0
-3.89700007	6.78489971	3.90199995	200	0	0
-3.9000001	6.78499985	3.91899991	200	0	0
-3.88800001	6.78419971	3.83899999	200	0	0
-3.90100002	6.78489971	3.88100004	200	0	0
-3.89599991	6.78450012	3.84800005	200	0	0
-3.898	6.78439999	3.8499999	200	0	0
-3.89700007	6.78429985	3.84899998	200	0	0
-3.9289999	6.78539991	3.99099994	200	0	0
-3.9230001	6.78530073	3.97399998	200	0	0
-3.92199993	6.78520012	3.96499991	200	0	0
-3.92000008	6.78520012	3.97199988	200	0	0
-3.93000007	6.78560019	4.01499987	200	0	0
-3.92700005	6.78560019	4.00600004	200	0	0
-3.94099998	6.78609991	4.09100008	200	0	0
-3.94300008	6.78590107	4.05200005	200	0	0
-3.93300009	6.78569984	4.01599979	200	0	0
-3.93400002	6.78579998	4.03200006	200	0	0
-3.92199993	6.78530073	3.91100001	200	0	0
-3.898	6.78499985	3.87899995	200	0	0
-3.92799997	6.78539991	3.9749999	200	0	0
-3.91599989	6.78509998	3.89299989	200	0	0
-3.91899991	6.78539991	3.94799995	200	0	0
-3.92400002	6.78539991	3.96499991	200	0	0
-3.92400002	6.78520012	3.91100001	200	0	0
-3.91899991	6.78530073	3.92600012	200	0	0
-3.9059999	6.78499985	3.8900001	200	0	0
-3.92499995	6.78530073	3.93499994	200	0	0
-3.921	6.78530073	3.94899988	200	0	0
-3.90899992	6.78509998	3.9059999	200	0	0
-3.92000008	6.78530073	3.96499991	200	0	0
-3.91700006	6.78520012	3.92400002	200	0	0
-3.91899991	6.78520012	3.93199992	200	0	0
-3.92499995	6.78520012	3.95000005	200	0	0
-3.93099999	6.78579998	3.96799994	200	0	0
-3.93600011	6.78590107	3.99300003	200	0	0
-3.93499994	6.78539991	3.93799996	200	0	0
-3.92499995	6.78560019	3.95000005	200	0	0
-3.94099998	6.78590107	4.01900005	200	0	0
-3.93499994	6.78579998	3.97799993	200	0	0
-3.93799996	6.78590107	4.03399992	200	0	0
-3.92600012	6.78590107	4.00500011	200	0	0
-3.93499994	6.78569984	3.97000003	200	0	0
-3.93600011	6.78579998	3.99300003	200	0	0
-3.93099999	6.78550005	3.9519999	200	0	0
-3.92799997	6.78569984	3.9749999	200	0	0
-3.93499994	6.78579998	4.0170002	200	0	0
-3.92799997	6.78560019	3.96700001	200	0	0
-3.9289999	6.78579998	4.00699997	200	0	0
-3.93300009	6.78560019	3.97600007	200	0	0
-3.92799997	6.78569984	3.99000001	200	0	0
-3.92400002	6.78550005	3.96499991	200	0	0
-3.93000007	6.78569984	4.00699997	200	0	0
-3.9230001	6.78550005	3.97300005	200	0	0
-3.92700005	6.78560019	3.99000001	200	0	0
-3.93000007	6.78550005	3.99099994	200	0	0
-3.92499995	6.78550005	3.92700005	200	0	0
-3.92400002	6.78550005	3.93400002	200	0	0
-3.91899991	6.78539991	3.92499995	200	0	0
-3.9230001	6.78569984	3.95000005	200	0	0
-3.89700007	6.78450012	3.84100008	200	0	0
-3.90899992	6.78509998	3.8829999	200	0	0
-3.89199996	6.78439999	3.83999991	200	0	0
-3.89299989	6.78429985	3.83999991	200	0	0
-3.90100002	6.78489971	3.86500001	200	0	0
-3.89700007	6.78460026	3.84800005	200	0	0
-3.90400004	6.78479958	3.86599994	200	0	0
-3.93300009	6.78599977	4.0079999	200	0	0
-3.94199991	6.78599977	4.01900005	200	0	0
-3.94400001	6.78599977	4.05999994	200	0	0
-3.93400002	6.78599977	4.03200006	200	0	0
-3.93499994	6.78599977	4.04799986	200	0	0
-3.94400001	6.78620005	4.05999994	200	0	0
-3.94700003	6.78620005	3.99799991	200	0	0
-3.93600011	6.78569984	3.93899989	200	0	0
-3.94300008	6.78609991	4.07499981	200	0	0
-3.9289999	6.78560019	3.93600011	200	0	0
-3.93600011	6.78590107	3.954	200	0	0
-3.94199991	6.78620005	4.05100012	200	0	0
-3.94199991	6.78609991	3.98000002	200	0	0
-3.94499993	6.78620005	4.01300001	200	0	0
-3.94499993	6.78620005	4.02099991	200	0	0
-3.94099998	6.78620005	4.03499985	200	0	0
-3.94000006	6.78599977	3.97099996	200	0	0
-3.9460001	6.78609991	4.06099987	200	0	0
-3.93199992	6.78579998	3.95300007	200	0	0
-3.92700005	6.78609991	3.99000001	200	0	0
-3.94499993	6.78599977	3.98099995	200	0	0
-3.93300009	6.78590107	3.9690001	200	0	0
-3.94099998	6.78609991	4.01100016	200	0	0
-3.93499994	6.78609991	4.04899979	200	0	0
-3.94300008	6.78609991	4.01999998	200	0	0
-3.94000006	6.78590107	3.97900009	200	0	0
-3.93899989	6.78599977	3.99499989	200	0	0
-3.94300008	6.78630018	4.09100008	200	0	0
-3.94799995	6.78630018	4.02199984	200	0	0
-3.94899988	6.78620005	4.10200024	200	0	0
-3.94899988	6.78630018	4.07800007	200	0	0
-3.94799995	6.78630018	4.03800011	200	0	0
-3.95099998	6.78630018	4.0630002	200	0	0
-3.93799996	6.78630018	4.05000019	200	0	0
-3.94499993	6.78620005	4.09200001	200	0	0
-3.94499993	6.78620005	4.07600021	200	0	0
-3.94799995	6.78630018	4.13399982	200	0	0
-3.95099998	6.78630018	4.11899996	200	0	0
-3.94499993	6.78630018	4.0999999	200	0	0
-3.92499995	6.78560019	3.92700005	200	0	0
-3.95000005	6.78630018	4.17500019	200	0	0
-3.95499992	6.78630018	4.18599987	200	0	0
-3.95099998	6.78630018	4.19999981	200	0	0
-3.94099998	6.78630018	4.21199989	200	0	0
-3.96399999	6.78659964	4.18900013	200	0	0
-3.95300007	6.78659964	4.13600016	200	0	0
-3.95000005	6.78659964	4.19999981	200	0	0
-3.95600009	6.78640032	4.10500002	200	0	0
-3.96300006	6.78659964	4.18100023	200	0	0
-3.9519999	6.78659964	4.14300013	200	0	0
-3.95300007	6.78650093	4.11999989	200	0	0
-3.95799994	6.78659964	4.16200018	200	0	0
-3.94199991	6.78650093	4.21199989	200	0	0
-3.95099998	6.78650093	4.19999981	200	0	0
-3.94199991	6.78650093	4.13100004	200	0	0
-3.95499992	6.78640032	4.11999989	200	0	0
-3.954	6.78650093	4.14400005	200	0	0
-3.9460001	6.78640032	4.21400023	200	0	0
-3.954	6.78650093	4.18499994	200	0	0
-3.95799994	6.78650093	4.16200018	200	0	0
-3.95499992	6.78650093	4.17700005	200	0	0
-3.95099998	6.78640032	4.13500023	200	0	0
-3.94899988	6.78640032	4.19899988	200	0	0
-3.96000004	6.78640032	4.1880002	200	0	0
-3.954	6.78640032	4.14400005	200	0	0
-3.95000005	6.78640032	4.15899992	200	0	0
-3.9460001	6.78640032	4.17299986	200	0	0
-3.95300007	6.78630018	4.14400005	200	0	0
-3.94799995	6.78630018	4.15799999	200	0	0
-3.96199989	6.78650093	4.23000002	200	0	0
-3.954	6.78650093	4.03999996	200	0	0
-3.95499992	6.78659964	4.06400013	200	0	0
-3.95300007	6.78659964	4.11999989	200	0	0
-3.95099998	6.78659964	4.07800007	200	0	0
-3.954	6.78659964	4.09600019	200	0	0
-3.9519999	6.78659964	4.10300016	200	0	0
-3.94400001	6.78650093	4.05200005	200	0	0
-3.94799995	6.78640032	4.03800011	200	0	0
-3.95099998	6.78650093	4.0630002	200	0	0
-3.95000005	6.78650093	4.07800007	200	0	0
-3.9519999	6.78650093	4.09499979	200	0	0
-3.95000005	6.78640032	4.05499983	200	0	0
-3.94799995	6.78650093	4.10099983	200	0	0
-3.95700002	6.78640032	4.06500006	200	0	0
-3.94899988	6.78640032	4.07800007	200	0	0
-3.94499993	6.78640032	4.09200001	200	0	0
-3.9460001	6.78630018	4.01300001	200	0	0
-3.95700002	6.78669977	4.14599991	200	0	0
-3.95099998	6.78669977	4.21600008	200	0	0
-3.96000004	6.78669977	4.204	200	0	0
-3.96000004	6.78669977	4.16300011	200	0	0
-3.95499992	6.78669977	4.18499994	200	0	0
-3.95000005	6.78669977	4.17500019	200	0	0
-3.9519999	6.78669977	4.09499979	200	0	0
-3.95799994	6.78669977	4.10599995	200	0	0
-3.9519999	6.78669977	4.11899996	200	0	0
-3.94499993	6.78669977	4.13199997	200	0	0
-3.93400002	6.78579998	3.93799996	200	0	0
-3.9289999	6.78560019	3.89700007	200	0	0
-3.93000007	6.78569984	3.91300011	200	0	0
-3.9230001	6.78530073	3.87299991	200	0	0
-3.93199992	6.78550005	3.89100003	200	0	0
-3.92000008	6.78520012	3.87100005	200	0	0
-3.90100002	6.78499985	3.86500001	200	0	0
-3.93199992	6.78569984	3.9289999	200	0	0
-3.93400002	6.78550005	3.89899993	200	0	0
-3.91400003	6.78509998	3.86999989	200	0	0
-3.92199993	6.78539991	3.88700008	200	0	0
-3.93000007	6.78560019	3.91300011	200	0	0
-3.93099999	6.78530073	3.89100003	200	0	0
-3.92499995	6.78539991	3.89599991	200	0	0
-3.93000007	6.78550005	3.91300011	200	0	0
-3.91899991	6.78520012	3.88599992	200	0	0
-3.92700005	6.78530073	3.898	200	0	0
-3.92499995	6.78520012	3.89599991	200	0	0
-3.93899989	6.78609991	3.95600009	200	0	0
-3.94499993	6.78620005	3.98099995	200	0	0
-3.93199992	6.78579998	3.9289999	200	0	0
-3.93899989	6.78590107	3.94000006	200	0	0
-3.93099999	6.78609991	3.96799994	200	0	0
-3.94000006	6.78599977	3.95600009	200	0	0
-3.93000007	6.78579998	3.91300011	200	0	0
-3.93199992	6.78590107	3.9289999	200	0	0
-3.94099998	6.78599977	3.94000006	200	0	0
-3.95099998	6.78640032	3.97600007	200	0	0
-3.96000004	6.78650093	4.00299978	200	0	0
-3.94199991	6.78620005	3.95700002	200	0	0
-3.94899988	6.78640032	3.98300004	200	0	0
-3.95499992	6.78650093	4.01599979	200	0	0
-3.954	6.78650093	4.02400017	200	0	0
-3.93600011	6.78630018	3.97000003	200	0	0
-3.95000005	6.78640032	3.99900007	200	0	0
-3.94700003	6.78630018	3.98200011	200	0	0
-3.954	6.78640032	4.01599979	200	0	0
-3.95799994	6.78640032	4.02600002	200	0	0
-3.94499993	6.78620005	3.97399998	200	0	0
-3.94899988	6.78630018	3.99799991	200	0	0
-3.93099999	6.78609991	3.9289999	200	0	0
-3.93899989	6.78620005	3.94000006	200	0	0
-3.94799995	6.78630018	3.95900011	200	0	0
-3.93400002	6.78599977	3.93000007	200	0	0
-3.93700004	6.78609991	3.93899989	200	0	0
-3.93000007	6.78590107	3.91300011	200	0	0
-3.92700005	6.78560019	3.88899994	200	0	0
-3.93099999	6.78569984	3.898	200	0	0
-3.96499991	6.78669977	4.06799984	200	0	0
-3.95600009	6.78669977	4.0170002	200	0	0
-3.95099998	6.78669977	4.079	200	0	0
-3.95300007	6.78650093	3.98399997	200	0	0
-3.954	6.78669977	4.02400017	200	0	0
-3.95099998	6.78659964	3.99900007	200	0	0
-3.96199989	6.78669977	4.04300022	200	0	0
-3.95499992	6.78669977	4.05600023	200	0	0
-3.95499992	6.78659964	4.01599979	200	0	0
-3.95600009	6.78659964	4.0250001	200	0	0
-3.95600009	6.78659964	4.05700016	200	0	0
-3.95000005	6.78659964	4.03900003	200	0	0
-3.96099997	6.78679991	4.06699991	200	0	0
-3.96300006	6.78679991	4.12400007	200	0	0
-3.96300006	6.78679991	4.08400011	200	0	0
-3.96099997	6.78679991	4.10699987	200	0	0
-3.96099997	6.78679991	4.09899998	200	0	0
-3.95799994	6.78679991	4.13800001	200	0	0
-3.95900011	6.78679991	4.05800009	200	0	0
-3.95900011	6.78679991	4.16300011	200	0	0
-3.96700001	6.78679991	4.1500001	200	0	0
-3.96399999	6.78679991	4.18100023	200	0	0
-3.95499992	6.78679991	4.21799994	200	0	0
-3.96199989	6.78679991	4.18900013	200	0	0
-3.96000004	6.78679991	4.204	200	0	0
-3.94899988	6.78700018	4.17600012	200	0	0
-3.96300006	6.78690004	4.16499996	200	0	0
-3.95499992	6.78700018	4.1869998	200	0	0
-3.95499992	6.78700018	4.20300007	200	0	0
-3.9460001	6.78700018	4.21500015	200	0	0
-3.96300006	6.78690004	4.18200016	200	0	0
-3.96499991	6.78690004	4.19099998	200	0	0
-3.96300006	6.78690004	4.22300005	200	0	0
-3.95499992	6.78679991	4.03999996	200	0	0
-3.94499993	6.78710032	4.15799999	200	0	0
-3.95799994	6.78710032	4.08300018	200	0	0
-3.96099997	6.78710032	4.14099979	200	0	0
-3.96300006	6.78700018	4.06899977	200	0	0
-3.95700002	6.78700018	4.16300011	200	0	0
-3.96300006	6.78710032	4.10900021	200	0	0
-3.94799995	6.78710032	4.09499979	200	0	0
-3.96199989	6.78690004	4.05999994	200	0	0
-3.954	6.78710032	4.12200022	200	0	0
-3.94799995	6.78700018	4.079	200	0	0
-3.95799994	6.78700018	4.14699984	200	0	0
-3.96000004	6.78690004	4.06699991	200	0	0
-3.96300006	6.78700018	4.14099979	200	0	0
-3.97000003	6.78700018	4.11199999	200	0	0
-3.95900011	6.78700018	4.09899998	200	0	0
-3.95600009	6.78700018	4.12200022	200	0	0
-3.96000004	6.78690004	4.08400011	200	0	0
-3.95700002	6.78690004	4.14699984	200	0	0
-3.96000004	6.78690004	4.13999987	200	0	0
-3.95799994	6.78690004	4.09899998	200	0	0
-3.96199989	6.78690004	4.1079998	200	0	0
-3.95900011	6.78690004	4.12300014	200	0	0
-3.95000005	6.78700018	4.05499983	200	0	0
-3.95499992	6.78690004	4.04199982	200	0	0
-3.96700001	6.78710032	4.15100002	200	0	0
-3.95499992	6.78710032	4.20300007	200	0	0
-3.95600009	6.78710032	4.1869998	200	0	0
-3.95799994	6.78710032	4.17999983	200	0	0
-3.95600009	6.78710032	4.21999979	200	0	0
-3.95799994	6.78679991	4.01800013	200	0	0
-3.96300006	6.78679991	4.02799988	200	0	0
-3.9460001	6.78650093	3.97399998	200	0	0
-3.95700002	6.78669977	4.00199986	200	0	0
-3.88700008	6.78419971	3.82299995	200	0	0
-3.88499999	6.78409958	3.82200003	200	0	0
-3.89100003	6.78429985	3.80900002	200	0	0
-3.89199996	6.78429985	3.82500005	200	0	0
-3.90199995	6.78499985	3.84299994	200	0	0
-3.89899993	6.78489971	3.82599998	200	0	0
-3.90499997	6.78499985	3.85100007	200	0	0
-3.90199995	6.78479958	3.8269999	200	0	0
-3.90799999	6.78489971	3.84500003	200	0	0
-3.89599991	6.78489971	3.84800005	200	0	0
-3.90400004	6.78479958	3.84299994	200	0	0
-3.90899992	6.78479958	3.85299993	200	0	0
-3.89599991	6.78460026	3.82500005	200	0	0
-3.90199995	6.78450012	3.8269999	200	0	0
-3.89400005	6.78439999	3.82500005	200	0	0
-3.89899993	6.78460026	3.84200001	200	0	0
-3.92000008	6.78539991	3.84800005	200	0	0
-3.92600012	6.78539991	3.85800004	200	0	0
-3.90400004	6.78509998	3.80500007	200	0	0
-3.92400002	6.78520012	3.81900001	200	0	0
-3.921	6.78539991	3.87100005	200	0	0
-3.90100002	6.78499985	3.8039999	200	0	0
-3.88700008	6.78489971	3.79999995	200	0	0
-3.91100001	6.78509998	3.81500006	200	0	0
-3.92499995	6.78530073	3.85800004	200	0	0
-3.92000008	6.78520012	3.83299994	200	0	0
-3.91000009	6.78499985	3.81500006	200	0	0
-3.91899991	6.78520012	3.84800005	200	0	0
-3.90100002	6.78489971	3.81200004	200	0	0
-3.91400003	6.78509998	3.83100009	200	0	0
-3.91899991	6.78520012	3.85500002	200	0	0
-3.90199995	6.78499985	3.8269999	200	0	0
-3.9059999	6.78509998	3.8440001	200	0	0
-3.91499996	6.78509998	3.85500002	200	0	0
-3.92400002	6.78550005	3.85700011	200	0	0
-3.9289999	6.78569984	3.8900001	200	0	0
-3.92799997	6.78560019	3.87400007	200	0	0
-3.92400002	6.78550005	3.87199998	200	0	0
-3.9230001	6.78539991	3.83400011	200	0	0
-3.91899991	6.78520012	3.80999994	200	0	0
-3.93300009	6.78560019	3.8599999	200	0	0
-3.93099999	6.78569984	3.875	200	0	0
-3.9230001	6.78550005	3.84899998	200	0	0
-3.92199993	6.78550005	3.83299994	200	0	0
-3.92799997	6.78560019	3.85100007	200	0	0
-3.93300009	6.78579998	3.89100003	200	0	0
-3.94000006	6.78579998	3.90100002	200	0	0
-3.9289999	6.78579998	3.87400007	200	0	0
