-7.07800007	6.98049974	0.0649999976	200	0	0
-7.0710001	6.98049974	0.0810000002	200	0	0
-7.05100012	6.98049974	0.142000005	200	0	0
-7.05700016	6.98049974	0.153999999	200	0	0
-7.06799984	6.98049974	0.0270000007	200	0	0
-7.04799986	6.98059988	0.115999997	200	0	0
-7.04799986	6.98059988	0.143000007	200	0	0
-7.05900002	6.98059988	0.152999997	200	0	0
-7.046	6.98059988	0.103	200	0	0
-7.07800007	6.98059988	0.023	200	0	0
-7.07800007	6.98059988	0.0370000005	200	0	0
-7.08300018	6.98059988	0.0769999996	200	0	0
-7.08099985	6.98070002	0.064000003	200	0	0
-7.07499981	6.98070002	0.0790000036	200	0	0
-7.05800009	6.98070002	0.140000001	200	0	0
-7.03999996	6.98070002	0.118000001	200	0	0
-7.05000019	6.98080015	0.101000004	200	0	0
-7.07299995	6.98080015	0.0390000008	200	0	0
-7.07800007	6.98080015	0.0780000016	200	0	0
-7.04400015	6.98080015	0.116999999	200	0	0
-7.0539999	6.98080015	0.155000001	200	0	0
-7.05700016	6.98080015	0.140000001	200	0	0
-7.05000019	6.98090076	0.156000003	200	0	0
-7.05100012	6.98090076	0.142000005	200	0	0
-7.0539999	6.98090076	0.100000001	200	0	0
-7.06099987	6.98090076	0.0700000003	200	0	0
-7.07499981	6.98090076	0.0790000036	200	0	0
-7.05299997	6.98099995	0.100000001	200	0	0
-7.07200003	6.98099995	0.0659999996	200	0	0
-7.08099985	6.98099995	0.0769999996	200	0	0
-7.04899979	6.98099995	0.115000002	200	0	0
-7.0710001	6.98099995	0.149000004	200	0	0
-7.05800009	6.98110008	0.152999997	200	0	0
-7.07800007	6.98110008	0.064000003	200	0	0
-7.04300022	6.98110008	0.116999999	200	0	0
-7.05000019	6.98110008	0.143000007	200	0	0
-7.04899979	6.98119974	0.101999998	200	0	0
-7.06699991	6.98110008	0.0820000023	200	0	0
-7.07800007	6.98110008	0.0370000005	200	0	0
-7.05100012	6.98119974	0.156000003	200	0	0
-7.0630002	6.98119974	0.137999997	200	0	0
-7.07200003	6.98129988	0.0799999982	200	0	0
-7.0710001	6.98119974	0.0390000008	200	0	0
-7.07999992	6.98119974	0.064000003	200	0	0
-7.05900002	6.98129988	0.0979999974	200	0	0
-7.046	6.98129988	0.143999994	200	0	0
-7.06500006	6.98129988	0.150999993	200	0	0
-7.07200003	6.98129988	0.0390000008	200	0	0
-7.07700014	6.98140001	0.0649999976	200	0	0
-7.05800009	6.98140001	0.0989999995	200	0	0
-7.05200005	6.98140001	0.0869999975	200	0	0
-7.05499983	6.98140001	0.114	200	0	0
-7.04199982	6.98140001	0.158999994	200	0	0
-7.05700016	6.98140001	0.140000001	200	0	0
-7.05800009	6.98150063	0.151999995	200	0	0
-7.05800009	6.98150063	0.137999997	200	0	0
-7.06099987	6.98150063	0.0960000008	200	0	0
-7.04899979	6.98150063	0.114	200	0	0
-7.07600021	6.98150063	0.064000003	200	0	0
-7.07200003	6.98150063	0.0370000005	200	0	0
-7.0710001	6.98150063	0.0240000002	200	0	0
-7.07999992	6.98150063	0.0759999976	200	0	0
-7.05499983	6.98159981	0.0979999974	200	0	0
-7.07299995	6.98159981	0.0240000002	200	0	0
-7.079	6.98159981	0.0350000001	200	0	0
-7.07600021	6.98159981	0.0780000016	200	0	0
-7.08300018	6.98159981	0.0610000007	200	0	0
-7.07399988	6.98169994	0.0799999982	200	0	0
-7.04500008	6.98159981	0.115000002	200	0	0
-7.05600023	6.98159981	0.152999997	200	0	0
-7.05700016	6.98159981	0.138999999	200	0	0
-7.05200005	6.98169994	0.142000005	200	0	0
-7.06599998	6.98169994	0.0689999983	200	0	0
-7.04300022	6.98169994	0.116999999	200	0	0
-7.05000019	6.98169994	0.101999998	200	0	0
-7.07600021	6.98169994	0.0240000002	200	0	0
-7.07399988	6.98169994	0.0379999988	200	0	0
-7.05000019	6.98169994	0.156000003	200	0	0
-7.05800009	6.98180008	0.140000001	200	0	0
-7.05299997	6.98180008	0.114	200	0	0
-7.06400013	6.98180008	0.150999993	200	0	0
-7.0539999	6.98190022	0.100000001	200	0	0
-7.07999992	6.98180008	0.064000003	200	0	0
-7.05700016	6.98190022	0.140000001	200	0	0
-7.08300018	6.98190022	0.0759999976	200	0	0
-7.07000017	6.98190022	0.0670000017	200	0	0
-7.04799986	6.98190022	0.115999997	200	0	0
-7.05800009	6.98190022	0.153999999	200	0	0
-7.0539999	6.98200035	0.114	200	0	0
-7.06400013	6.98200035	0.137999997	200	0	0
-7.06899977	6.98200035	0.150000006	200	0	0
-7.05800009	6.98200035	0.0989999995	200	0	0
-7.08300018	6.98200035	0.0769999996	200	0	0
-7.08300018	6.98200035	0.063000001	200	0	0
-7.05200005	6.98210001	0.143000007	200	0	0
-7.04799986	6.98210001	0.116999999	200	0	0
-7.05000019	6.98219967	0.157000005	200	0	0
-7.0630002	6.98210001	0.152999997	200	0	0
-7.0630002	6.98219967	0.0979999974	200	0	0
-7.07999992	6.98219967	0.0649999976	200	0	0
-7.079	6.98219967	0.0790000036	200	0	0
-7.07399988	6.98210001	0.0399999991	200	0	0
-7.08099985	6.98210001	0.0649999976	200	0	0
-7.06599998	6.9822998	0.0970000029	200	0	0
-7.0619998	6.9822998	0.0850000009	200	0	0
-7.08599997	6.9822998	0.063000001	200	0	0
-7.04899979	6.9822998	0.116999999	200	0	0
-7.05600023	6.98239994	0.114	200	0	0
-7.06099987	6.9822998	0.153999999	200	0	0
-7.05000019	6.9822998	0.143999994	200	0	0
-7.0539999	6.98239994	0.143000007	200	0	0
-7.0619998	6.98239994	0.153999999	200	0	0
-7.05700016	6.98239994	0.101000004	200	0	0
-7.07299995	6.98239994	0.0680000037	200	0	0
-7.08199978	6.98239994	0.0780000016	200	0	0
-7.07700014	6.98239994	0.0390000008	200	0	0
-7.07600021	6.98250008	0.0799999982	200	0	0
-7.05299997	6.98250008	0.101999998	200	0	0
-7.05299997	6.98260021	0.101999998	200	0	0
-7.0630002	6.98260021	0.0710000023	200	0	0
-7.08300018	6.98260021	0.0780000016	200	0	0
-7.05200005	6.98250008	0.157000005	200	0	0
-7.05499983	6.98250008	0.142000005	200	0	0
-7.04899979	6.98260021	0.116999999	200	0	0
-7.06699991	6.98260021	0.151999995	200	0	0
-7.0539999	6.98260021	0.143000007	200	0	0
-7.05299997	6.98270035	0.101999998	200	0	0
-7.05100012	6.98270035	0.115999997	200	0	0
-7.0619998	6.98270035	0.153999999	200	0	0
-7.04899979	6.98270035	0.143999994	200	0	0
-7.07299995	6.98270035	0.0810000002	200	0	0
-7.05200005	6.98280096	0.143000007	200	0	0
-7.07200003	6.98280096	0.0680000037	200	0	0
-7.04699993	6.98280096	0.118000001	200	0	0
-7.08199978	6.98270035	0.064000003	200	0	0
-7.05499983	6.98280096	0.101000004	200	0	0
-7.05499983	6.98280096	0.156000003	200	0	0
-7.04799986	6.98289967	0.116999999	200	0	0
-7.06099987	6.98289967	0.153999999	200	0	0
-7.0630002	6.98289967	0.138999999	200	0	0
-7.06400013	6.98289967	0.0979999974	200	0	0
-7.06899977	6.9829998	0.151999995	200	0	0
-7.08699989	6.98289967	0.063000001	200	0	0
-7.05700016	6.9829998	0.115000002	200	0	0
-7.05800009	6.9829998	0.142000005	200	0	0
-7.06400013	6.9829998	0.0989999995	200	0	0
-7.05499983	6.98309994	0.143000007	200	0	0
-7.05499983	6.98309994	0.157000005	200	0	0
-7.07800007	6.98309994	0.0670000017	200	0	0
-7.05499983	6.98309994	0.101999998	200	0	0
-7.08400011	6.9829998	0.0649999976	200	0	0
-7.07600021	6.98309994	0.0399999991	200	0	0
-7.06500006	6.98320007	0.112999998	200	0	0
-7.07200003	6.98320007	0.0829999968	200	0	0
-7.05000019	6.98320007	0.144999996	200	0	0
-7.03299999	6.98320007	0.164000005	200	0	0
-7.046	6.98330021	0.145999998	200	0	0
-7.05299997	6.98330021	0.103	200	0	0
-7.04699993	6.98330021	0.119000003	200	0	0
-7.04699993	6.98330021	0.159999996	200	0	0
-7.07700014	6.98330021	0.0670000017	200	0	0
-7.08199978	6.98330021	0.0790000036	200	0	0
-7.05499983	6.98340082	0.115999997	200	0	0
-7.05499983	6.98340082	0.101999998	200	0	0
-7.08599997	6.98340082	0.0649999976	200	0	0
-7.05700016	6.98340082	0.143000007	200	0	0
-7.05600023	6.98349953	0.143000007	200	0	0
-7.06699991	6.98340082	0.152999997	200	0	0
-7.07299995	6.98349953	0.0829999968	200	0	0
-7.06099987	6.98349953	0.114	200	0	0
-7.08400011	6.98349953	0.0649999976	200	0	0
-7.08300018	6.98359966	0.0790000036	200	0	0
-7.04899979	6.98359966	0.118000001	200	0	0
-7.06899977	6.98349953	0.151999995	200	0	0
-7.05499983	6.98359966	0.143000007	200	0	0
-7.07700014	6.98359966	0.0670000017	200	0	0
-7.0710001	6.98359966	0.0970000029	200	0	0
-7.05999994	6.98359966	0.155000001	200	0	0
-7.0539999	6.9836998	0.115999997	200	0	0
-7.05700016	6.9836998	0.156000003	200	0	0
-7.05299997	6.9836998	0.143999994	200	0	0
-7.06099987	6.9836998	0.100000001	200	0	0
-7.08400011	6.9836998	0.0790000036	200	0	0
-7.08500004	6.9836998	0.0649999976	200	0	0
-7.07299995	6.98379993	0.151999995	200	0	0
-7.06500006	6.98379993	0.141000003	200	0	0
-7.0619998	6.98379993	0.101000004	200	0	0
-7.05600023	6.98379993	0.116999999	200	0	0
-7.04899979	6.98390007	0.119000003	200	0	0
-7.05299997	6.98390007	0.158999994	200	0	0
-7.05600023	6.98390007	0.143999994	200	0	0
-7.05499983	6.98390007	0.103	200	0	0
-7.04799986	6.98400068	0.119999997	200	0	0
-7.07000017	6.98400068	0.152999997	200	0	0
-7.0619998	6.98400068	0.142000005	200	0	0
-7.07800007	6.98409986	0.0680000037	200	0	0
-7.08099985	6.98400068	0.0810000002	200	0	0
-7.079	6.98400068	0.0680000037	200	0	0
-7.06699991	6.98409986	0.153999999	200	0	0
-7.05900002	6.98409986	0.143000007	200	0	0
-7.07499981	6.98409986	0.0970000029	200	0	0
-7.05200005	6.9842	0.144999996	200	0	0
-7.06099987	6.9842	0.156000003	200	0	0
-7.08199978	6.9842	0.0799999982	200	0	0
-7.05600023	6.98430014	0.158000007	200	0	0
-7.05499983	6.98430014	0.143999994	200	0	0
-7.05299997	6.98430014	0.118000001	200	0	0
-7.08500004	6.9843998	0.0659999996	200	0	0
-7.08400011	6.98430014	0.0659999996	200	0	0
-7.06099987	6.9843998	0.142000005	200	0	0
-7.06599998	6.9843998	0.112999998	200	0	0
-7.09200001	6.9843998	0.0769999996	200	0	0
-7.07299995	6.98449993	0.0970000029	200	0	0
-7.09200001	6.98449993	0.063000001	200	0	0
-7.09200001	6.98449993	0.0769999996	200	0	0
-7.05700016	6.98449993	0.157000005	200	0	0
-7.06099987	6.98449993	0.142000005	200	0	0
-7.05600023	6.98449993	0.116999999	200	0	0
-7.07600021	6.98460007	0.0820000023	200	0	0
-7.05999994	6.98460007	0.156000003	200	0	0
-7.07999992	6.98460007	0.0949999988	200	0	0
-7.05600023	6.98460007	0.143999994	200	0	0
-7.04699993	6.98460007	0.119999997	200	0	0
-7.05200005	6.98469973	0.144999996	200	0	0
-7.07800007	6.98460007	0.0680000037	200	0	0
-7.08400011	6.98460007	0.0390000008	200	0	0
-7.05999994	6.98469973	0.115000002	200	0	0
-7.0630002	6.98469973	0.155000001	200	0	0
-7.08300018	6.98469973	0.0670000017	200	0	0
-7.07600021	6.98469973	0.0820000023	200	0	0
-7.08099985	6.98469973	0.0949999988	200	0	0
-7.05600023	6.98479986	0.116999999	200	0	0
-7.05700016	6.98479986	0.157000005	200	0	0
-7.05800009	6.98479986	0.143000007	200	0	0
-7.08699989	6.98479986	0.0790000036	200	0	0
-7.04699993	6.9849	0.160999998	200	0	0
-7.05800009	6.9849	0.143000007	200	0	0
-7.0630002	6.9849	0.101000004	200	0	0
-7.05900002	6.9849	0.115999997	200	0	0
-7.07299995	6.98500013	0.151999995	200	0	0
-7.09000015	6.98500013	0.0920000002	200	0	0
-7.08900023	6.98500013	0.0780000016	200	0	0
-7.08500004	6.98500013	0.0659999996	200	0	0
-7.08199978	6.9849	0.0390000008	200	0	0
-7.09200001	6.9849	0.063000001	200	0	0
-7.07999992	6.9849	0.0810000002	200	0	0
-7.08900023	6.98479986	0.064000003	200	0	0
-7.05700016	6.98500013	0.115999997	200	0	0
-7.04799986	6.98500013	0.147	200	0	0
-7.07399988	6.98510027	0.111000001	200	0	0
-7.07999992	6.98510027	0.150000006	200	0	0
-7.04799986	6.98510027	0.147	200	0	0
-7.06599998	6.98510027	0.0719999969	200	0	0
-7.08500004	6.98510027	0.0930000022	200	0	0
-7.09200001	6.98510027	0.0769999996	200	0	0
-7.06899977	6.98520041	0.155000001	200	0	0
-7.05200005	6.98520041	0.147	200	0	0
-7.07399988	6.98520041	0.0979999974	200	0	0
-7.08500004	6.98539972	0.0670000017	200	0	0
-7.06400013	6.98530102	0.101999998	200	0	0
-7.08400011	6.98530102	0.0810000002	200	0	0
-7.079	6.98530102	0.0689999983	200	0	0
-7.09100008	6.98520041	0.0370000005	200	0	0
-7.08199978	6.98520041	0.0680000037	200	0	0
-7.08900023	6.98510027	0.0370000005	200	0	0
-7.05999994	6.98530102	0.115999997	200	0	0
-7.06799984	6.98530102	0.155000001	200	0	0
-7.06500006	6.98530102	0.142000005	200	0	0
-7.08300018	6.98539972	0.0810000002	200	0	0
-7.06899977	6.98539972	0.100000001	200	0	0
-7.09200001	6.98549986	0.064000003	200	0	0
-7.06699991	6.98539972	0.142000005	200	0	0
-7.05900002	6.98539972	0.158000007	200	0	0
-7.08500004	6.98549986	0.0949999988	200	0	0
-7.08699989	6.98549986	0.0799999982	200	0	0
-7.07399988	6.98549986	0.152999997	200	0	0
-7.06400013	6.98549986	0.143000007	200	0	0
-7.05600023	6.98559999	0.118000001	200	0	0
-7.06799984	6.98559999	0.155000001	200	0	0
-7.06799984	6.98559999	0.141000003	200	0	0
-7.06400013	6.98559999	0.101999998	200	0	0
-7.07700014	6.98559999	0.0700000003	200	0	0
-7.07000017	6.98570013	0.153999999	200	0	0
-7.05299997	6.98570013	0.145999998	200	0	0
-7.06099987	6.98570013	0.101999998	200	0	0
-7.04899979	6.98570013	0.119999997	200	0	0
-7.08400011	6.98570013	0.0670000017	200	0	0
-7.08500004	6.98570013	0.0810000002	200	0	0
-7.06400013	6.98580027	0.143000007	200	0	0
-7.0619998	6.98580027	0.157000005	200	0	0
-7.06599998	6.98580027	0.101000004	200	0	0
-7.05600023	6.98580027	0.118000001	200	0	0
-7.09000015	6.98580027	0.0790000036	200	0	0
-7.0630002	6.98590088	0.143000007	200	0	0
-7.06500006	6.98590088	0.156000003	200	0	0
-7.08900023	6.98590088	0.0649999976	200	0	0
-7.08699989	6.98590088	0.0799999982	200	0	0
-7.08599997	6.98590088	0.0939999968	200	0	0
-7.07800007	6.98599958	0.150999993	200	0	0
-7.08699989	6.98599958	0.0799999982	200	0	0
-7.06400013	6.98599958	0.142000005	200	0	0
-7.05999994	6.98599958	0.103	200	0	0
-7.08199978	6.98599958	0.0680000037	200	0	0
-7.06699991	6.98619986	0.155000001	200	0	0
-7.05700016	6.98609972	0.116999999	200	0	0
-7.046	6.98609972	0.148000002	200	0	0
-7.05499983	6.98609972	0.158999994	200	0	0
-7.09299994	6.98609972	0.064000003	200	0	0
-7.08599997	6.98609972	0.0799999982	200	0	0
-7.0630002	6.98629999	0.101999998	200	0	0
-7.06699991	6.98619986	0.114	200	0	0
-7.0710001	6.98629999	0.0850000009	200	0	0
-7.09100008	6.98629999	0.064000003	200	0	0
-7.08099985	6.98619986	0.0960000008	200	0	0
-7.08599997	6.98619986	0.0799999982	200	0	0
-7.08699989	6.98619986	0.0659999996	200	0	0
-7.05800009	6.98619986	0.143999994	200	0	0
-7.06400013	6.98629999	0.142000005	200	0	0
-7.05499983	6.98629999	0.118000001	200	0	0
-7.08300018	6.98640013	0.0949999988	200	0	0
-7.08500004	6.98640013	0.0799999982	200	0	0
-7.0619998	6.98629999	0.157000005	200	0	0
-7.0619998	6.98640013	0.115999997	200	0	0
-7.05000019	6.98640013	0.160999998	200	0	0
-7.07399988	6.98640013	0.138999999	200	0	0
-7.05499983	6.98659992	0.118000001	200	0	0
-7.07700014	6.98650074	0.0829999968	200	0	0
-7.07000017	6.98650074	0.153999999	200	0	0
-7.07600021	6.98650074	0.137999997	200	0	0
-7.05999994	6.98650074	0.103	200	0	0
-7.05499983	6.98650074	0.118000001	200	0	0
-7.08599997	6.98650074	0.0659999996	200	0	0
-7.0539999	6.98659992	0.145999998	200	0	0
-7.0619998	6.98659992	0.157000005	200	0	0
-7.0710001	6.98659992	0.0989999995	200	0	0
-7.08900023	6.98659992	0.0649999976	200	0	0
-7.05700016	6.98670006	0.158000007	200	0	0
-7.0710001	6.98670006	0.140000001	200	0	0
-7.08599997	6.98670006	0.0659999996	200	0	0
-7.09000015	6.98670006	0.0790000036	200	0	0
-7.07399988	6.98670006	0.0979999974	200	0	0
-7.06500006	6.98689985	0.142000005	200	0	0
-7.0630002	6.98679972	0.101999998	200	0	0
-7.08400011	6.98679972	0.163000003	200	0	0
-7.0619998	6.98679972	0.115999997	200	0	0
-7.06899977	6.98679972	0.153999999	200	0	0
-7.06099987	6.98679972	0.143000007	200	0	0
-7.08799982	6.98689985	0.0649999976	200	0	0
-7.09000015	6.98679972	0.0649999976	200	0	0
-7.08400011	6.98689985	0.0810000002	200	0	0
-7.05800009	6.98689985	0.158000007	200	0	0
-7.06400013	6.98689985	0.101000004	200	0	0
-7.05600023	6.98710012	0.116999999	200	0	0
-7.07399988	6.98699999	0.111000001	200	0	0
-7.06899977	6.98710012	0.140000001	200	0	0
-7.0710001	6.98710012	0.153999999	200	0	0
-7.05700016	6.98699999	0.143999994	200	0	0
-7.06500006	6.98699999	0.156000003	200	0	0
-7.08199978	6.98699999	0.0949999988	200	0	0
-7.09100008	6.98699999	0.0370000005	200	0	0
-7.09000015	6.98699999	0.0790000036	200	0	0
-7.09499979	6.98699999	0.063000001	200	0	0
-7.08599997	6.98719978	0.0659999996	200	0	0
-7.06599998	6.98719978	0.142000005	200	0	0
-7.079	6.98719978	0.0820000023	200	0	0
-7.09200001	6.98710012	0.064000003	200	0	0
-7.08599997	6.98719978	0.0939999968	200	0	0
-7.08599997	6.98710012	0.0799999982	200	0	0
-7.08799982	6.98710012	0.0930000022	200	0	0
-7.09100008	6.98729992	0.064000003	200	0	0
-7.07299995	6.98719978	0.152999997	200	0	0
-7.08199978	6.98740005	0.0949999988	200	0	0
-7.07000017	6.98729992	0.112999998	200	0	0
-7.09000015	6.98729992	0.0790000036	200	0	0
-7.08799982	6.98729992	0.0930000022	200	0	0
-7.0630002	6.98740005	0.115000002	200	0	0
-7.07000017	6.98729992	0.153999999	200	0	0
-7.07299995	6.98729992	0.138999999	200	0	0
-7.07200003	6.98750019	0.152999997	200	0	0
-7.08400011	6.98750019	0.0949999988	200	0	0
-7.09100008	6.98740005	0.0780000016	200	0	0
-7.07499981	6.98750019	0.137999997	200	0	0
-7.07800007	6.98750019	0.109999999	200	0	0
-7.07700014	6.98740005	0.150999993	200	0	0
-7.0710001	6.98740005	0.140000001	200	0	0
-7.09399986	6.98729992	0.0359999985	200	0	0
-7.09000015	6.98750019	0.0649999976	200	0	0
-7.09499979	6.98750019	0.0769999996	200	0	0
-7.08500004	6.98750019	0.0390000008	200	0	0
-7.07700014	6.98760033	0.137999997	200	0	0
-7.0539999	6.98760033	0.158999994	200	0	0
-7.08599997	6.98760033	0.0799999982	200	0	0
-7.08400011	6.98760033	0.0670000017	200	0	0
-7.07499981	6.98769999	0.0839999989	200	0	0
-7.08799982	6.98769999	0.0930000022	200	0	0
-7.06599998	6.98780107	0.114	200	0	0
-7.07000017	6.98780107	0.153999999	200	0	0
-7.07000017	6.98780107	0.140000001	200	0	0
-7.07200003	6.98769999	0.112000003	200	0	0
-7.07600021	6.98769999	0.151999995	200	0	0
-7.0710001	6.98769999	0.140000001	200	0	0
-7.09100008	6.98780107	0.0920000002	200	0	0
-7.0539999	6.98799992	0.158999994	200	0	0
-7.08199978	6.98799992	0.0949999988	200	0	0
-7.08199978	6.98799992	0.108999997	200	0	0
-7.07000017	6.98799992	0.140000001	200	0	0
-7.08900023	6.98789978	0.0930000022	200	0	0
-7.07999992	6.98789978	0.150000006	200	0	0
-7.06799984	6.98789978	0.141000003	200	0	0
-7.0630002	6.98789978	0.115000002	200	0	0
-7.079	6.98799992	0.0410000011	200	0	0
-7.08199978	6.98799992	0.0810000002	200	0	0
-7.08799982	6.98799992	0.0649999976	200	0	0
-7.05299997	6.98810005	0.145999998	200	0	0
-7.079	6.98830032	0.136000007	200	0	0
-7.06799984	6.98840094	0.0299999993	200	0	0
-7.07600021	6.98799992	-0.0410000011	200	0	0
-7.08900023	6.98859978	0.104999997	200	0	0
-7.09700012	6.98859978	0.0879999995	200	0	0
-7.08699989	6.98869991	0.147	200	0	0
-7.09299994	6.98869991	0.104000002	200	0	0
-7.07499981	6.98859978	0.150999993	200	0	0
-7.06899977	6.98880005	0.152999997	200	0	0
-7.07600021	6.98880005	0.108999997	200	0	0
-7.07499981	6.98880005	0.136999995	200	0	0
-7.08300018	6.98880005	0.0379999988	200	0	0
-7.09499979	6.98880005	0.061999999	200	0	0
-7.1079998	6.98880005	0.0710000023	200	0	0
-7.09700012	6.98880005	0.0890000015	200	0	0
-7.07700014	6.98789978	-0.0549999997	200	0	0
-7.0619998	6.98880005	0.0320000015	200	0	0
-7.07800007	6.98929977	0.136000007	200	0	0
-7.10599995	6.9890995	0.0850000009	200	0	0
-7.09000015	6.98919964	0.104999997	200	0	0
-7.07299995	6.98919964	0.150999993	200	0	0
-7.08400011	6.98919964	0.134000003	200	0	0
-7.09399986	6.9890995	0.103	200	0	0
-7.0999999	6.9890995	0.128999993	200	0	0
-7.10599995	6.98929977	0.0299999993	200	0	0
-7.09499979	6.98919964	0.075000003	200	0	0
-7.08099985	6.98929977	0.0109999999	200	0	0
-7.08199978	6.98929977	0.0250000004	200	0	0
-7.09899998	6.98919964	0.0599999987	200	0	0
-7.1079998	6.9890995	0.0710000023	200	0	0
-7.09899998	6.98919964	0.0189999994	200	0	0
-7.09399986	6.98919964	0.0340000018	200	0	0
-7.08199978	6.9890995	0.0250000004	200	0	0
-7.09399986	6.98799992	-0.0610000007	200	0	0
-7.06400013	6.98929977	0.153999999	200	0	0
-7.10699987	6.98929977	0.0579999983	200	0	0
-7.09800005	6.98929977	0.0879999995	200	0	0
-7.10200024	6.98929977	0.101000004	200	0	0
-7.09200001	6.98919964	0.0900000036	200	0	0
-7.1079998	6.98979998	0.0710000023	200	0	0
-7.09800005	6.99009991	0.0879999995	200	0	0
-7.11000013	6.98990011	0.0700000003	200	0	0
-7.10099983	6.98979998	0.0590000004	200	0	0
-7.08199978	6.99020004	0.149000004	200	0	0
-7.10599995	6.98999977	0.0850000009	200	0	0
-7.08699989	6.99020004	0.133000001	200	0	0
-7.11399984	6.98990011	0.0829999968	200	0	0
-7.079	6.99009991	0.108000003	200	0	0
-7.07600021	6.99009991	0.150000006	200	0	0
-7.08699989	6.99009991	0.133000001	200	0	0
-7.10599995	6.98979998	0.0850000009	200	0	0
-7.08599997	6.98999977	0.105999999	200	0	0
-7.09899998	6.98990011	0.101999998	200	0	0
-7.08400011	6.98999977	0.148000002	200	0	0
-7.07499981	6.98999977	0.136999995	200	0	0
-7.09499979	6.98979998	0.103	200	0	0
-7.08500004	6.98990011	0.147	200	0	0
-7.07299995	6.98990011	0.137999997	200	0	0
-7.08799982	6.98979998	0.145999998	200	0	0
-7.079	6.98979998	0.136000007	200	0	0
-7.11100006	6.99020004	0.0700000003	200	0	0
-7.11399984	6.99020004	0.0549999997	200	0	0
-7.10599995	6.99020004	0.0989999995	200	0	0
-7.09100008	6.99020004	0.0909999982	200	0	0
-7.08599997	6.99039984	0.147	200	0	0
-7.10300016	6.99070024	0.0309999995	200	0	0
-7.08300018	6.99049997	0.134000003	200	0	0
-7.08300018	6.99030113	0.148000002	200	0	0
-7.10200024	6.99070024	0.100000001	200	0	0
-7.11800003	6.99070024	0.0540000014	200	0	0
-7.1079998	6.99070024	0.0850000009	200	0	0
-7.11299992	6.99070024	0.0689999983	200	0	0
-7.09200001	6.99039984	0.130999997	200	0	0
-7.10200024	6.99060011	0.100000001	200	0	0
-7.10599995	6.99060011	0.0850000009	200	0	0
-7.10400009	6.99060011	0.0579999983	200	0	0
-7.09700012	6.99060011	0.075000003	200	0	0
-7.09800005	6.99030113	0.128999993	200	0	0
-7.09899998	6.99049997	0.101999998	200	0	0
-7.11199999	6.99049997	0.0560000017	200	0	0
-7.11399984	6.99049997	0.0829999968	200	0	0
-7.10200024	6.99049997	0.0729999989	200	0	0
-7.09299994	6.99039984	0.104000002	200	0	0
-7.11499977	6.99039984	0.0549999997	200	0	0
-7.10599995	6.99039984	0.0850000009	200	0	0
-7.09800005	6.99030113	0.0879999995	200	0	0
-7.10099983	6.99030113	0.0590000004	200	0	0
-7.11199999	6.99030113	0.0700000003	200	0	0
-7.09200001	6.9909997	0.129999995	200	0	0
-7.11899996	6.9909997	0.0520000011	200	0	0
-7.09100008	6.99090099	0.143999994	200	0	0
-7.09399986	6.99090099	0.0329999998	200	0	0
-7.11899996	6.9909997	0.0659999996	200	0	0
-7.10699987	6.9909997	0.0970000029	200	0	0
-7.10300016	6.9909997	0.0850000009	200	0	0
-7.09899998	6.99090099	0.128000006	200	0	0
-7.09800005	6.99080038	0.143000007	200	0	0
-7.11299992	6.99090099	0.0540000014	200	0	0
-7.079	6.99070024	0.149000004	200	0	0
-7.12099981	6.99090099	0.0649999976	200	0	0
-7.09399986	6.99080038	0.130999997	200	0	0
-7.11100006	6.99090099	0.0960000008	200	0	0
-7.10500002	6.99090099	0.0839999989	200	0	0
-7.07200003	6.99049997	0.151999995	200	0	0
-7.08799982	6.99060011	0.145999998	200	0	0
-7.11100006	6.99080038	0.0700000003	200	0	0
-7.11899996	6.99080038	0.0810000002	200	0	0
-7.09299994	6.99080038	0.104000002	200	0	0
-7.09200001	6.99060011	0.130999997	200	0	0
-7.09299994	6.99109983	0.129999995	200	0	0
-7.10200024	6.99109983	0.153999999	200	0	0
-7.09299994	6.99109983	0.143000007	200	0	0
-7.11399984	6.9909997	0.150000006	200	0	0
-7.08500004	6.9909997	0.145999998	200	0	0
-7.08199978	6.99080038	0.162	200	0	0
-7.09600019	6.99109983	0.101000004	200	0	0
-7.10900021	6.99109983	0.0549999997	200	0	0
-7.10500002	6.9909997	0.0289999992	200	0	0
-7.11000013	6.99109983	0.0689999983	200	0	0
-7.10699987	6.99119997	0.0970000029	200	0	0
-7.07200003	6.99130011	0.177000001	200	0	0
-7.10200024	6.99130011	0.127000004	200	0	0
-7.07999992	6.99130011	0.160999998	200	0	0
-7.08400011	6.99130011	0.145999998	200	0	0
-7.10900021	6.99119997	0.151999995	200	0	0
-7.10400009	6.99119997	0.140000001	200	0	0
-7.08500004	6.99119997	0.131999999	200	0	0
-7.1170001	6.99150085	0.0799999982	200	0	0
-7.11899996	6.99140024	0.0930000022	200	0	0
-7.11600018	6.99159956	0.0529999994	200	0	0
-7.10599995	6.99159956	0.0149999997	200	0	0
-7.11199999	6.99150085	0.0680000037	200	0	0
-7.11299992	6.99130011	0.0949999988	200	0	0
-7.1170001	6.99140024	0.0799999982	200	0	0
-7.11499977	6.99150085	0.0529999994	200	0	0
-7.11800003	6.99140024	0.0659999996	200	0	0
-7.11499977	6.99130011	0.0810000002	200	0	0
-7.11399984	6.99119997	0.0810000002	200	0	0
-7.11499977	6.99130011	0.0529999994	200	0	0
-7.11499977	6.99119997	0.0670000017	200	0	0
-7.12300014	6.99119997	0.050999999	200	0	0
-7.09399986	6.99140024	0.143000007	200	0	0
-7.09000015	6.99140024	0.129999995	200	0	0
-7.0999999	6.99159956	0.141000003	200	0	0
-7.11399984	6.99159956	0.122000001	200	0	0
-7.1170001	6.99159956	0.0799999982	200	0	0
-7.09600019	6.99150085	0.142000005	200	0	0
-7.09299994	6.99150085	0.128999993	200	0	0
-7.10500002	6.99150085	0.0979999974	200	0	0
-7.08900023	6.99189997	0.158000007	200	0	0
-7.10699987	6.99179983	0.0829999968	200	0	0
-7.09100008	6.99189997	0.129999995	200	0	0
-7.10300016	6.99179983	0.0989999995	200	0	0
-7.10099983	6.9916997	0.0860000029	200	0	0
-7.11399984	6.9916997	0.0949999988	200	0	0
-7.0999999	6.99179983	0.141000003	200	0	0
-7.1079998	6.9916997	0.151999995	200	0	0
-7.10400009	6.9916997	0.140000001	200	0	0
-7.09700012	6.9916997	0.128000006	200	0	0
-7.11999989	6.99189997	0.0930000022	200	0	0
-7.10599995	6.99189997	0.0839999989	200	0	0
-7.11199999	6.99189997	0.0680000037	200	0	0
-7.11800003	6.99189997	0.0520000011	200	0	0
-7.11399984	6.99179983	0.0670000017	200	0	0
-7.10599995	6.9916997	0.0280000009	200	0	0
-7.11100006	6.9916997	0.0540000014	200	0	0
-7.10099983	6.9920001	0.0989999995	200	0	0
-7.11199999	6.9920001	0.123000003	200	0	0
-7.10300016	6.9920001	0.140000001	200	0	0
-7.11800003	6.9920001	0.0799999982	200	0	0
-7.11399984	6.9920001	0.0529999994	200	0	0
-7.10599995	6.99210024	0.138999999	200	0	0
-7.09800005	6.99210024	0.128000006	200	0	0
-7.10599995	6.99210024	0.0839999989	200	0	0
-7.10699987	6.99210024	0.0970000029	200	0	0
-7.08699989	6.9921999	0.144999996	200	0	0
-7.11199999	6.99210024	0.150999993	200	0	0
-7.12599993	6.9921999	0.0909999982	200	0	0
-7.11800003	6.99249983	0.0799999982	200	0	0
-7.09200001	6.99230003	0.129999995	200	0	0
-7.11800003	6.99239969	0.0520000011	200	0	0
-7.12400007	6.99239969	0.0909999982	200	0	0
-7.12099981	6.99239969	0.0790000036	200	0	0
-7.125	6.99230003	0.0500000007	200	0	0
-7.10500002	6.99230003	0.0979999974	200	0	0
-7.11899996	6.99230003	0.0790000036	200	0	0
-7.1170001	6.9921999	0.0659999996	200	0	0
-7.11800003	6.9921999	0.0799999982	200	0	0
-7.11000013	6.99249983	0.0960000008	200	0	0
-7.11600018	6.99249983	0.0529999994	200	0	0
-7.09600019	6.99230003	0.142000005	200	0	0
-7.09299994	6.99249983	0.128999993	200	0	0
-7.1079998	6.99249983	0.137999997	200	0	0
-7.10699987	6.99239969	0.137999997	200	0	0
-7.11899996	6.99280071	0.133000001	200	0	0
-7.11399984	6.9927001	0.120999999	200	0	0
-7.11000013	6.9927001	0.136000007	200	0	0
-7.11600018	6.99259996	0.120999999	200	0	0
-7.09499979	6.99259996	0.141000003	200	0	0
-7.13199997	6.9927001	0.074000001	200	0	0
-7.1329999	6.9927001	0.0869999975	200	0	0
-7.11899996	6.99259996	0.0920000002	200	0	0
-7.11499977	6.99259996	0.0790000036	200	0	0
-7.12599993	6.99280071	0.061999999	200	0	0
-7.1170001	6.99280071	0.0790000036	200	0	0
-7.11899996	6.99280071	0.0920000002	200	0	0
-7.13199997	6.99289989	0.074000001	200	0	0
-7.11199999	6.99289989	0.135000005	200	0	0
-7.12200022	6.99289989	0.118000001	200	0	0
-7.125	6.99289989	0.0900000036	200	0	0
-7.10200024	6.99300003	0.138999999	200	0	0
-7.12699986	6.99289989	0.0480000004	200	0	0
-7.13000011	6.99289989	0.0599999987	200	0	0
-7.09000015	6.99300003	0.156000003	200	0	0
-7.11399984	6.99300003	0.120999999	200	0	0
-7.12099981	6.99300003	0.0500000007	200	0	0
-7.12900019	6.99300003	0.0610000007	200	0	0
-7.12799978	6.99300003	0.0890000015	200	0	0
-7.11999989	6.99300003	0.0780000016	200	0	0
-7.09899998	6.99310017	0.140000001	200	0	0
-7.125	6.99310017	0.0480000004	200	0	0
-7.13000011	6.99310017	0.0599999987	200	0	0
-7.12699986	6.99310017	0.0890000015	200	0	0
-7.125	6.99340105	0.116999999	200	0	0
-7.12599993	6.99340105	0.0480000004	200	0	0
-7.13700008	6.99340105	0.0579999983	200	0	0
-7.13899994	6.99340105	0.0710000023	200	0	0
-7.13199997	6.99340105	0.0869999975	200	0	0
-7.11100006	6.9932003	0.136000007	200	0	0
-7.13100004	6.99329996	0.0879999995	200	0	0
-7.11199999	6.9932003	0.120999999	200	0	0
-7.12300014	6.99329996	0.0769999996	200	0	0
-7.12599993	6.9932003	0.0480000004	200	0	0
-7.13600016	6.9932003	0.0579999983	200	0	0
-7.13500023	6.9932003	0.0860000029	200	0	0
-7.125	6.9932003	0.0759999976	200	0	0
-7.11100006	6.99329996	0.149000004	200	0	0
-7.10699987	6.99340105	0.150999993	200	0	0
-7.12099981	6.99370003	0.0909999982	200	0	0
-7.12599993	6.99359989	0.075000003	200	0	0
-7.13700008	6.99370003	0.112999998	200	0	0
-7.1329999	6.99359989	0.0869999975	200	0	0
-7.13000011	6.99349976	0.074000001	200	0	0
-7.11000013	6.99370003	0.150000006	200	0	0
-7.11299992	6.99370003	0.135000005	200	0	0
-7.13500023	6.99349976	0.0860000029	200	0	0
-7.1170001	6.99359989	0.119999997	200	0	0
-7.11399984	6.99359989	0.135000005	200	0	0
-7.13000011	6.99340105	0.184	200	0	0
-7.09499979	6.99349976	0.155000001	200	0	0
-7.125	6.99349976	0.116999999	200	0	0
-7.11600018	6.99349976	0.134000003	200	0	0
-7.13100004	6.99370003	0.074000001	200	0	0
-7.12599993	6.99349976	0.0480000004	200	0	0
-7.13100004	6.99349976	0.0599999987	200	0	0
-7.11800003	6.99370003	0.064000003	200	0	0
-7.13000011	6.99380016	0.0450000018	200	0	0
-7.13999987	6.99380016	0.0560000017	200	0	0
-7.1329999	6.99380016	0.0860000029	200	0	0
-7.125	6.99380016	0.075000003	200	0	0
-7.11199999	6.99380016	0.119999997	200	0	0
-7.11999989	6.99380016	0.144999996	200	0	0
-7.12200022	6.9939003	0.116999999	200	0	0
-7.1170001	6.9939003	0.133000001	200	0	0
-7.11199999	6.9939003	0.148000002	200	0	0
-7.11800003	6.99370003	-0.00499999989	200	0	0
-7.13100004	6.9939003	0.0869999975	200	0	0
-7.12900019	6.9939003	0.0729999989	200	0	0
-7.12099981	6.99400091	0.116999999	200	0	0
-7.11199999	6.99400091	0.148000002	200	0	0
-7.10599995	6.99400091	0.136000007	200	0	0
-7.13899994	6.99400091	0.0839999989	200	0	0
-7.12599993	6.99400091	0.074000001	200	0	0
-7.12699986	6.99409962	0.0460000001	200	0	0
-7.1329999	6.99429989	0.0860000029	200	0	0
-7.11899996	6.99429989	0.145999998	200	0	0
-7.10699987	6.99429989	0.136000007	200	0	0
-7.1329999	6.99409962	0.0579999983	200	0	0
-7.11199999	6.99429989	0.119999997	200	0	0
-7.12599993	6.99419975	0.074000001	200	0	0
-7.11399984	6.99419975	0.147	200	0	0
-7.12099981	6.99419975	0.0900000036	200	0	0
-7.11199999	6.99419975	0.134000003	200	0	0
-7.12699986	6.99409962	0.074000001	200	0	0
-7.13100004	6.99409962	0.0869999975	200	0	0
-7.12200022	6.99409962	0.116999999	200	0	0
-7.14099979	6.99429989	0.0689999983	200	0	0
-7.14400005	6.99429989	0.0540000014	200	0	0
-7.1329999	6.99429989	0.0439999998	200	0	0
-7.11800003	6.99419975	0.0489999987	200	0	0
-7.10699987	6.99450016	0.148000002	200	0	0
-7.13600016	6.9946003	0.0560000017	200	0	0
-7.12699986	6.9946003	0.128000006	200	0	0
-7.125	6.99440002	0.157000005	200	0	0
-7.14099979	6.9946003	0.0680000037	200	0	0
-7.13600016	6.9946003	0.111000001	200	0	0
-7.12900019	6.99450016	0.0439999998	200	0	0
-7.13999987	6.9946003	0.0820000023	200	0	0
-7.1170001	6.99450016	0.130999997	200	0	0
-7.11899996	6.99440002	0.145999998	200	0	0
-7.14499998	6.99450016	0.0670000017	200	0	0
-7.12300014	6.99450016	0.115999997	200	0	0
-7.13399982	6.99450016	0.0839999989	200	0	0
-7.11899996	6.99440002	0.118000001	200	0	0
-7.13000011	6.99440002	0.0729999989	200	0	0
-7.13600016	6.99440002	0.0850000009	200	0	0
-7.11199999	6.9946003	0.147	200	0	0
-7.11299992	6.9946003	0.187999994	200	0	0
-7.13199997	6.9946003	0.0430000015	200	0	0
-7.1420002	6.99469948	0.0820000023	200	0	0
-7.13399982	6.99469948	0.0700000003	200	0	0
-7.1420002	6.99469948	0.0399999991	200	0	0
-7.1329999	6.99479961	0.0850000009	200	0	0
-7.12099981	6.99469948	0.115999997	200	0	0
-7.11800003	6.99469948	0.144999996	200	0	0
-7.11999989	6.99479961	0.143999994	200	0	0
-7.12900019	6.99479961	0.114	200	0	0
-7.13500023	6.99479961	0.0560000017	200	0	0
-7.13899994	6.99479961	0.0689999983	200	0	0
-7.13199997	6.99479961	0.0430000015	200	0	0
-7.1329999	6.99489975	0.0850000009	200	0	0
-7.12300014	6.99489975	0.128999993	200	0	0
-7.13100004	6.99489975	0.112999998	200	0	0
-7.13600016	6.99499989	0.0820000023	200	0	0
-7.13999987	6.99489975	0.0410000011	200	0	0
-7.14699984	6.99489975	0.0520000011	200	0	0
-7.1329999	6.99489975	0.0710000023	200	0	0
-7.14400005	6.99499989	0.0659999996	200	0	0
-7.13399982	6.99499989	0.0549999997	200	0	0
-7.14400005	6.99520016	0.0520000011	200	0	0
-7.12699986	6.99510002	0.140000001	200	0	0
-7.14400005	6.99510002	0.0379999988	200	0	0
-7.14099979	6.99520016	0.108000003	200	0	0
-7.13399982	6.99520016	0.0689999983	200	0	0
-7.13899994	6.99520016	0.0810000002	200	0	0
-7.14499998	6.99510002	0.0520000011	200	0	0
-7.13800001	6.99510002	0.108999997	200	0	0
-7.12599993	6.99510002	0.0719999969	200	0	0
-7.125	6.99499989	0.127000004	200	0	0
-7.1329999	6.99499989	0.111000001	200	0	0
-7.13199997	6.99520016	0.138999999	200	0	0
-7.13800001	6.99520016	0.0399999991	200	0	0
-7.12699986	6.99539995	0.112999998	200	0	0
-7.13800001	6.99530077	0.108999997	200	0	0
-7.125	6.99539995	0.127000004	200	0	0
-7.11600018	6.99539995	0.158000007	200	0	0
-7.13399982	6.99550009	0.0829999968	200	0	0
-7.14499998	6.99550009	0.0370000005	200	0	0
-7.14799976	6.99550009	0.050999999	200	0	0
-7.14099979	6.99550009	0.0670000017	200	0	0
-7.1329999	6.99539995	0.0829999968	200	0	0
-7.14099979	6.99539995	0.0670000017	200	0	0
-7.14699984	6.99539995	0.050999999	200	0	0
-7.14699984	6.99530077	0.0790000036	200	0	0
-7.14300013	6.99530077	0.0659999996	200	0	0
-7.14499998	6.99550009	0.107000001	200	0	0
-7.12400007	6.99550009	0.142000005	200	0	0
-7.1420002	6.99559975	0.0529999994	200	0	0
-7.14400005	6.99559975	0.107000001	200	0	0
-7.13199997	6.99559975	0.0700000003	200	0	0
-7.1420002	6.99559975	0.0799999982	200	0	0
-7.14699984	6.99559975	0.0370000005	200	0	0
-7.15299988	6.99569988	0.0489999987	200	0	0
-7.1500001	6.99569988	0.064000003	200	0	0
-7.14400005	6.99569988	0.107000001	200	0	0
-7.15299988	6.99569988	0.0769999996	200	0	0
-7.13199997	6.99569988	0.0140000004	200	0	0
-7.14400005	6.99569988	0.0379999988	200	0	0
-7.12599993	6.99550009	-0.0250000004	200	0	0
-7.15500021	6.99580002	0.0480000004	200	0	0
-7.14599991	6.99580002	0.0649999976	200	0	0
-7.14499998	6.99580002	0.0790000036	200	0	0
-7.12900019	6.99580002	0.153999999	200	0	0
-7.13999987	6.99590111	0.0399999991	200	0	0
-7.14699984	6.99590111	0.050999999	200	0	0
-7.13600016	6.99590111	0.0689999983	200	0	0
-7.14799976	6.99590111	0.0780000016	200	0	0
-7.13500023	6.99580002	0.0410000011	200	0	0
-7.14300013	6.99599981	0.0659999996	200	0	0
-7.14699984	6.99599981	0.107000001	200	0	0
-7.14900017	6.99609995	0.0780000016	200	0	0
-7.13999987	6.99609995	0.0670000017	200	0	0
-7.14400005	6.99609995	0.0520000011	200	0	0
-7.14799976	6.99599981	0.0780000016	200	0	0
-7.14799976	6.99599981	0.0370000005	200	0	0
-7.15500021	6.99599981	0.0480000004	200	0	0
-7.15500021	6.99609995	0.104000002	200	0	0
-7.15100002	6.99630022	0.0780000016	200	0	0
-7.14400005	6.99620008	0.0659999996	200	0	0
-7.14099979	6.99630022	0.122000001	200	0	0
-7.14499998	6.99620008	0.0790000036	200	0	0
-7.15500021	6.99620008	0.104000002	200	0	0
-7.13600016	6.99620008	0.123999998	200	0	0
-7.15399981	6.99640036	0.0480000004	200	0	0
-7.15700006	6.99640036	0.061999999	200	0	0
-7.15600014	6.99640036	0.103	200	0	0
-7.14599991	6.99640036	0.0790000036	200	0	0
-7.15299988	6.99630022	0.0489999987	200	0	0
-7.14499998	6.99620008	0.0379999988	200	0	0
-7.14900017	6.99630022	0.064000003	200	0	0
-7.14400005	6.99640036	0.149000004	200	0	0
-7.12900019	6.99640036	0.140000001	200	0	0
-7.13999987	6.99650097	0.0810000002	200	0	0
-7.15799999	6.99650097	0.0610000007	200	0	0
-7.13199997	6.99650097	0.138999999	200	0	0
-7.13100004	6.99650097	0.126000002	200	0	0
-7.13999987	6.99650097	0.108999997	200	0	0
-7.15600014	6.99659967	0.0759999976	200	0	0
-7.14099979	6.99659967	0.0670000017	200	0	0
-7.14900017	6.99659967	0.105999999	200	0	0
-7.14400005	6.99669981	0.107000001	200	0	0
-7.13899994	6.99659967	0.136999995	200	0	0
-7.15199995	6.99669981	0.0769999996	200	0	0
-7.15199995	6.99669981	0.063000001	200	0	0
-7.14499998	6.99679995	0.0790000036	200	0	0
-7.13399982	6.99669981	0.125	200	0	0
-7.15199995	6.99679995	0.063000001	200	0	0
-7.15100002	6.99679995	0.0500000007	200	0	0
-7.14400005	6.99679995	0.107000001	200	0	0
-7.16099977	6.99690008	0.074000001	200	0	0
-7.14900017	6.99690008	0.064000003	200	0	0
-7.14300013	6.99690008	0.135000005	200	0	0
-7.14099979	6.99679995	0.150000006	200	0	0
-7.1500001	6.99690008	0.119000003	200	0	0
-7.15399981	6.99700022	0.0350000001	200	0	0
-7.14300013	6.99700022	0.108000003	200	0	0
-7.15700006	6.99700022	0.061999999	200	0	0
-7.13999987	6.99700022	0.0810000002	200	0	0
-7.15999985	6.99679995	0.171000004	200	0	0
-7.13500023	6.99700022	0.123999998	200	0	0
-7.14599991	6.99700022	0.148000002	200	0	0
-7.15199995	6.99719954	0.104999997	200	0	0
-7.14799976	6.99719954	0.064000003	200	0	0
-7.14900017	6.99710035	0.119999997	200	0	0
-7.15799999	6.99719954	0.075000003	200	0	0
-7.15700006	6.99710035	0.0469999984	200	0	0
-7.16400003	6.99710035	0.101000004	200	0	0
-7.15999985	6.99710035	0.074000001	200	0	0
-7.14099979	6.99719954	0.122000001	200	0	0
-7.16499996	6.99729967	0.0729999989	200	0	0
-7.1500001	6.99729967	0.064000003	200	0	0
-7.15299988	6.99729967	0.0489999987	200	0	0
-7.15299988	6.99729967	0.104000002	200	0	0
-7.14099979	6.99729967	0.136000007	200	0	0
-7.13700008	6.99729967	0.123999998	200	0	0
-7.14300013	6.99739981	0.120999999	200	0	0
-7.16699982	6.99739981	0.100000001	200	0	0
-7.15399981	6.99739981	0.061999999	200	0	0
-7.15899992	6.99739981	0.075000003	200	0	0
-7.15399981	6.99749994	0.061999999	200	0	0
-7.15299988	6.99749994	0.0350000001	200	0	0
-7.15899992	6.99749994	0.0469999984	200	0	0
-7.15799999	6.99749994	0.103	200	0	0
-7.15899992	6.99749994	0.075000003	200	0	0
-7.15100002	6.99760008	0.147	200	0	0
-7.15600014	6.99760008	0.0759999976	200	0	0
-7.13800001	6.99760008	0.136999995	200	0	0
-7.15899992	6.99760008	0.0469999984	200	0	0
-7.15299988	6.99760008	0.063000001	200	0	0
-7.16099977	6.99770021	0.0460000001	200	0	0
-7.15500021	6.99770021	0.104000002	200	0	0
-7.16099977	6.99770021	0.0599999987	200	0	0
-7.16099977	6.99770021	0.074000001	200	0	0
-7.13199997	6.99770021	0.138999999	200	0	0
-7.13899994	6.99770021	0.123000003	200	0	0
-7.16200018	6.99780083	0.101000004	200	0	0
-7.14900017	6.99780083	0.064000003	200	0	0
-7.15700006	6.99780083	0.075000003	200	0	0
-7.1329999	6.99780083	0.125	200	0	0
-7.13899994	6.99780083	0.136999995	200	0	0
-7.15199995	6.99790001	0.119000003	200	0	0
-7.16900015	6.99790001	0.0710000023	200	0	0
-7.16099977	6.99790001	0.0599999987	200	0	0
-7.12599993	6.99690008	-0.0529999994	200	0	0
-7.16200018	6.99790001	0.0460000001	200	0	0
-7.14799976	6.99799967	0.148000002	200	0	0
-7.16099977	6.99799967	0.0460000001	200	0	0
-7.1420002	6.9980998	0.136000007	200	0	0
-7.15600014	6.9980998	0.0759999976	200	0	0
-7.16499996	6.99799967	0.0590000004	200	0	0
-7.15299988	6.9980998	0.104000002	200	0	0
-7.15600014	6.99799967	0.0759999976	200	0	0
-7.14099979	6.99799967	0.122000001	200	0	0
-7.14799976	6.99799967	0.105999999	200	0	0
-7.15600014	6.9980998	0.0340000018	200	0	0
-7.16699982	6.9980998	0.0579999983	200	0	0
-7.15399981	6.99819994	0.104000002	200	0	0
-7.16699982	6.99819994	0.0719999969	200	0	0
-7.14599991	6.99830008	0.107000001	200	0	0
-7.16800022	6.99830008	0.0579999983	200	0	0
-7.16099977	6.99830008	0.074000001	200	0	0
-7.15199995	6.99840069	0.104999997	200	0	0
-7.15199995	6.99840069	0.0350000001	200	0	0
-7.16499996	6.99840069	0.0450000018	200	0	0
-7.15700006	6.99840069	0.075000003	200	0	0
-7.13700008	6.99840069	0.136999995	200	0	0
-7.13999987	6.99849987	0.108999997	200	0	0
-7.13999987	6.99849987	0.136000007	200	0	0
-7.16099977	6.99849987	0.0460000001	200	0	0
-7.15700006	6.99849987	0.061999999	200	0	0
-7.15399981	6.99849987	0.0769999996	200	0	0
-7.13700008	6.99860001	0.136999995	200	0	0
-7.16800022	6.99849987	0.0299999993	200	0	0
-7.16499996	6.99860001	0.0729999989	200	0	0
-7.171	6.99860001	0.057	200	0	0
-7.16300011	6.99860001	0.0450000018	200	0	0
-7.13500023	6.99860001	0.123999998	200	0	0
-7.16200018	6.99860001	0.101000004	200	0	0
-7.15799999	6.99870014	0.0610000007	200	0	0
-7.14499998	6.99870014	0.120999999	200	0	0
-7.15399981	6.99870014	0.0759999976	200	0	0
-7.16099977	6.99870014	0.101999998	200	0	0
-7.15299988	6.99880028	0.063000001	200	0	0
-7.15700006	6.99870014	0.0469999984	200	0	0
-7.12799978	6.99870014	0.140000001	200	0	0
-7.16900015	6.99880028	0.141000003	200	0	0
-7.15399981	6.99880028	0.104000002	200	0	0
-7.15500021	6.99880028	0.130999997	200	0	0
-7.1420002	6.99880028	0.122000001	200	0	0
-7.16900015	6.99880028	0.0430000015	200	0	0
-7.16200018	6.99880028	0.074000001	200	0	0
-7.14900017	6.99889994	0.119999997	200	0	0
-7.14799976	6.99889994	0.134000003	200	0	0
-7.17399979	6.99889994	0.0700000003	200	0	0
-7.16800022	6.99889994	0.0439999998	200	0	0
-7.15700006	6.99900103	0.116999999	200	0	0
-7.13500023	6.99900103	0.137999997	200	0	0
-7.15899992	6.99889994	0.101999998	200	0	0
-7.16900015	6.99900103	0.0989999995	200	0	0
-7.16499996	6.99900103	0.0729999989	200	0	0
-7.15399981	6.99880028	-0.0350000001	200	0	0
-7.14499998	6.99909973	0.136000007	200	0	0
-7.15399981	6.99940014	0.105999999	200	0	0
-7.13399982	6.9993	0.140000001	200	0	0
-7.14499998	6.99940014	0.136000007	200	0	0
-7.13600016	6.99940014	0.152999997	200	0	0
-7.16800022	6.99940014	0.0729999989	200	0	0
-7.17299986	6.99940014	0.057	200	0	0
-7.16200018	6.99950027	0.103	200	0	0
-7.15500021	6.99950027	0.119000003	200	0	0
-7.12799978	6.99950027	0.155000001	200	0	0
-7.14699984	6.99950027	0.135000005	200	0	0
-7.171	6.99950027	0.0579999983	200	0	0
-7.17000008	6.99950027	0.0719999969	200	0	0
-7.18100023	6.99960041	0.0960000008	200	0	0
-7.16599989	6.99960041	0.0320000015	200	0	0
-7.16499996	6.99960041	0.074000001	200	0	0
-7.15600014	6.99960041	0.063000001	200	0	0
-7.15899992	6.99960041	0.144999996	200	0	0
-7.13800001	6.99960041	0.137999997	200	0	0
-7.15799999	6.99960041	0.118000001	200	0	0
-7.17999983	6.99989986	0.0689999983	200	0	0
-7.16699982	7	0.143000007	200	0	0
-7.14599991	7	0.122000001	200	0	0
-7.15399981	7	0.133000001	200	0	0
-7.16599989	7	0.0460000001	200	0	0
-7.1789999	7	0.0549999997	200	0	0
-7.17799997	7	0.0700000003	200	0	0
-7.1869998	7	0.0939999968	200	0	0
-7.18200016	7.00059986	0.0960000008	200	0	0
-7.14900017	7.00049973	0.120999999	200	0	0
-7.16800022	7.00049973	0.0590000004	200	0	0
-7.18400002	7.00049973	0.0680000037	200	0	0
-7.18200016	7.00049973	0.0960000008	200	0	0
-7.18599987	7.00049973	0.0260000005	200	0	0
-7.17000008	7.00049973	0.0450000018	200	0	0
-7.15399981	7.00059986	0.133000001	200	0	0
-7.18400002	7.00080013	0.0399999991	200	0	0
-7.18300009	7.00080013	0.0960000008	200	0	0
-7.17500019	7.0007	0.112999998	200	0	0
-7.17399979	7.00080013	0.057	200	0	0
-7.19099998	7.00080013	0.0659999996	200	0	0
-7.18200016	7.0007	0.0960000008	200	0	0
-7.1789999	7.0007	0.0560000017	200	0	0
-7.17299986	7.0007	0.0719999969	200	0	0
-7.16400003	7.00059986	0.0329999998	200	0	0
-7.18100023	7.00059986	0.0410000011	200	0	0
-7.17999983	7.00059986	0.0549999997	200	0	0
-7.17399979	7.00059986	0.0710000023	200	0	0
-7.16300011	7.00090075	0.103	200	0	0
-7.13399982	7.00080013	0.180999994	200	0	0
-7.16800022	7.00090075	0.128999993	200	0	0
-7.16200018	7.00080013	0.144999996	200	0	0
-7.16300011	7.0007	0.129999995	200	0	0
-7.16499996	7.0007	0.143999994	200	0	0
-7.18300009	7.00090075	0.0680000037	200	0	0
-7.19000006	7.00090075	0.0520000011	200	0	0
-7.16800022	7.00059986	-0.0240000002	200	0	0
-7.17999983	7.00099993	0.0549999997	200	0	0
-7.19099998	7.00139999	0.0379999988	200	0	0
-7.17000008	7.00150108	0.0729999989	200	0	0
-7.19199991	7.00139999	0.050999999	200	0	0
-7.17799997	7.00119972	0.0280000009	200	0	0
-7.16099977	7.00139999	0.130999997	200	0	0
-7.18400002	7.00129986	0.0399999991	200	0	0
-7.16099977	7.00129986	0.144999996	200	0	0
-7.1880002	7.00139999	0.0670000017	200	0	0
-7.18300009	7.00129986	0.0540000014	200	0	0
-7.16599989	7.00129986	0.128999993	200	0	0
-7.1789999	7.00099993	0.0280000009	200	0	0
-7.17999983	7.00129986	0.0689999983	200	0	0
-7.18300009	7.00119972	0.0540000014	200	0	0
-7.18499994	7.00129986	0.0960000008	200	0	0
-7.17999983	7.00099993	0.0419999994	200	0	0
-7.18300009	7.00119972	0.0680000037	200	0	0
-7.18400002	7.00110006	0.0540000014	200	0	0
-7.17399979	7.00119972	0.0989999995	200	0	0
-7.18599987	7.00110006	0.0670000017	200	0	0
-7.16800022	7.00110006	0.115000002	200	0	0
-7.16099977	7.00110006	0.104000002	200	0	0
-7.18499994	7.00099993	0.0670000017	200	0	0
-7.16200018	7.00099993	0.103	200	0	0
-7.17299986	7.00150108	0.141000003	200	0	0
-7.19000006	7.00159979	0.0949999988	200	0	0
-7.1880002	7.00169992	0.0680000037	200	0	0
-7.18599987	7.00169992	0.0549999997	200	0	0
-7.17700005	7.00169992	0.0299999993	200	0	0
-7.18100023	7.00169992	0.0419999994	200	0	0
-7.18900013	7.00159979	0.0670000017	200	0	0
-7.1880002	7.00159979	0.0540000014	200	0	0
-7.18900013	7.00159979	0.0399999991	200	0	0
-7.19199991	7.00150108	0.050999999	200	0	0
-7.16400003	7.00169992	0.130999997	200	0	0
-7.16099977	7.00159979	0.145999998	200	0	0
-7.16900015	7.00169992	0.115999997	200	0	0
-7.16099977	7.00159979	0.131999999	200	0	0
-7.1869998	7.00169992	0.0960000008	200	0	0
-7.171	7.00159979	0.115000002	200	0	0
-7.19000006	7.00180006	0.0670000017	200	0	0
-7.15899992	7.00159979	0.173999995	200	0	0
-7.16499996	7.00180006	0.144999996	200	0	0
-7.16400003	7.00180006	0.130999997	200	0	0
-7.18499994	7.00180006	0.0970000029	200	0	0
-7.16699982	7.00180006	0.116999999	200	0	0
-7.16200018	7.00169992	0.145999998	200	0	0
-7.16800022	7.0019002	0.129999995	200	0	0
-7.19000006	7.00180006	0.0399999991	200	0	0
-7.1880002	7.00180006	0.0540000014	200	0	0
-7.19099998	7.0019002	0.0529999994	200	0	0
-7.19299984	7.0019002	0.0379999988	200	0	0
-7.1960001	7.0019002	0.0649999976	200	0	0
-7.19099998	7.00239992	0.0390000008	200	0	0
-7.18599987	7.00219965	0.0970000029	200	0	0
-7.17199993	7.00200033	0.115000002	200	0	0
-7.16699982	7.0019002	0.116999999	200	0	0
-7.19000006	7.00229979	0.0670000017	200	0	0
-7.18599987	7.00209999	0.0970000029	200	0	0
-7.19199991	7.00229979	0.0529999994	200	0	0
-7.19199991	7.00219965	0.0659999996	200	0	0
-7.19099998	7.00219965	0.0529999994	200	0	0
-7.20300007	7.00200033	0.0909999982	200	0	0
-7.18499994	7.00209999	0.0689999983	200	0	0
-7.19500017	7.00209999	0.0520000011	200	0	0
-7.19799995	7.00200033	0.0649999976	200	0	0
-7.19299984	7.00200033	0.0520000011	200	0	0
-7.18900013	7.00200033	0.0260000005	200	0	0
-7.19899988	7.00239992	0.0500000007	200	0	0
-7.15999985	7.00209999	0.147	200	0	0
-7.19099998	7.00239992	0.0670000017	200	0	0
-7.19500017	7.00229979	0.0930000022	200	0	0
-7.16200018	7.0019002	0.145999998	200	0	0
-7.16900015	7.00219965	0.115999997	200	0	0
-7.16699982	7.00209999	0.116999999	200	0	0
-7.17700005	7.00239992	0.169	200	0	0
-7.19399977	7.00250006	0.0520000011	200	0	0
-7.18400002	7.00250006	0.0689999983	200	0	0
-7.17799997	7.00250006	0.112999998	200	0	0
-7.19700003	7.00250006	0.0930000022	200	0	0
-7.17999983	7.00260019	0.0979999974	200	0	0
-7.19199991	7.00260019	0.0529999994	200	0	0
-7.20100021	7.00260019	0.064000003	200	0	0
-7.19700003	7.00239992	0.023	200	0	0
-7.18400002	7.00260019	0.138999999	200	0	0
-7.18300009	7.00250006	0.138999999	200	0	0
-7.19500017	7.00270033	0.0930000022	200	0	0
-7.19099998	7.00270033	0.0529999994	200	0	0
-7.19000006	7.00270033	0.0670000017	200	0	0
-7.19099998	7.00270033	0.164000005	200	0	0
-7.17000008	7.00270033	0.115999997	200	0	0
-7.17000008	7.00280094	0.101999998	200	0	0
-7.18599987	7.00280094	0.109999999	200	0	0
-7.1960001	7.00280094	0.0649999976	200	0	0
-7.19000006	7.00320005	0.0949999988	200	0	0
-7.17500019	7.00299978	0.114	200	0	0
-7.18499994	7.00330019	0.0689999983	200	0	0
-7.20800018	7.00330019	0.0469999984	200	0	0
-7.20200014	7.00330019	0.0350000001	200	0	0
-7.21099997	7.00309992	0.0879999995	200	0	0
-7.19099998	7.00320005	0.0529999994	200	0	0
-7.1960001	7.00299978	0.0930000022	200	0	0
-7.19000006	7.00320005	0.0390000008	200	0	0
-7.20200014	7.00309992	0.063000001	200	0	0
-7.19299984	7.00289965	0.0939999968	200	0	0
-7.19999981	7.00309992	0.0500000007	200	0	0
-7.19099998	7.00299978	0.0670000017	200	0	0
-7.19999981	7.00299978	0.0500000007	200	0	0
-7.1960001	7.00299978	0.0370000005	200	0	0
-7.20100021	7.00289965	0.064000003	200	0	0
-7.19799995	7.00289965	0.050999999	200	0	0
-7.20300007	7.00289965	0.0350000001	200	0	0
-7.1880002	7.00309992	0.136999995	200	0	0
-7.17500019	7.00309992	0.114	200	0	0
-7.17799997	7.00299978	0.141000003	200	0	0
-7.17799997	7.00299978	0.127000004	200	0	0
-7.17999983	7.00330019	0.0979999974	200	0	0
-7.18400002	7.00320005	0.111000001	200	0	0
