10.3620005	6.93190002	-0.127000004	200	0	0
10.3809996	6.93190002	-0.112999998	200	0	0
10.3579998	6.93179989	-0.144999996	200	0	0
10.3620005	6.93169975	-0.0689999983	200	0	0
10.3669996	6.93169975	-0.166999996	200	0	0
10.3690004	6.93179989	-0.128999993	200	0	0
10.3640003	6.93169975	-0.147	200	0	0
10.368	6.93169975	-0.108999997	200	0	0
10.3760004	6.93200016	-0.0540000014	200	0	0
10.3640003	6.93219948	-0.144999996	200	0	0
10.3769999	6.93219948	-0.128999993	200	0	0
10.3809996	6.93229961	-0.0719999969	200	0	0
10.3610001	6.93219948	-0.0670000017	200	0	0
10.3590002	6.93229961	-0.104999997	200	0	0
10.3620005	6.93229961	-0.125	200	0	0
10.3629999	6.93239975	-0.164000005	200	0	0
10.3879995	6.93239975	-0.150999993	200	0	0
10.3839998	6.93239975	-0.112000003	200	0	0
10.3690004	6.93239975	-0.127000004	200	0	0
10.3719997	6.93239975	-0.0700000003	200	0	0
10.3579998	6.93249989	-0.143999994	200	0	0
10.3540001	6.93249989	-0.123000003	200	0	0
10.3649998	6.93249989	-0.107000001	200	0	0
10.3769999	6.93270016	-0.0710000023	200	0	0
10.3909998	6.93280077	-0.151999995	200	0	0
10.3739996	6.93280077	-0.108999997	200	0	0
10.3789997	6.93260002	-0.0719999969	200	0	0
10.3590002	6.93280077	-0.125	200	0	0
10.3629999	6.93270016	-0.126000002	200	0	0
10.3830004	6.93260002	-0.111000001	200	0	0
10.3739996	6.93260002	-0.128000006	200	0	0
10.3959999	6.93289995	-0.0759999976	200	0	0
10.3730001	6.93280077	-0.0700000003	200	0	0
10.3610001	6.93300009	-0.105999999	200	0	0
10.3649998	6.93300009	-0.126000002	200	0	0
10.3570004	6.93289995	-0.104999997	200	0	0
10.3610001	6.93300009	-0.143999994	200	0	0
10.3739996	6.93289995	-0.128999993	200	0	0
10.3719997	6.93300009	-0.0700000003	200	0	0
10.3719997	6.93319988	-0.0529999994	200	0	0
10.3780003	6.93319988	-0.130999997	200	0	0
10.3649998	6.93330002	-0.128000006	200	0	0
10.3599997	6.93349981	-0.127000004	200	0	0
10.3599997	6.93359995	-0.107000001	200	0	0
10.382	6.93349981	-0.112999998	200	0	0
10.3760004	6.93359995	-0.0729999989	200	0	0
10.3690004	6.93349981	-0.0710000023	200	0	0
10.3610001	6.93359995	-0.165999994	200	0	0
10.375	6.93359995	-0.130999997	200	0	0
10.3929996	6.93359995	-0.153999999	200	0	0
10.3629999	6.93349981	-0.147	200	0	0
10.3929996	6.93349981	-0.173999995	200	0	0
10.3540001	6.93370008	-0.125	200	0	0
10.3459997	6.93370008	-0.162	200	0	0
10.3529997	6.93370008	-0.0670000017	200	0	0
10.3610001	6.93390036	-0.145999998	200	0	0
10.3769999	6.93390036	-0.0729999989	200	0	0
10.3769999	6.93390036	-0.112000003	200	0	0
10.3629999	6.93380022	-0.127000004	200	0	0
10.3669996	6.93380022	-0.108999997	200	0	0
10.3599997	6.93400097	-0.0689999983	200	0	0
10.3599997	6.93409967	-0.127000004	200	0	0
10.382	6.93400097	-0.112999998	200	0	0
10.3640003	6.93429995	-0.128000006	200	0	0
10.3640003	6.93419981	-0.147	200	0	0
10.3649998	6.93419981	-0.128000006	200	0	0
10.3380003	6.93409967	-0.197999999	200	0	0
10.375	6.93440008	-0.150000006	200	0	0
10.3669996	6.93440008	-0.108999997	200	0	0
10.3529997	6.93440008	-0.125	200	0	0
10.3690004	6.93419981	-0.0710000023	200	0	0
10.3520002	6.93429995	-0.163000003	200	0	0
10.3719997	6.93429995	-0.149000004	200	0	0
10.3909998	6.93440008	-0.057	200	0	0
10.3559999	6.93440008	-0.0680000037	200	0	0
10.3719997	6.93450022	-0.0529999994	200	0	0
10.3769999	6.93429995	-0.228	200	0	0
10.3739996	6.93460035	-0.111000001	200	0	0
10.3719997	6.93460035	-0.129999995	200	0	0
10.3789997	6.93460035	-0.074000001	200	0	0
10.3610001	6.93489981	-0.145999998	200	0	0
10.3540001	6.93479967	-0.105999999	200	0	0
10.3620005	6.93479967	-0.127000004	200	0	0
10.3780003	6.93469954	-0.112000003	200	0	0
10.3620005	6.93469954	-0.127000004	200	0	0
10.3579998	6.93469954	-0.145999998	200	0	0
10.3549995	6.93479967	-0.0680000037	200	0	0
10.3699999	6.93469954	-0.0719999969	200	0	0
10.3599997	6.93499994	-0.0689999983	200	0	0
10.3579998	6.93489981	-0.107000001	200	0	0
10.382	6.93489981	-0.074000001	200	0	0
10.3780003	6.93499994	-0.150000006	200	0	0
10.3789997	6.93499994	-0.131999999	200	0	0
10.3669996	6.93499994	-0.108999997	200	0	0
10.3710003	6.93489981	-0.128999993	200	0	0
10.3710003	6.93510008	-0.0719999969	200	0	0
10.3520002	6.93520021	-0.163000003	200	0	0
10.3789997	6.93520021	-0.112000003	200	0	0
10.3579998	6.93520021	-0.145999998	200	0	0
10.3640003	6.93520021	-0.128000006	200	0	0
10.3640003	6.93510008	-0.128000006	200	0	0
10.3509998	6.93530083	-0.123999998	200	0	0
10.3559999	6.93530083	-0.164000005	200	0	0
10.3859997	6.93530083	-0.152999997	200	0	0
10.368	6.93540001	-0.109999999	200	0	0
10.3509998	6.93530083	-0.104999997	200	0	0
10.3760004	6.93520021	-0.0729999989	200	0	0
10.3540001	6.93549967	-0.144999996	200	0	0
10.3590002	6.93540001	-0.165000007	200	0	0
10.3699999	6.93549967	-0.128999993	200	0	0
10.3710003	6.93549967	-0.109999999	200	0	0
10.3640003	6.93540001	-0.128000006	200	0	0
10.3500004	6.93549967	-0.0670000017	200	0	0
10.3540001	6.93569994	-0.125	200	0	0
10.3599997	6.93569994	-0.165000007	200	0	0
10.3620005	6.9355998	-0.108000003	200	0	0
10.3690004	6.9355998	-0.128999993	200	0	0
10.3620005	6.9355998	-0.147	200	0	0
10.3780003	6.93569994	-0.0729999989	200	0	0
10.3640003	6.9355998	-0.0700000003	200	0	0
10.3610001	6.93590069	-0.108000003	200	0	0
10.3559999	6.93590069	-0.0680000037	200	0	0
10.3599997	6.93580008	-0.0689999983	200	0	0
10.3479996	6.93590069	-0.123999998	200	0	0
10.3660002	6.93599987	-0.108999997	200	0	0
10.3219995	6.93590069	-0.0410000011	200	0	0
10.3570004	6.93610001	-0.126000002	200	0	0
10.3540001	6.93610001	-0.144999996	200	0	0
10.3479996	6.93599987	-0.123999998	200	0	0
10.3889999	6.93610001	-0.0759999976	200	0	0
10.368	6.93610001	-0.109999999	200	0	0
10.3439999	6.93620014	-0.160999998	200	0	0
10.3529997	6.93620014	-0.143999994	200	0	0
10.3620005	6.93620014	-0.127000004	200	0	0
10.3620005	6.93630028	-0.147	200	0	0
10.3730001	6.93630028	-0.129999995	200	0	0
10.3780003	6.93630028	-0.112000003	200	0	0
10.3459997	6.93639994	-0.0659999996	200	0	0
10.3739996	6.93659973	-0.111000001	200	0	0
10.3559999	6.93659973	-0.144999996	200	0	0
10.3690004	6.93659973	-0.128999993	200	0	0
10.3400002	6.93650103	-0.159999996	200	0	0
10.3809996	6.93650103	-0.150999993	200	0	0
10.3579998	6.93650103	-0.107000001	200	0	0
10.3599997	6.93650103	-0.127000004	200	0	0
10.3439999	6.93610001	-0.238999993	200	0	0
10.3640003	6.93659973	-0.0700000003	200	0	0
10.3400002	6.93650103	-0.064000003	200	0	0
10.3629999	6.9368	-0.0700000003	200	0	0
10.3540001	6.9368	-0.125	200	0	0
10.3559999	6.9368	-0.105999999	200	0	0
10.3520002	6.93669987	-0.143999994	200	0	0
10.3719997	6.93669987	-0.129999995	200	0	0
10.3699999	6.93690014	-0.0710000023	200	0	0
10.3629999	6.93690014	-0.147	200	0	0
10.3529997	6.93700027	-0.163000003	200	0	0
10.3669996	6.93700027	-0.148000002	200	0	0
10.375	6.93700027	-0.111000001	200	0	0
10.368	6.93700027	-0.128999993	200	0	0
10.3509998	6.93700027	-0.0670000017	200	0	0
10.3599997	6.93710041	-0.127000004	200	0	0
10.3559999	6.93719959	-0.105999999	200	0	0
10.3730001	6.93729973	-0.0719999969	200	0	0
10.3299999	6.93719959	-0.061999999	200	0	0
10.3660002	6.9375	-0.128000006	200	0	0
10.3739996	6.93739986	-0.0719999969	200	0	0
10.3579998	6.93739986	-0.107000001	200	0	0
10.3789997	6.93729973	-0.150999993	200	0	0
10.368	6.93729973	-0.128999993	200	0	0
10.349	6.9375	-0.0659999996	200	0	0
10.3590002	6.93760014	-0.126000002	200	0	0
10.3669996	6.93770027	-0.0710000023	200	0	0
10.3529997	6.93760014	-0.105999999	200	0	0
10.3599997	6.93760014	-0.0689999983	200	0	0
10.349	6.93760014	-0.143000007	200	0	0
10.3559999	6.93780088	-0.0680000037	200	0	0
10.3520002	6.93780088	-0.125	200	0	0
10.3459997	6.93780088	-0.142000005	200	0	0
10.3240004	6.93789959	-0.194999993	200	0	0
10.3529997	6.93789959	-0.125	200	0	0
10.3470001	6.93789959	-0.143000007	200	0	0
10.3450003	6.93789959	-0.104000002	200	0	0
10.3719997	6.93799973	-0.111000001	200	0	0
10.349	6.93799973	-0.143000007	200	0	0
10.3590002	6.93799973	-0.126000002	200	0	0
10.3629999	6.93809986	-0.147	200	0	0
10.3690004	6.93809986	-0.0710000023	200	0	0
10.3559999	6.93809986	-0.105999999	200	0	0
10.3669996	6.9382	-0.108999997	200	0	0
10.3620005	6.9382	-0.0689999983	200	0	0
10.3509998	6.93840075	-0.104999997	200	0	0
10.3500004	6.93840075	-0.143000007	200	0	0
10.3330002	6.93799973	-0.196999997	200	0	0
10.3540001	6.93840075	-0.125	200	0	0
10.3660002	6.93830013	-0.148000002	200	0	0
10.3570004	6.93830013	-0.126000002	200	0	0
10.3549995	6.9382	-0.144999996	200	0	0
10.3470001	6.9382	-0.123999998	200	0	0
10.3500004	6.93830013	-0.0670000017	200	0	0
10.3579998	6.93849993	-0.165999994	200	0	0
10.3509998	6.93849993	-0.144999996	200	0	0
10.3660002	6.93849993	-0.111000001	200	0	0
10.3739996	6.93860006	-0.112999998	200	0	0
10.3479996	6.93860006	-0.0680000037	200	0	0
10.3579998	6.93849993	-0.0700000003	200	0	0
10.3570004	6.93869972	-0.108000003	200	0	0
10.342	6.93869972	-0.0659999996	200	0	0
10.3549995	6.93869972	-0.165999994	200	0	0
10.3549995	6.93869972	-0.127000004	200	0	0
10.3470001	6.93860006	-0.164000005	200	0	0
10.3660002	6.93860006	-0.149000004	200	0	0
10.3719997	6.93860006	-0.130999997	200	0	0
10.342	6.93860006	-0.201000005	200	0	0
10.3249998	6.93849993	-0.234999999	200	0	0
10.3579998	6.93879986	-0.147	200	0	0
10.3699999	6.93879986	-0.130999997	200	0	0
10.3669996	6.93879986	-0.0719999969	200	0	0
10.3629999	6.93889999	-0.0710000023	200	0	0
10.3590002	6.93889999	-0.128000006	200	0	0
10.3549995	6.93889999	-0.108000003	200	0	0
10.342	6.93889999	-0.143000007	200	0	0
10.3640003	6.93909979	-0.130999997	200	0	0
10.3649998	6.93919992	-0.155000001	200	0	0
10.3610001	6.93930006	-0.0769999996	200	0	0
10.3459997	6.93930006	-0.130999997	200	0	0
10.3629999	6.93930006	-0.115999997	200	0	0
10.3540001	6.93919992	-0.133000001	200	0	0
10.3470001	6.93919992	-0.112000003	200	0	0
10.309	6.93889999	-0.211999997	200	0	0
10.3579998	6.93930006	-0.152999997	200	0	0
10.349	6.93919992	-0.170000002	200	0	0
10.3730001	6.9394002	-0.137999997	200	0	0
10.3660002	6.9394002	-0.115999997	200	0	0
10.3730001	6.9394002	-0.0799999982	200	0	0
10.3479996	6.93950033	-0.133000001	200	0	0
10.3629999	6.93959999	-0.136999995	200	0	0
10.3430004	6.93959999	-0.150999993	200	0	0
10.3459997	6.93969965	-0.115000002	200	0	0
10.3590002	6.93969965	-0.175999999	200	0	0
10.3400002	6.93969965	-0.151999995	200	0	0
10.3559999	6.93969965	-0.136999995	200	0	0
10.3520002	6.93979979	-0.0780000016	200	0	0
10.3610001	6.93979979	-0.158000007	200	0	0
10.3789997	6.93989992	-0.0850000009	200	0	0
10.349	6.93989992	-0.153999999	200	0	0
10.3669996	6.93989992	-0.119999997	200	0	0
10.3529997	6.94010019	-0.136000007	200	0	0
10.3610001	6.94010019	-0.158000007	200	0	0
10.316	6.93969965	-0.203999996	200	0	0
10.3809996	6.94020033	-0.0850000009	200	0	0
10.3640003	6.93989992	-0.236000001	200	0	0
10.3610001	6.94030094	-0.178000003	200	0	0
10.3590002	6.94030094	-0.119999997	200	0	0
10.3620005	6.94030094	-0.140000001	200	0	0
10.3640003	6.94030094	-0.0829999968	200	0	0
10.3470001	6.94039965	-0.136000007	200	0	0
10.3509998	6.94049978	-0.175999999	200	0	0
10.3699999	6.94049978	-0.123000003	200	0	0
10.3699999	6.94049978	-0.142000005	200	0	0
10.3570004	6.94039965	-0.177000001	200	0	0
10.3809996	6.94039965	-0.164000005	200	0	0
10.3409996	6.94059992	-0.153999999	200	0	0
10.3500004	6.94059992	-0.136999995	200	0	0
10.3500004	6.94049978	-0.0799999982	200	0	0
10.3590002	6.94030094	-0.236000001	200	0	0
10.3649998	6.94039965	-0.217999995	200	0	0
10.3780003	6.94030094	-0.222000003	200	0	0
10.3409996	6.94070005	-0.115999997	200	0	0
10.3629999	6.94070005	-0.0829999968	200	0	0
10.3620005	6.94070005	-0.140000001	200	0	0
10.3470001	6.94070005	-0.156000003	200	0	0
10.3649998	6.94080019	-0.122000001	200	0	0
10.368	6.94080019	-0.0839999989	200	0	0
10.3470001	6.94080019	-0.136000007	200	0	0
10.3620005	6.94080019	-0.158999994	200	0	0
10.3540001	6.94099998	-0.177000001	200	0	0
10.3540001	6.9409008	-0.0799999982	200	0	0
10.3559999	6.94099998	-0.119000003	200	0	0
10.3439999	6.94099998	-0.135000005	200	0	0
10.3459997	6.9409008	-0.155000001	200	0	0
10.3559999	6.9409008	-0.138999999	200	0	0
10.3319998	6.94099998	-0.0560000017	200	0	0
10.3590002	6.94109964	-0.0820000023	200	0	0
10.3380003	6.94099998	-0.0759999976	200	0	0
10.3669996	6.94119978	-0.141000003	200	0	0
10.3629999	6.94109964	-0.140000001	200	0	0
10.3509998	6.94109964	-0.175999999	200	0	0
10.3570004	6.94119978	-0.119999997	200	0	0
10.3409996	6.94129992	-0.172999993	200	0	0
10.349	6.94129992	-0.156000003	200	0	0
10.3559999	6.94129992	-0.137999997	200	0	0
10.3430004	6.94140005	-0.135000005	200	0	0
10.3330002	6.94129992	-0.229000002	200	0	0
10.3520002	6.94140005	-0.157000005	200	0	0
10.3240004	6.94129992	-0.208000004	200	0	0
10.3389997	6.94140005	-0.115000002	200	0	0
10.3549995	6.94150066	-0.119000003	200	0	0
10.349	6.94159985	-0.136999995	200	0	0
10.3610001	6.94150066	-0.0820000023	200	0	0
10.368	6.94169998	-0.163000003	200	0	0
10.3590002	6.94169998	-0.0829999968	200	0	0
10.3640003	6.94190025	-0.162	200	0	0
10.3610001	6.94180012	-0.141000003	200	0	0
10.3339996	6.94180012	-0.153999999	200	0	0
10.3610001	6.94180012	-0.180000007	200	0	0
10.3380003	6.94169998	-0.213	200	0	0
10.3400002	6.94199991	-0.174999997	200	0	0
10.3610001	6.94210005	-0.141000003	200	0	0
10.3500004	6.94199991	-0.138999999	200	0	0
10.3389997	6.94219971	-0.213	200	0	0
10.3590002	6.94219971	-0.141000003	200	0	0
10.3570004	6.94219971	-0.159999996	200	0	0
10.335	6.94219971	-0.115999997	200	0	0
10.3730001	6.94219971	-0.0869999975	200	0	0
10.3549995	6.94229984	-0.158999994	200	0	0
10.3579998	6.94229984	-0.0829999968	200	0	0
10.3540001	6.94239998	-0.160999998	200	0	0
10.3620005	6.94239998	-0.143000007	200	0	0
10.3529997	6.94239998	-0.122000001	200	0	0
10.3450003	6.94250011	-0.178000003	200	0	0
10.3479996	6.94250011	-0.158999994	200	0	0
10.3459997	6.94250011	-0.138999999	200	0	0
10.3540001	6.94260025	-0.141000003	200	0	0
10.3610001	6.94260025	-0.181999996	200	0	0
10.3559999	6.94229984	-0.216999993	200	0	0
10.3459997	6.94260025	-0.119999997	200	0	0
10.3360004	6.94270039	-0.119000003	200	0	0
10.3540001	6.942801	-0.143000007	200	0	0
10.3369999	6.94260025	-0.214000002	200	0	0
10.3500004	6.942801	-0.160999998	200	0	0
10.3409996	6.94270039	-0.178000003	200	0	0
10.349	6.94270039	-0.142000005	200	0	0
10.3710003	6.94270039	-0.166999996	200	0	0
10.3660002	6.9428997	-0.145999998	200	0	0
10.3599997	6.9428997	-0.182999998	200	0	0
10.3500004	6.94299984	-0.160999998	200	0	0
10.3520002	6.94299984	-0.123000003	200	0	0
10.342	6.94299984	-0.140000001	200	0	0
10.3170004	6.94299984	-0.210999995	200	0	0
10.3290005	6.94309998	-0.118000001	200	0	0
10.3549995	6.94299984	-0.0860000029	200	0	0
10.3629999	6.94309998	-0.165000007	200	0	0
10.3380003	6.94309998	-0.138999999	200	0	0
10.3470001	6.94349957	-0.122000001	200	0	0
10.335	6.9435997	-0.157000005	200	0	0
10.3620005	6.94369984	-0.184	200	0	0
10.375	6.94369984	-0.128999993	200	0	0
10.3509998	6.94369984	-0.162	200	0	0
10.342	6.94369984	-0.140000001	200	0	0
10.3520002	6.9435997	-0.180999994	200	0	0
10.3149996	6.9435997	-0.209999993	200	0	0
10.375	6.94379997	-0.187000006	200	0	0
10.3620005	6.94379997	-0.144999996	200	0	0
10.342	6.94390011	-0.140000001	200	0	0
10.3500004	6.94390011	-0.180999994	200	0	0
10.342	6.94390011	-0.216999993	200	0	0
10.3540001	6.94400072	-0.143000007	200	0	0
10.3269997	6.94400072	-0.116999999	200	0	0
10.3260002	6.94400072	-0.173999995	200	0	0
10.3590002	6.94400072	-0.164000005	200	0	0
10.3599997	6.94439983	-0.162	200	0	0
10.3439999	6.94439983	-0.0810000002	200	0	0
10.3389997	6.9442997	-0.175999999	200	0	0
10.3559999	6.94439983	-0.122000001	200	0	0
10.3559999	6.9442997	-0.160999998	200	0	0
10.3599997	6.9442997	-0.142000005	200	0	0
10.349	6.94420004	-0.142000005	200	0	0
10.3470001	6.9440999	-0.160999998	200	0	0
10.3430004	6.94420004	-0.120999999	200	0	0
10.3590002	6.9440999	-0.143999994	200	0	0
10.3570004	6.9440999	-0.125	200	0	0
10.3369999	6.94449997	-0.116999999	200	0	0
10.3509998	6.94449997	-0.140000001	200	0	0
10.3479996	6.94449997	-0.158999994	200	0	0
10.3330002	6.94439983	-0.173999995	200	0	0
10.3620005	6.94460011	-0.159999996	200	0	0
10.3529997	6.94460011	-0.177000001	200	0	0
10.3570004	6.94460011	-0.140000001	200	0	0
10.3430004	6.9447999	-0.174999997	200	0	0
10.3380003	6.9447999	-0.115999997	200	0	0
10.3389997	6.9447999	-0.153999999	200	0	0
10.3529997	6.9447999	-0.138999999	200	0	0
10.3459997	6.94490004	-0.174999997	200	0	0
10.349	6.94490004	-0.157000005	200	0	0
10.3470001	6.94490004	-0.136999995	200	0	0
10.3479996	6.94530106	-0.134000003	200	0	0
10.3540001	6.94530106	-0.153999999	200	0	0
10.3570004	6.94519997	-0.137999997	200	0	0
10.3450003	6.94519997	-0.172999993	200	0	0
10.3380003	6.94500017	-0.114	200	0	0
10.3400002	6.94500017	-0.172000006	200	0	0
10.3620005	6.94500017	-0.158000007	200	0	0
10.3459997	6.94530106	-0.114	200	0	0
10.3470001	6.94539976	-0.133000001	200	0	0
10.3389997	6.9454999	-0.170000002	200	0	0
10.3470001	6.9454999	-0.152999997	200	0	0
10.3520002	6.9454999	-0.115000002	200	0	0
10.3559999	6.94570017	-0.135000005	200	0	0
10.3360004	6.94570017	-0.208000004	200	0	0
10.342	6.94570017	-0.150999993	200	0	0
10.3389997	6.94560003	-0.130999997	200	0	0
10.3380003	6.94570017	-0.169	200	0	0
10.3290005	6.94560003	-0.206	200	0	0
10.3520002	6.94560003	-0.153999999	200	0	0
10.3240004	6.94560003	-0.165999994	200	0	0
10.323	6.94570017	-0.108000003	200	0	0
10.3339996	6.94560003	-0.111000001	200	0	0
10.3269997	6.94539976	-0.0710000023	200	0	0
10.3339996	6.9458003	-0.207000002	200	0	0
10.3520002	6.9458003	-0.172999993	200	0	0
10.3210001	6.94619989	-0.107000001	200	0	0
10.3389997	6.94619989	-0.170000002	200	0	0
10.3380003	6.94590092	-0.208000004	200	0	0
10.3369999	6.94619989	-0.150000006	200	0	0
10.3380003	6.94619989	-0.130999997	200	0	0
10.3389997	6.94609976	-0.170000002	200	0	0
10.342	6.94609976	-0.150999993	200	0	0
10.3450003	6.94599962	-0.112999998	200	0	0
10.3339996	6.94599962	-0.149000004	200	0	0
10.3339996	6.94599962	-0.129999995	200	0	0
10.3360004	6.94590092	-0.111000001	200	0	0
10.3439999	6.94590092	-0.131999999	200	0	0
10.3219995	6.94609976	-0.203999996	200	0	0
10.3109999	6.9458003	-0.219999999	200	0	0
10.3170004	6.94599962	-0.202000007	200	0	0
10.3149996	6.94570017	-0.240999997	200	0	0
10.3520002	6.94630003	-0.172999993	200	0	0
10.3500004	6.94640017	-0.134000003	200	0	0
10.3500004	6.94619989	-0.230000004	200	0	0
10.3380003	6.94640017	-0.150000006	200	0	0
10.3109999	6.94630003	-0.201000005	200	0	0
10.3190002	6.94609976	-0.222000003	200	0	0
10.3319998	6.94640017	-0.109999999	200	0	0
10.3249998	6.94659996	-0.108999997	200	0	0
10.3409996	6.94659996	-0.170000002	200	0	0
10.3479996	6.94659996	-0.152999997	200	0	0
10.3319998	6.94650078	-0.167999998	200	0	0
10.3280001	6.94650078	-0.128000006	200	0	0
10.3590002	6.94669962	-0.174999997	200	0	0
10.335	6.94669962	-0.226999998	200	0	0
10.3400002	6.94669962	-0.209000006	200	0	0
10.3459997	6.94710016	-0.133000001	200	0	0
10.3479996	6.94700003	-0.152999997	200	0	0
10.3470001	6.94710016	-0.114	200	0	0
10.3339996	6.94689989	-0.167999998	200	0	0
10.3389997	6.94689989	-0.130999997	200	0	0
10.3280001	6.94679976	-0.128000006	200	0	0
10.3280001	6.94669962	-0.108999997	200	0	0
10.3450003	6.94710016	-0.151999995	200	0	0
10.3269997	6.94710016	-0.166999996	200	0	0
10.3579998	6.94700003	-0.174999997	200	0	0
10.309	6.94669962	-0.257999986	200	0	0
10.3380003	6.94719982	-0.150000006	200	0	0
10.3260002	6.94719982	-0.204999998	200	0	0
10.3330002	6.94729996	-0.167999998	200	0	0
10.3450003	6.94729996	-0.151999995	200	0	0
10.3009996	6.94710016	-0.217999995	200	0	0
10.3310003	6.94750023	-0.145999998	200	0	0
10.3299999	6.94750023	-0.127000004	200	0	0
10.3290005	6.94740009	-0.127000004	200	0	0
10.3070002	6.94740009	-0.216999993	200	0	0
10.3149996	6.94729996	-0.221000001	200	0	0
10.3260002	6.94740009	-0.202999994	200	0	0
10.349	6.94740009	-0.170000002	200	0	0
10.3260002	6.94729996	-0.204999998	200	0	0
10.3360004	6.94759989	-0.148000002	200	0	0
10.3280001	6.94770002	-0.203999996	200	0	0
10.3360004	6.94799995	-0.147	200	0	0
10.3299999	6.94799995	-0.127000004	200	0	0
10.342	6.94789982	-0.167999998	200	0	0
10.316	6.94789982	-0.123000003	200	0	0
10.3500004	6.94789982	-0.150999993	200	0	0
10.335	6.94780111	-0.166999996	200	0	0
10.3299999	6.94780111	-0.145999998	200	0	0
10.3529997	6.94780111	-0.133000001	200	0	0
10.3450003	6.94770002	-0.150000006	200	0	0
10.3459997	6.94759989	-0.130999997	200	0	0
10.3430004	6.94770002	-0.226999998	200	0	0
10.3450003	6.94789982	-0.208000004	200	0	0
10.3430004	6.94810009	-0.169	200	0	0
10.3360004	6.94810009	-0.147	200	0	0
10.3039999	6.94810009	-0.216000006	200	0	0
10.3179998	6.94810009	-0.201000005	200	0	0
10.3179998	6.94820023	-0.201000005	200	0	0
10.3389997	6.94830036	-0.128999993	200	0	0
10.3339996	6.94830036	-0.147	200	0	0
10.3330002	6.94820023	-0.108000003	200	0	0
10.3380003	6.94849968	-0.166999996	200	0	0
10.3219995	6.94849968	-0.221000001	200	0	0
10.3439999	6.94849968	-0.207000002	200	0	0
10.3310003	6.94880009	-0.202000007	200	0	0
10.3520002	6.94890022	-0.169	200	0	0
10.3450003	6.94890022	-0.128999993	200	0	0
10.3470001	6.94880009	-0.167999998	200	0	0
10.3330002	6.94880009	-0.126000002	200	0	0
10.3380003	6.94880009	-0.145999998	200	0	0
10.3199997	6.94859982	-0.104999997	200	0	0
10.3409996	6.94869995	-0.128000006	200	0	0
10.3319998	6.94869995	-0.143999994	200	0	0
10.3109999	6.94859982	-0.122000001	200	0	0
10.3299999	6.94859982	-0.145999998	200	0	0
10.3579998	6.94900084	-0.133000001	200	0	0
10.3439999	6.94900084	-0.149000004	200	0	0
10.3439999	6.94890022	-0.204999998	200	0	0
10.335	6.94909954	-0.147	200	0	0
10.3389997	6.94909954	-0.166999996	200	0	0
10.3319998	6.94909954	-0.203999996	200	0	0
10.3339996	6.94919968	-0.165999994	200	0	0
10.342	6.94919968	-0.149000004	200	0	0
10.3330002	6.94939995	-0.203999996	200	0	0
10.3430004	6.94939995	-0.167999998	200	0	0
10.335	6.94929981	-0.128000006	200	0	0
10.3380003	6.94929981	-0.206	200	0	0
10.349	6.94929981	-0.150999993	200	0	0
10.3299999	6.94929981	-0.165000007	200	0	0
10.3310003	6.94919968	-0.203999996	200	0	0
10.316	6.94939995	-0.218999997	200	0	0
10.3540001	6.94960022	-0.151999995	200	0	0
10.3310003	6.94969988	-0.166999996	200	0	0
10.335	6.94969988	-0.206	200	0	0
10.3470001	6.94960022	-0.169	200	0	0
10.3330002	6.94960022	-0.203999996	200	0	0
10.309	6.94950008	-0.216999993	200	0	0
10.3400002	6.94950008	-0.206	200	0	0
10.3170004	6.94980001	-0.143999994	200	0	0
10.3389997	6.94969988	-0.129999995	200	0	0
10.3559999	6.94969988	-0.153999999	200	0	0
10.349	6.94960022	-0.130999997	200	0	0
10.3610001	6.94950008	-0.134000003	200	0	0
10.3249998	6.94980001	-0.127000004	200	0	0
10.3389997	6.94989967	-0.131999999	200	0	0
10.316	6.94999981	-0.126000002	200	0	0
10.3400002	6.94999981	-0.171000004	200	0	0
10.3299999	6.94999981	-0.149000004	200	0	0
10.335	6.94999981	-0.208000004	200	0	0
10.3299999	6.94989967	-0.207000002	200	0	0
10.309	6.94999981	-0.221000001	200	0	0
10.3339996	6.95009995	-0.208000004	200	0	0
10.3450003	6.95009995	-0.134000003	200	0	0
10.3219995	6.95009995	-0.147	200	0	0
10.323	6.95020008	-0.147	200	0	0
10.3070002	6.95030069	-0.219999999	200	0	0
10.3360004	6.95020008	-0.208000004	200	0	0
10.3380003	6.95009995	-0.228	200	0	0
10.3629999	6.95030069	-0.137999997	200	0	0
10.3109999	6.95020008	-0.125	200	0	0
10.3400002	6.95030069	-0.151999995	200	0	0
10.3459997	6.95050001	-0.172000006	200	0	0
10.3140001	6.95039988	-0.144999996	200	0	0
10.3260002	6.95039988	-0.166999996	200	0	0
10.3400002	6.95039988	-0.131999999	200	0	0
10.3330002	6.95060015	-0.208000004	200	0	0
10.302	6.95039988	-0.218999997	200	0	0
10.342	6.95060015	-0.171000004	200	0	0
10.3240004	6.95039988	-0.204999998	200	0	0
10.3479996	6.95070028	-0.153999999	200	0	0
10.3280001	6.95070028	-0.128999993	200	0	0
10.3400002	6.95090103	-0.131999999	200	0	0
10.3260002	6.95070028	-0.224999994	200	0	0
10.3269997	6.95079994	-0.206	200	0	0
10.3360004	6.95070028	-0.208000004	200	0	0
10.3299999	6.95099974	-0.149000004	200	0	0
10.3079996	6.95090103	-0.219999999	200	0	0
10.302	6.95079994	-0.218999997	200	0	0
10.3380003	6.95099974	-0.170000002	200	0	0
10.342	6.95099974	-0.229000002	200	0	0
10.3260002	6.95099974	-0.206	200	0	0
10.3240004	6.95109987	-0.128000006	200	0	0
10.3369999	6.95120001	-0.131999999	200	0	0
10.3509998	6.95140028	-0.211999997	200	0	0
10.3179998	6.95130014	-0.127000004	200	0	0
10.3199997	6.95130014	-0.203999996	200	0	0
10.3299999	6.95130014	-0.149000004	200	0	0
10.3319998	6.95130014	-0.169	200	0	0
10.3290005	6.95150089	-0.225999996	200	0	0
10.3039999	6.95140028	-0.238999993	200	0	0
10.3290005	6.95150089	-0.207000002	200	0	0
10.342	6.95150089	-0.151999995	200	0	0
10.335	6.9515996	-0.130999997	200	0	0
10.3389997	6.95169973	-0.171000004	200	0	0
10.3109999	6.95169973	-0.143999994	200	0	0
10.323	6.95179987	-0.204999998	200	0	0
10.3310003	6.95190001	-0.129999995	200	0	0
10.3260002	6.95190001	-0.148000002	200	0	0
10.3039999	6.95190001	-0.219999999	200	0	0
10.29	6.95120001	-0.312000006	200	0	0
10.3479996	6.95190001	-0.211999997	200	0	0
10.3310003	6.95200014	-0.129999995	200	0	0
10.3369999	6.95219994	-0.131999999	200	0	0
10.3109999	6.95229959	-0.202000007	200	0	0
10.3079996	6.95219994	-0.201000005	200	0	0
10.3109999	6.95219994	-0.221000001	200	0	0
10.3199997	6.95200014	-0.224000007	200	0	0
10.3339996	6.95200014	-0.208000004	200	0	0
10.3260002	6.95219994	-0.148000002	200	0	0
10.3310003	6.95229959	-0.169	200	0	0
10.3470001	6.95229959	-0.153999999	200	0	0
10.3389997	6.95229959	-0.131999999	200	0	0
10.3210001	6.95249987	-0.165999994	200	0	0
10.3120003	6.95249987	-0.125	200	0	0
10.3319998	6.95249987	-0.150000006	200	0	0
10.3409996	6.9526	-0.209999993	200	0	0
10.3050003	6.95249987	-0.201000005	200	0	0
10.3339996	6.95270014	-0.169	200	0	0
10.3100004	6.95270014	-0.221000001	200	0	0
10.3319998	6.95270014	-0.208000004	200	0	0
10.3129997	6.9526	-0.222000003	200	0	0
10.3039999	6.95249987	-0.219999999	200	0	0
10.342	6.95280075	-0.172000006	200	0	0
10.323	6.95280075	-0.224999994	200	0	0
10.3140001	6.95289993	-0.165999994	200	0	0
10.3170004	6.95289993	-0.128999993	200	0	0
10.323	6.9531002	-0.169	200	0	0
10.316	6.9531002	-0.148000002	200	0	0
10.3199997	6.9531002	-0.128999993	200	0	0
10.3179998	6.95300007	-0.166999996	200	0	0
10.3210001	6.95300007	-0.149000004	200	0	0
10.3219995	6.95300007	-0.129999995	200	0	0
10.3210001	6.95319986	-0.167999998	200	0	0
10.3299999	6.95319986	-0.209000006	200	0	0
10.3290005	6.9531002	-0.209000006	200	0	0
10.3199997	6.95300007	-0.225999996	200	0	0
10.3030005	6.95300007	-0.202000007	200	0	0
10.3260002	6.95289993	-0.208000004	200	0	0
10.3549995	6.95319986	-0.137999997	200	0	0
10.3470001	6.95319986	-0.155000001	200	0	0
10.3290005	6.9533	-0.131999999	200	0	0
10.3389997	6.9533	-0.172999993	200	0	0
10.3280001	6.95349979	-0.170000002	200	0	0
10.3149996	6.95349979	-0.204999998	200	0	0
10.3210001	6.95340109	-0.225999996	200	0	0
10.3389997	6.95340109	-0.210999995	200	0	0
10.3310003	6.95349979	-0.131999999	200	0	0
10.3400002	6.95349979	-0.153999999	200	0	0
10.323	6.95370007	-0.207000002	200	0	0
10.3280001	6.95370007	-0.150999993	200	0	0
10.309	6.95370007	-0.223000005	200	0	0
10.3380003	6.9538002	-0.152999997	200	0	0
10.323	6.95370007	-0.129999995	200	0	0
10.323	6.95409966	-0.169	200	0	0
10.3290005	6.95400095	-0.209000006	200	0	0
10.309	6.95390034	-0.223000005	200	0	0
10.3249998	6.95400095	-0.150000006	200	0	0
10.3210001	6.95400095	-0.167999998	200	0	0
10.323	6.95390034	-0.207000002	200	0	0
10.3039999	6.95390034	-0.144999996	200	0	0
10.3319998	6.9538002	-0.209999993	200	0	0
10.335	6.95390034	-0.172000006	200	0	0
10.3339996	6.95409966	-0.151999995	200	0	0
10.3140001	6.95409966	-0.224000007	200	0	0
10.3149996	6.95319986	-0.32100001	200	0	0
10.2740002	6.95340109	-0.289999992	200	0	0
10.3240004	6.95440006	-0.130999997	200	0	0
10.3079996	6.95429993	-0.223000005	200	0	0
10.3260002	6.95440006	-0.208000004	200	0	0
10.3290005	6.95440006	-0.150999993	200	0	0
10.3240004	6.95429993	-0.208000004	200	0	0
10.3030005	6.95440006	-0.221000001	200	0	0
10.3269997	6.95460033	-0.170000002	200	0	0
10.3170004	6.95460033	-0.206	200	0	0
10.335	6.9545002	-0.172000006	200	0	0
10.3079996	6.9545002	-0.223000005	200	0	0
10.316	6.9545002	-0.206	200	0	0
10.3039999	6.95460033	-0.126000002	200	0	0
10.3030005	6.9545002	-0.125	200	0	0
10.3149996	6.95499992	-0.128000006	200	0	0
10.3039999	6.95489979	-0.222000003	200	0	0
10.309	6.95499992	-0.145999998	200	0	0
10.3409996	6.95489979	-0.135000005	200	0	0
10.3059998	6.95489979	-0.202999994	200	0	0
10.3039999	6.95469952	-0.222000003	200	0	0
10.3140001	6.95489979	-0.166999996	200	0	0
10.316	6.95530081	-0.166999996	200	0	0
10.3240004	6.95530081	-0.130999997	200	0	0
10.3280001	6.9552002	-0.150999993	200	0	0
10.2939997	6.95510006	-0.123000003	200	0	0
10.3179998	6.95510006	-0.148000002	200	0	0
10.3269997	6.9552002	-0.209000006	200	0	0
10.3319998	6.95510006	-0.209999993	200	0	0
10.3070002	6.95510006	-0.223000005	200	0	0
10.2989998	6.95539999	-0.221000001	200	0	0
10.3389997	6.95549965	-0.135000005	200	0	0
10.316	6.95539999	-0.128999993	200	0	0
10.3310003	6.95539999	-0.171000004	200	0	0
10.3070002	6.95590067	-0.165000007	200	0	0
10.3129997	6.95590067	-0.147	200	0	0
10.323	6.95580006	-0.169	200	0	0
10.316	6.95590067	-0.128999993	200	0	0
10.3249998	6.95569992	-0.170000002	200	0	0
10.302	6.95580006	-0.125	200	0	0
10.3330002	6.95559978	-0.172000006	200	0	0
10.3260002	6.95580006	-0.208000004	200	0	0
10.3269997	6.95580006	-0.228	200	0	0
10.2959995	6.95569992	-0.219999999	200	0	0
10.3079996	6.95609999	-0.223000005	200	0	0
10.309	6.95620012	-0.203999996	200	0	0
10.2840004	6.95590067	-0.236000001	200	0	0
10.3260002	6.95620012	-0.170000002	200	0	0
10.3219995	6.95609999	-0.207000002	200	0	0
10.3219995	6.95609999	-0.149000004	200	0	0
10.3000002	6.95609999	-0.163000003	200	0	0
10.3179998	6.95599985	-0.206	200	0	0
10.3190002	6.95599985	-0.149000004	200	0	0
10.316	6.95590067	-0.206	200	0	0
10.2819996	6.95620012	-0.119999997	200	0	0
10.2889996	6.95590067	-0.256000012	200	0	0
10.3009996	6.95569992	-0.298000008	200	0	0
10.2670002	6.95590067	-0.289000005	200	0	0
10.3199997	6.95639992	-0.167999998	200	0	0
10.3120003	6.95639992	-0.128000006	200	0	0
10.323	6.95679998	-0.130999997	200	0	0
10.309	6.95669985	-0.203999996	200	0	0
10.3030005	6.95650101	-0.222000003	200	0	0
10.3319998	6.95659971	-0.133000001	200	0	0
10.3070002	6.95639992	-0.223000005	200	0	0
10.3149996	6.95650101	-0.206	200	0	0
10.3120003	6.95650101	-0.128000006	200	0	0
10.3170004	6.95650101	-0.148000002	200	0	0
10.3210001	6.95650101	-0.169	200	0	0
10.323	6.95700026	-0.208000004	200	0	0
10.3109999	6.95700026	-0.224000007	200	0	0
10.309	6.95690012	-0.203999996	200	0	0
10.2980003	6.95690012	-0.219999999	200	0	0
10.3079996	6.95710039	-0.165000007	200	0	0
10.3310003	6.95700026	-0.151999995	200	0	0
10.309	6.95710039	-0.203999996	200	0	0
10.3339996	6.95700026	-0.172000006	200	0	0
10.3190002	6.95710039	-0.129999995	200	0	0
10.3199997	6.95710039	-0.149000004	200	0	0
10.3179998	6.95700026	-0.128999993	200	0	0
10.3520002	6.95580006	-0.331999987	200	0	0
10.3140001	6.95719957	-0.224999994	200	0	0
10.3529997	6.95729971	-0.137999997	200	0	0
10.3260002	6.95770025	-0.172000006	200	0	0
10.3120003	6.95739985	-0.204999998	200	0	0
10.2919998	6.95770025	-0.125	200	0	0
10.3120003	6.95770025	-0.149000004	200	0	0
10.3079996	6.95749998	-0.165000007	200	0	0
10.323	6.95749998	-0.150000006	200	0	0
10.3140001	6.95739985	-0.166999996	200	0	0
10.3290005	6.95739985	-0.150999993	200	0	0
10.3030005	6.95739985	-0.126000002	200	0	0
10.3170004	6.95760012	-0.245000005	200	0	0
10.3100004	6.95760012	-0.224000007	200	0	0
10.3149996	6.95760012	-0.206	200	0	0
10.3299999	6.95789957	-0.172999993	200	0	0
10.302	6.95789957	-0.223000005	200	0	0
10.3360004	6.95789957	-0.213	200	0	0
10.3210001	6.95780087	-0.209000006	200	0	0
10.309	6.95770025	-0.224999994	200	0	0
10.3170004	6.95770025	-0.208000004	200	0	0
10.3030005	6.95799971	-0.128999993	200	0	0
10.3319998	6.95799971	-0.174999997	200	0	0
10.3290005	6.95780087	-0.134000003	200	0	0
10.3100004	6.95799971	-0.226999998	200	0	0
10.316	6.95809984	-0.209999993	200	0	0
10.323	6.95819998	-0.152999997	200	0	0
10.3240004	6.95809984	-0.153999999	200	0	0
10.2989998	6.95860004	-0.167999998	200	0	0
10.2989998	6.95840073	-0.225999996	200	0	0
10.3190002	6.95860004	-0.153999999	200	0	0
10.2950001	6.95849991	-0.148000002	200	0	0
10.2860003	6.95830011	-0.125	200	0	0
10.2969999	6.95849991	-0.167999998	200	0	0
10.3000002	6.95830011	-0.224000007	200	0	0
10.3140001	6.95840073	-0.210999995	200	0	0
10.3210001	6.95819998	-0.230000004	200	0	0
10.3299999	6.95830011	-0.213	200	0	0
10.3030005	6.95819998	-0.128999993	200	0	0
10.3210001	6.95819998	-0.210999995	200	0	0
10.3149996	6.95830011	-0.171000004	200	0	0
10.323	6.95819998	-0.172999993	200	0	0
10.2930002	6.95849991	-0.224000007	200	0	0
10.3109999	6.95879984	-0.172999993	200	0	0
10.3079996	6.95860004	-0.228	200	0	0
10.3290005	6.95870018	-0.138999999	200	0	0
10.2989998	6.95879984	-0.208000004	200	0	0
10.3260002	6.95889997	-0.158000007	200	0	0
10.3179998	6.95889997	-0.136000007	200	0	0
10.2869997	6.95879984	-0.128000006	200	0	0
10.2910004	6.95889997	-0.206	200	0	0
10.2980003	6.95889997	-0.226999998	200	0	0
10.2869997	6.95909977	-0.147	200	0	0
10.2969999	6.95940018	-0.223000005	200	0	0
10.2860003	6.95950031	-0.201000005	200	0	0
10.3030005	6.95950031	-0.148000002	200	0	0
10.3190002	6.95950031	-0.171000004	200	0	0
10.3140001	6.95940018	-0.130999997	200	0	0
10.3070002	6.95940018	-0.206	200	0	0
10.3000002	6.95919991	-0.225999996	200	0	0
10.3170004	6.95909977	-0.231999993	200	0	0
10.3100004	6.95940018	-0.150000006	200	0	0
10.309	6.95940018	-0.169	200	0	0
10.3059998	6.95919991	-0.208000004	200	0	0
10.3100004	6.95919991	-0.131999999	200	0	0
10.3079996	6.95919991	-0.150999993	200	0	0
10.2989998	6.95919991	-0.167999998	200	0	0
10.3000002	6.95950031	-0.243000001	200	0	0
10.3059998	6.95969963	-0.206	200	0	0
10.2959995	6.95960045	-0.223000005	200	0	0
10.3120003	6.95969963	-0.150000006	200	0	0
10.2790003	6.95960045	-0.142000005	200	0	0
10.3210001	6.95960045	-0.209999993	200	0	0
10.3059998	6.95950031	-0.224999994	200	0	0
10.3100004	6.95969963	-0.225999996	200	0	0
10.2939997	6.95960045	-0.241999999	200	0	0
10.3129997	6.95979977	-0.150000006	200	0	0
10.3190002	6.95979977	-0.171000004	200	0	0
10.2959995	6.95979977	-0.203999996	200	0	0
10.29	6.95950031	-0.298000008	200	0	0
10.2989998	6.96030092	-0.203999996	200	0	0
10.2919998	6.96030092	-0.222000003	200	0	0
10.2819996	6.96039963	-0.238000005	200	0	0
10.3059998	6.96039963	-0.224999994	200	0	0
10.2889996	6.96039963	-0.202000007	200	0	0
10.2629995	6.96020031	-0.118000001	200	0	0
10.3100004	6.96049976	-0.166999996	200	0	0
10.302	6.96049976	-0.222000003	200	0	0
10.3210001	6.96049976	-0.208000004	200	0	0
10.2969999	6.96049976	-0.143999994	200	0	0
10.2969999	6.96070004	-0.142000005	200	0	0
10.3030005	6.96070004	-0.163000003	200	0	0
10.2889996	6.96070004	-0.197999999	200	0	0
10.309	6.96070004	-0.222000003	200	0	0
10.2980003	6.96080017	-0.123000003	200	0	0
10.3140001	6.96080017	-0.147	200	0	0
10.316	6.96090078	-0.165999994	200	0	0
10.302	6.96080017	-0.163000003	200	0	0
10.2939997	6.96090078	-0.199000001	200	0	0
10.2849998	6.96080017	-0.216000006	200	0	0
10.2849998	6.9612999	-0.197999999	200	0	0
10.302	6.9612999	-0.222000003	200	0	0
10.2919998	6.9612999	-0.162	200	0	0
10.3199997	6.9612999	-0.150000006	200	0	0
10.3140001	6.96140003	-0.245000005	200	0	0
10.2980003	6.96140003	-0.221000001	200	0	0
10.2969999	6.96169996	-0.143999994	200	0	0
10.2840004	6.96159983	-0.159999996	200	0	0
10.302	6.96150064	-0.222000003	200	0	0
10.29	6.96159983	-0.218999997	200	0	0
10.3059998	6.96169996	-0.165999994	200	0	0
10.2969999	6.9618001	-0.163000003	200	0	0
10.3009996	6.96169996	-0.202999994	200	0	0
10.2989998	6.9618001	-0.221000001	200	0	0
10.2849998	6.96169996	-0.217999995	200	0	0
10.3000002	6.96210003	-0.240999997	200	0	0
10.2840004	6.96219969	-0.216999993	200	0	0
10.302	6.96219969	-0.202999994	200	0	0
10.3179998	6.96199989	-0.149000004	200	0	0
10.3070002	6.96210003	-0.223000005	200	0	0
10.2889996	6.96190023	-0.142000005	200	0	0
10.2939997	6.96199989	-0.238999993	200	0	0
10.2980003	6.96210003	-0.202000007	200	0	0
10.2919998	6.96199989	-0.162	200	0	0
10.3079996	6.96199989	-0.224000007	200	0	0
10.3269997	6.96210003	-0.26699999	200	0	0
10.2939997	6.96229982	-0.162	200	0	0
10.2740002	6.96210003	-0.137999997	200	0	0
10.29	6.96229982	-0.218999997	200	0	0
10.2910004	6.96229982	-0.200000003	200	0	0
10.2849998	6.96239996	-0.217999995	200	0	0
10.2849998	6.96239996	-0.237000003	200	0	0
10.2969999	6.96260023	-0.218999997	200	0	0
10.2840004	6.96270037	-0.213	200	0	0
10.2720003	6.96280098	-0.209999993	200	0	0
10.2679996	6.96309996	-0.186000004	200	0	0
10.2659998	6.96309996	-0.224000007	200	0	0
10.2930002	6.96309996	-0.211999997	200	0	0
10.2869997	6.96309996	-0.134000003	200	0	0
10.2740002	6.96309996	-0.149000004	200	0	0
10.302	6.96330023	-0.194999993	200	0	0
10.302	6.96330023	-0.214000002	200	0	0
10.2700005	6.96349955	-0.185000002	200	0	0
10.283	6.96349955	-0.208000004	200	0	0
10.3050003	6.96340084	-0.215000004	200	0	0
10.2889996	6.96359968	-0.189999998	200	0	0
10.2930002	6.96359968	-0.209999993	200	0	0
10.2869997	6.96369982	-0.209000006	200	0	0
10.2589998	6.96340084	-0.145999998	200	0	0
10.2819996	6.9640007	-0.150000006	200	0	0
10.283	6.9640007	-0.207000002	200	0	0
10.2790003	6.9640007	-0.187000006	200	0	0
10.2799997	6.96390009	-0.149000004	200	0	0
10.2889996	6.96390009	-0.209000006	200	0	0
10.2930002	6.96369982	-0.133000001	200	0	0
10.2910004	6.96390009	-0.189999998	200	0	0
10.2980003	6.96359968	-0.135000005	200	0	0
10.2969999	6.96369982	-0.153999999	200	0	0
10.2700005	6.96349955	-0.127000004	200	0	0
10.2860003	6.96359968	-0.150999993	200	0	0
10.2860003	6.9640007	-0.130999997	200	0	0
10.2639999	6.96420002	-0.202000007	200	0	0
10.2889996	6.96420002	-0.189999998	200	0	0
10.2869997	6.96409988	-0.208000004	200	0	0
10.2869997	6.96439981	-0.150999993	200	0	0
10.2709999	6.96439981	-0.203999996	200	0	0
10.2779999	6.96439981	-0.187000006	200	0	0
10.2729998	6.96420002	-0.128000006	200	0	0
10.2869997	6.96430016	-0.150999993	200	0	0
10.2880001	6.96430016	-0.209000006	200	0	0
10.2849998	6.96420002	-0.150000006	200	0	0
10.29	6.96449995	-0.151999995	200	0	0
10.2880001	6.96449995	-0.188999996	200	0	0
10.3050003	6.96430016	-0.136000007	200	0	0
10.2849998	6.96460009	-0.188999996	200	0	0
10.276	6.96460009	-0.224999994	200	0	0
10.2889996	6.96460009	-0.209000006	200	0	0
10.2910004	6.96479988	-0.209000006	200	0	0
10.2729998	6.96490002	-0.186000004	200	0	0
10.2650003	6.96490002	-0.144999996	200	0	0
10.2700005	6.96469975	-0.203999996	200	0	0
10.2679996	6.96469975	-0.145999998	200	0	0
10.2620001	6.96460009	-0.125	200	0	0
10.2720003	6.96460009	-0.147	200	0	0
10.3129997	6.96449995	-0.137999997	200	0	0
10.2690001	6.96469975	-0.223000005	200	0	0
10.2709999	6.96500015	-0.185000002	200	0	0
10.2629995	6.96520042	-0.182999998	200	0	0
10.2639999	6.96530104	-0.221000001	200	0	0
10.2849998	6.96530104	-0.208000004	200	0	0
10.2480001	6.96520042	-0.236000001	200	0	0
10.2679996	6.96520042	-0.222000003	200	0	0
10.2659998	6.96539974	-0.184	200	0	0
10.2620001	6.96539974	-0.143999994	200	0	0
10.2860003	6.96530104	-0.246000007	200	0	0
10.2849998	6.96539974	-0.208000004	200	0	0
10.2600002	6.96549988	-0.238999993	200	0	0
10.2720003	6.96549988	-0.147	200	0	0
10.2639999	6.96560001	-0.202000007	200	0	0
10.2770004	6.96580029	-0.224999994	200	0	0
10.2720003	6.96580029	-0.203999996	200	0	0
10.2410002	6.96570015	-0.101000004	200	0	0
10.2620001	6.96580029	-0.239999995	200	0	0
10.2440004	6.9659996	-0.234999999	200	0	0
10.2609997	6.9659996	-0.143999994	200	0	0
10.257	6.9659996	-0.218999997	200	0	0
10.2609997	6.9659996	-0.201000005	200	0	0
10.2539997	6.9659996	-0.180000007	200	0	0
10.2969999	6.96619987	-0.230000004	200	0	0
10.2790003	6.96619987	-0.206	200	0	0
10.2659998	6.96619987	-0.126000002	200	0	0
10.2550001	6.9659996	-0.123000003	200	0	0
10.2600002	6.96640015	-0.201000005	200	0	0
10.2519999	6.96640015	-0.217999995	200	0	0
10.2690001	6.96640015	-0.184	200	0	0
10.2749996	6.96650076	-0.186000004	200	0	0
10.2690001	6.96650076	-0.202999994	200	0	0
10.2930002	6.96659994	-0.151999995	200	0	0
10.2910004	6.96650076	-0.150999993	200	0	0
10.243	6.96689987	-0.138999999	200	0	0
10.2609997	6.9666996	-0.143999994	200	0	0
10.2740002	6.96710014	-0.204999998	200	0	0
10.2550001	6.96710014	-0.180999994	200	0	0
10.2460003	6.96700001	-0.140000001	200	0	0
10.2620001	6.9671998	-0.143999994	200	0	0
10.2749996	6.96729994	-0.186000004	200	0	0
10.2659998	6.96729994	-0.202000007	200	0	0
10.2550001	6.9671998	-0.218999997	200	0	0
10.2620001	6.9671998	-0.201000005	200	0	0
10.2340002	6.96710014	-0.213	200	0	0
10.2519999	6.96740007	-0.217999995	200	0	0
10.257	6.96729994	-0.143000007	200	0	0
10.2580004	6.96740007	-0.200000003	200	0	0
10.2530003	6.96750021	-0.142000005	200	0	0
10.2440004	6.96740007	-0.138999999	200	0	0
10.2410002	6.96780109	-0.177000001	200	0	0
10.2659998	6.96759987	-0.202000007	200	0	0
10.2550001	6.96780109	-0.123000003	200	0	0
10.2600002	6.96780109	-0.143000007	200	0	0
10.2489996	6.9677	-0.179000005	200	0	0
10.2449999	6.9677	-0.120999999	200	0	0
10.2320004	6.96750021	-0.193000004	200	0	0
10.2510004	6.96750021	-0.179000005	200	0	0
10.257	6.96759987	-0.143000007	200	0	0
10.2440004	6.96799994	-0.195999995	200	0	0
10.2690001	6.96799994	-0.184	200	0	0
10.2589998	6.96799994	-0.219999999	200	0	0
10.2449999	6.9678998	-0.196999997	200	0	0
10.2559996	6.9678998	-0.180999994	200	0	0
10.2309999	6.9677	-0.231000006	200	0	0
10.2410002	6.96780109	-0.195999995	200	0	0
10.2530003	6.9677	-0.199000001	200	0	0
10.2600002	6.9677	-0.219999999	200	0	0
10.2559996	6.96810007	-0.181999996	200	0	0
10.2399998	6.9678998	-0.137999997	200	0	0
10.2360001	6.96810007	-0.138999999	200	0	0
10.2410002	6.96799994	-0.137999997	200	0	0
10.2279997	6.96810007	-0.213	200	0	0
10.2679996	6.96810007	-0.204999998	200	0	0
10.2379999	6.96830034	-0.201000005	200	0	0
10.2460003	6.96830034	-0.222000003	200	0	0
10.2340002	6.96840096	-0.143999994	200	0	0
10.2580004	6.96830034	-0.149000004	200	0	0
10.2620001	6.9685998	-0.228	200	0	0
10.2580004	6.96869993	-0.208000004	200	0	0
10.25	6.9685998	-0.148000002	200	0	0
10.2709999	6.96849966	-0.210999995	200	0	0
10.2600002	6.9685998	-0.188999996	200	0	0
10.2600002	6.96849966	-0.150999993	200	0	0
10.2329998	6.96840096	-0.219999999	200	0	0
10.2550001	6.96840096	-0.207000002	200	0	0
10.2600002	6.96840096	-0.188999996	200	0	0
10.2440004	6.96900082	-0.223000005	200	0	0
10.2419996	6.96900082	-0.147	200	0	0
10.2530003	6.96900082	-0.187999994	200	0	0
10.2299995	6.96919966	-0.240999997	200	0	0
10.2600002	6.96919966	-0.209999993	200	0	0
10.2530003	6.96919966	-0.188999996	200	0	0
10.2370005	6.96909952	-0.223000005	200	0	0
10.2530003	6.96909952	-0.209000006	200	0	0
10.2410002	6.96929979	-0.148000002	200	0	0
10.2620001	6.96919966	-0.153999999	200	0	0
10.2469997	6.96950006	-0.207000002	200	0	0
10.2510004	6.96939993	-0.188999996	200	0	0
10.2370005	6.96939993	-0.203999996	200	0	0
10.2299995	6.96919966	-0.279000014	200	0	0
10.2550001	6.96929979	-0.189999998	200	0	0
10.2399998	6.96929979	-0.244000003	200	0	0
10.2530003	6.96929979	-0.209000006	200	0	0
10.2519999	6.96929979	-0.228	200	0	0
10.2379999	6.9696002	-0.204999998	200	0	0
10.2180004	6.9698	-0.275999993	200	0	0
10.2270002	6.96990013	-0.238999993	200	0	0
10.2440004	6.9698	-0.187000006	200	0	0
10.2370005	6.9698	-0.243000001	200	0	0
10.2370005	6.9698	-0.204999998	200	0	0
10.2480001	6.9698	-0.226999998	200	0	0
10.2270002	6.96969986	-0.239999995	200	0	0
10.2460003	6.96969986	-0.207000002	200	0	0
10.2279997	6.9698	-0.144999996	200	0	0
10.224	6.96969986	-0.143999994	200	0	0
10.2410002	6.96999979	-0.185000002	200	0	0
10.2360001	6.9698	-0.300000012	200	0	0
10.2340002	6.96999979	-0.221000001	200	0	0
10.2150002	6.96990013	-0.273999989	200	0	0
10.2539997	6.96999979	-0.150000006	200	0	0
10.2510004	6.97020006	-0.187999994	200	0	0
10.2480001	6.97020006	-0.149000004	200	0	0
10.2469997	6.97030067	-0.149000004	200	0	0
10.2329998	6.97039986	-0.202000007	200	0	0
10.2250004	6.97030067	-0.200000003	200	0	0
10.2440004	6.97030067	-0.186000004	200	0	0
10.2340002	6.97020006	-0.222000003	200	0	0
10.2329998	6.97020006	-0.202000007	200	0	0
10.2250004	6.97049999	-0.238000005	200	0	0
10.2489996	6.97049999	-0.225999996	200	0	0
10.2209997	6.97049999	-0.199000001	200	0	0
10.2360001	6.97060013	-0.222000003	200	0	0
10.2779999	6.97020006	-0.291000009	200	0	0
10.2189999	6.97049999	-0.294	200	0	0
10.2259998	6.97049999	-0.27700001	200	0	0
10.2329998	6.9708004	-0.202000007	200	0	0
10.2440004	6.97060013	-0.204999998	200	0	0
10.2159996	6.97049999	-0.141000003	200	0	0
10.2399998	6.97099972	-0.185000002	200	0	0
10.2309999	6.97090101	-0.221000001	200	0	0
10.2329998	6.97090101	-0.202000007	200	0	0
10.2270002	6.97090101	-0.181999996	200	0	0
10.2290001	6.97090101	-0.238999993	200	0	0
10.2299995	6.97109985	-0.202000007	200	0	0
10.2419996	6.97109985	-0.186000004	200	0	0
10.2259998	6.97099972	-0.218999997	200	0	0
10.2410002	6.97099972	-0.203999996	200	0	0
10.2370005	6.97119999	-0.143999994	200	0	0
10.2229996	6.97130013	-0.236000001	200	0	0
10.2279997	6.97130013	-0.180000007	200	0	0
10.224	6.97130013	-0.197999999	200	0	0
10.2349997	6.97119999	-0.238999993	200	0	0
10.2399998	6.97150087	-0.238999993	200	0	0
10.2489996	6.97159958	-0.145999998	200	0	0
10.2390003	6.97169971	-0.181999996	200	0	0
10.2370005	6.97169971	-0.218999997	200	0	0
10.2480001	6.97169971	-0.202999994	200	0	0
10.2370005	6.97159958	-0.218999997	200	0	0
10.2320004	6.97179985	-0.237000003	200	0	0
10.2329998	6.97189999	-0.199000001	200	0	0
10.2320004	6.97189999	-0.180000007	200	0	0
10.2410002	6.97179985	-0.143999994	200	0	0
10.2290001	6.97179985	-0.197999999	200	0	0
10.2250004	6.97169971	-0.273999989	200	0	0
10.1969995	6.97150087	-0.266000003	200	0	0
10.2410002	6.97179985	-0.277999997	200	0	0
10.2659998	6.97189999	-0.150000006	200	0	0
10.2469997	6.97219992	-0.201000005	200	0	0
10.2309999	6.97219992	-0.234999999	200	0	0
10.2340002	6.97210026	-0.197999999	200	0	0
10.2550001	6.97210026	-0.222000003	200	0	0
10.2360001	6.97219992	-0.141000003	200	0	0
10.2340002	6.97239971	-0.195999995	200	0	0
10.2180004	6.97239971	-0.210999995	200	0	0
10.224	6.97229958	-0.194999993	200	0	0
10.2460003	6.97229958	-0.143000007	200	0	0
10.2209997	6.97259998	-0.192000002	200	0	0
10.2279997	6.97249985	-0.213	200	0	0
10.2419996	6.97270012	-0.216999993	200	0	0
10.2259998	6.97280073	-0.233999997	200	0	0
10.2119999	6.97280073	-0.210999995	200	0	0
10.2130003	6.97270012	-0.189999998	200	0	0
10.2360001	6.97300005	-0.143000007	200	0	0
10.2080002	6.97289991	-0.231000006	200	0	0
10.2209997	6.97300005	-0.195999995	200	0	0
10.2110004	6.97289991	-0.173999995	200	0	0
10.2290001	6.97289991	-0.216999993	200	0	0
10.2299995	6.97289991	-0.199000001	200	0	0
10.1899996	6.97280073	-0.261999995	200	0	0
10.2349997	6.97319984	-0.144999996	200	0	0
10.2220001	6.97319984	-0.216999993	200	0	0
10.2290001	6.97319984	-0.180999994	200	0	0
10.2329998	6.97319984	-0.201000005	200	0	0
10.2040005	6.97310019	-0.174999997	200	0	0
10.2340002	6.97349977	-0.221000001	200	0	0
10.1990004	6.97349977	-0.172999993	200	0	0
10.217	6.97340107	-0.234999999	200	0	0
10.2080002	6.97349977	-0.194999993	200	0	0
10.2309999	6.97329998	-0.143000007	200	0	0
10.2110004	6.97340107	-0.175999999	200	0	0
10.2229996	6.97340107	-0.199000001	200	0	0
10.2200003	6.97359991	-0.197999999	200	0	0
10.217	6.97359991	-0.216000006	200	0	0
10.2089996	6.97370005	-0.194999993	200	0	0
10.1999998	6.97370005	-0.211999997	200	0	0
10.2130003	6.97370005	-0.233999997	200	0	0
10.2290001	6.97349977	-0.143000007	200	0	0
10.2089996	6.97380018	-0.175999999	200	0	0
10.2150002	6.97359991	-0.138999999	200	0	0
10.2030001	6.97390032	-0.231999993	200	0	0
10.224	6.97390032	-0.217999995	200	0	0
10.2130003	6.97409964	-0.177000001	200	0	0
10.2209997	6.97400093	-0.197999999	200	0	0
10.2030001	6.97400093	-0.173999995	200	0	0
10.2089996	6.97400093	-0.137999997	200	0	0
10.1929998	6.97409964	-0.191	200	0	0
10.198	6.97400093	-0.230000004	200	0	0
10.2309999	6.97400093	-0.219999999	200	0	0
10.2040005	6.97429991	-0.174999997	200	0	0
10.2130003	6.97429991	-0.195999995	200	0	0
10.2049999	6.97429991	-0.231999993	200	0	0
10.2049999	6.97429991	-0.213	200	0	0
10.2180004	6.97419977	-0.196999997	200	0	0
10.2130003	6.97419977	-0.215000004	200	0	0
10.1969995	6.97450018	-0.210999995	200	0	0
10.217	6.97450018	-0.196999997	200	0	0
10.1949997	6.97460032	-0.171000004	200	0	0
10.2049999	6.97460032	-0.211999997	200	0	0
