9.0340004	6.69590092	1.09500003	0	200	0
9.03899956	6.6958003	1.09399998	0	200	0
8.97999954	6.69599962	1.07099998	0	200	0
9.00599957	6.69590092	1.08299994	0	200	0
8.95800018	6.69609976	1.05900002	0	200	0
8.97799969	6.69599962	1.08700001	0	200	0
8.95199966	6.69609976	1.07599998	0	200	0
8.92399979	6.69619989	1.06200004	0	200	0
8.92599964	6.69619989	1.07799995	0	200	0
8.90200043	6.69630003	1.06599998	0	200	0
8.95199966	6.69609976	1.09200001	0	200	0
8.98099995	6.69599962	1.10300004	0	200	0
8.96100044	6.69609976	1.10599995	0	200	0
8.93700027	6.69619989	1.09200001	0	200	0
8.90100002	6.69630003	1.08200002	0	200	0
8.8210001	6.69650078	1.03100002	0	200	0
8.80300045	6.69659996	1.01900005	0	200	0
8.77200031	6.69669962	1.00800002	0	200	0
8.70699978	6.69689989	0.971000016	0	200	0
8.6420002	6.69710016	0.903999984	0	200	0
8.65400028	6.69710016	0.917999983	0	200	0
8.67099953	6.69700003	0.94599998	0	200	0
8.69200039	6.69689989	0.958000004	0	200	0
8.66699982	6.69700003	0.962000012	0	200	0
8.61200047	6.69719982	0.925000012	0	200	0
8.64500046	6.69710016	0.949999988	0	200	0
8.60900021	6.69719982	0.910000026	0	200	0
8.60900021	6.69719982	0.879000008	0	200	0
8.61499977	6.69719982	0.893999994	0	200	0
8.54899979	6.69740009	0.825999975	0	200	0
8.55599976	6.69740009	0.839999974	0	200	0
8.57499981	6.69729996	0.852999985	0	200	0
8.8760004	6.69640017	1.102	0	200	0
8.86999989	6.69640017	1.08700001	0	200	0
8.88599968	6.69630003	1.10000002	0	200	0
8.91499996	6.69630003	1.11199999	0	200	0
8.92099953	6.69619989	1.11099994	0	200	0
8.86800003	6.69640017	1.07099998	0	200	0
8.81999969	6.69650078	1.04799998	0	200	0
8.79699993	6.69659996	1.051	0	200	0
8.77900028	6.69669962	1.023	0	200	0
8.8039999	6.69659996	1.03400004	0	200	0
8.83300018	6.69650078	1.07700002	0	200	0
8.74499989	6.69679976	1.01300001	0	200	0
8.69499969	6.69689989	0.987999976	0	200	0
8.65200043	6.69710016	0.964999974	0	200	0
8.68299961	6.69700003	0.975000024	0	200	0
8.76099968	6.69669962	1.04100001	0	200	0
8.73600006	6.69679976	1.02999997	0	200	0
8.45699978	6.69770002	0.720000029	0	200	0
8.49499989	6.69759989	0.758000016	0	200	0
8.50399971	6.69750023	0.787999988	0	200	0
8.44799995	6.69770002	0.751999974	0	200	0
8.48499966	6.69759989	0.776000023	0	200	0
8.55200005	6.69740009	0.856000006	0	200	0
8.5170002	6.69750023	0.832000017	0	200	0
8.52099991	6.69750023	0.815999985	0	200	0
8.58199978	6.69729996	0.898000002	0	200	0
8.58199978	6.69729996	0.883000016	0	200	0
9.23900032	6.69510031	1.09899998	0	200	0
9.27000046	6.69500017	1.12800002	0	200	0
9.29899979	6.69490004	1.13999999	0	200	0
9.32400036	6.69469976	1.13600004	0	200	0
9.28299999	6.69500017	1.10899997	0	200	0
9.31700039	6.69490004	1.12100005	0	200	0
9.34200001	6.6947999	1.11699998	0	200	0
9.27299976	6.69500017	1.09399998	0	200	0
9.34700012	6.69469976	1.10000002	0	200	0
9.34000015	6.6947999	1.10099995	0	200	0
9.31700039	6.69490004	1.10399997	0	200	0
9.31599998	6.69490004	1.08800006	0	200	0
9.33899975	6.6947999	1.08399999	0	200	0
9.22999954	6.69510031	1.11699998	0	200	0
9.19699955	6.69530106	1.10399997	0	200	0
9.19900036	6.69519997	1.10500002	0	200	0
9.23900032	6.69510031	1.13199997	0	200	0
9.20800018	6.69519997	1.12	0	200	0
9.27099991	6.69500017	1.14400005	0	200	0
9.16899967	6.69539976	1.12300003	0	200	0
9.19299984	6.69530106	1.12100005	0	200	0
9.13599968	6.69539976	1.11199999	0	200	0
9.14599991	6.6954999	1.11000001	0	200	0
9.21100044	6.69519997	1.13600004	0	200	0
9.15299988	6.69539976	1.14199996	0	200	0
9.14400005	6.6954999	1.14300001	0	200	0
9.1420002	6.6954999	1.12699997	0	200	0
9.10200024	6.69560003	1.11699998	0	200	0
9.18799973	6.69530106	1.13800001	0	200	0
9.21000004	6.69519997	1.153	0	200	0
9.20100021	6.69530106	1.153	0	200	0
9.23400021	6.69510031	1.14900005	0	200	0
9.06400013	6.69570017	1.12300003	0	200	0
9.15600014	6.69539976	1.15799999	0	200	0
9.08300018	6.69570017	1.13600004	0	200	0
9.09300041	6.69560003	1.13499999	0	200	0
9.12699986	6.6954999	1.16199994	0	200	0
9.02200031	6.69590092	1.12899995	0	200	0
9.08399963	6.69560003	1.15199995	0	200	0
9.04699993	6.6958003	1.14100003	0	200	0
9.04300022	6.6958003	1.12600005	0	200	0
8.48499966	6.69759989	0.791000009	0	200	0
8.52600002	6.69750023	0.846000016	0	200	0
8.51399994	6.69759989	0.847000003	0	200	0
8.42399979	6.69780111	0.726999998	0	200	0
8.45300007	6.69770002	0.782000005	0	200	0
8.42399979	6.69780111	0.711000025	0	200	0
8.45199966	6.69770002	0.76700002	0	200	0
8.3920002	6.69789982	0.657000005	0	200	0
8.32800007	6.69810009	0.592999995	0	200	0
8.36299992	6.69799995	0.648000002	0	200	0
8.36600018	6.69799995	0.662	0	200	0
8.39299965	6.69789982	0.686999977	0	200	0
8.30500031	6.69820023	0.551999986	0	200	0
8.33600044	6.69810009	0.621999979	0	200	0
8.39000034	6.69789982	0.717999995	0	200	0
8.47500038	6.69759989	0.824000001	0	200	0
8.45199966	6.69770002	0.797999978	0	200	0
8.39599991	6.69789982	0.731999993	0	200	0
8.42800045	6.69780111	0.772000015	0	200	0
8.41499996	6.69780111	0.759000003	0	200	0
8.61600018	6.69719982	0.95599997	0	200	0
8.58899975	6.69729996	0.927999973	0	200	0
8.58399963	6.69729996	0.913999975	0	200	0
8.65100002	6.69710016	0.980000019	0	200	0
8.68000031	6.69700003	0.990999997	0	200	0
8.61900043	6.69719982	0.971000016	0	200	0
8.72000027	6.69689989	1.03100002	0	200	0
8.69299984	6.69689989	1.01999998	0	200	0
8.48700047	6.69759989	0.837000012	0	200	0
8.30000019	6.69820023	0.569000006	0	200	0
8.30700016	6.69820023	0.583000004	0	200	0
8.25399971	6.69840097	0.503000021	0	200	0
8.24800014	6.69830036	0.49000001	0	200	0
8.25899982	6.69830036	0.51700002	0	200	0
8.25599957	6.69830036	0.503000021	0	200	0
8.27400017	6.69830036	0.528999984	0	200	0
8.30300045	6.69820023	0.598999977	0	200	0
8.33300018	6.69810009	0.698000014	0	200	0
8.30900002	6.69820023	0.628000021	0	200	0
8.31299973	6.69820023	0.64200002	0	200	0
8.35700035	6.69799995	0.694999993	0	200	0
8.33699989	6.69810009	0.666999996	0	200	0
8.33399963	6.69810009	0.652999997	0	200	0
8.32999992	6.69810009	0.638000011	0	200	0
8.35599995	6.69799995	0.740999997	0	200	0
8.39500046	6.69789982	0.763000011	0	200	0
8.36100006	6.69799995	0.723999977	0	200	0
8.39500046	6.69789982	0.777999997	0	200	0
8.42099953	6.69780111	0.787999988	0	200	0
8.46500015	6.69770002	0.825999975	0	200	0
8.49600029	6.69759989	0.865999997	0	200	0
8.52700043	6.69750023	0.907000005	0	200	0
8.55500031	6.69740009	0.917999983	0	200	0
8.52400017	6.69750023	0.893000007	0	200	0
8.51299953	6.69750023	0.864000022	0	200	0
8.55599976	6.69740009	0.90200001	0	200	0
8.54500008	6.69740009	0.888000011	0	200	0
8.45899963	6.69770002	0.842000008	0	200	0
8.42599964	6.69780111	0.802999973	0	200	0
8.22900009	6.69840097	0.463999987	0	200	0
8.22500038	6.69840097	0.449999988	0	200	0
8.27099991	6.69830036	0.560000002	0	200	0
8.23600006	6.69840097	0.493000001	0	200	0
8.1420002	6.69869995	0.286000013	0	200	0
8.15100002	6.69869995	0.31400001	0	200	0
8.18099976	6.69859982	0.352999985	0	200	0
8.16899967	6.69859982	0.310000002	0	200	0
8.16699982	6.69859982	0.296000004	0	200	0
8.18900013	6.69849968	0.382999986	0	200	0
8.13799953	6.69869995	0.301999986	0	200	0
8.17599964	6.69859982	0.370000005	0	200	0
8.14999962	6.69869995	0.328999996	0	200	0
8.11400032	6.69880009	0.247999996	0	200	0
8.11299992	6.69880009	0.216999993	0	200	0
8.11600018	6.69880009	0.231999993	0	200	0
8.12300014	6.69880009	0.184	0	200	0
8.11699963	6.69880009	0.261999995	0	200	0
9.07699966	6.69570017	1.16900003	0	200	0
9.02499962	6.69590092	1.14499998	0	200	0
9.06499958	6.69570017	1.15499997	0	200	0
9.12199974	6.69560003	1.16299999	0	200	0
8.99100018	6.69599962	1.13399994	0	200	0
9.02499962	6.6958003	1.16100001	0	200	0
9.02900028	6.69590092	1.15999997	0	200	0
8.21100044	6.69849968	0.513999999	0	200	0
8.26099968	6.69830036	0.578000009	0	200	0
8.23400021	6.69840097	0.538999975	0	200	0
8.23999977	6.69840097	0.522000015	0	200	0
8.27000046	6.69830036	0.591000021	0	200	0
8.19999981	6.69849968	0.425999999	0	200	0
8.19799995	6.69849968	0.456	0	200	0
8.20300007	6.69849968	0.469999999	0	200	0
8.20499992	6.69849968	0.43900001	0	200	0
8.28199959	6.69830036	0.634000003	0	200	0
8.27999973	6.69830036	0.603999972	0	200	0
8.20100021	6.69849968	0.500999987	0	200	0
8.10599995	6.69880009	0.31099999	0	200	0
8.15200043	6.69869995	0.374000013	0	200	0
8.11499977	6.69880009	0.323000014	0	200	0
8.11400032	6.69880009	0.294	0	200	0
8.15100002	6.69869995	0.358999997	0	200	0
8.17599964	6.69859982	0.400000006	0	200	0
8.17199993	6.69859982	0.386000007	0	200	0
8.19299984	6.69849968	0.397000015	0	200	0
8.17500019	6.69859982	0.430999994	0	200	0
8.17599964	6.69859982	0.444999993	0	200	0
8.14799976	6.69869995	0.391000003	0	200	0
8.08399963	6.69890022	0.148000002	0	200	0
8.0880003	6.69890022	0.115999997	0	200	0
8.09799957	6.69880009	0.115000002	0	200	0
8.10900021	6.69880009	0.172999993	0	200	0
8.06299973	6.69900084	0.108999997	0	200	0
8.04899979	6.69900084	0.0359999985	0	200	0
8.05500031	6.69900084	0.0799999982	0	200	0
8.05200005	6.69900084	0.050999999	0	200	0
8.0710001	6.69890022	-0.00200000009	0	200	0
8.06599998	6.69900084	0.0920000002	0	200	0
8.07699966	6.69890022	0.104000002	0	200	0
8.08199978	6.69890022	0.0260000005	0	200	0
8.08399963	6.69890022	0.0869999975	0	200	0
8.08399963	6.69890022	0.0719999969	0	200	0
8.08699989	6.69890022	0.0399999991	0	200	0
8.05200005	6.69900084	0.00400000019	0	200	0
8.05000019	6.69900084	-0.103	0	200	0
8.04699993	6.69900084	-0.118000001	0	200	0
8.06599998	6.69890022	-0.202000007	0	200	0
8.04699993	6.69900084	-0.133000001	0	200	0
8.06900024	6.69900084	-0.156000003	0	200	0
8.03899956	6.69900084	-0.177000001	0	200	0
8.05300045	6.69900084	-0.213	0	200	0
8.07299995	6.69890022	-0.361000001	0	200	0
8.06499958	6.69890022	-0.342999995	0	200	0
8.06499958	6.69890022	-0.280000001	0	200	0
8.09399986	6.69880009	-0.368000001	0	200	0
8.06999969	6.69890022	-0.296999991	0	200	0
8.11400032	6.69880009	-0.405999988	0	200	0
8.12699986	6.69869995	-0.474999994	0	200	0
8.11200047	6.69880009	-0.453999996	0	200	0
8.11100006	6.69869995	-0.453000009	0	200	0
8.11499977	6.69880009	-0.437999994	0	200	0
8.04100037	6.69900084	-0.0689999983	0	200	0
8.05000019	6.69900084	-0.0410000011	0	200	0
8.04800034	6.69900084	-0.0560000017	0	200	0
8.07299995	6.69890022	-0.377000004	0	200	0
8.07900047	6.69890022	0.180000007	0	200	0
8.05300045	6.69900084	0.127000004	0	200	0
8.06599998	6.69900084	0.153999999	0	200	0
8.07600021	6.69890022	0.165999994	0	200	0
8.07499981	6.69890022	0.196999997	0	200	0
8.06099987	6.69900084	0.170000002	0	200	0
8.08699989	6.69890022	0.223000005	0	200	0
8.09399986	6.69890022	0.237000003	0	200	0
8.05099964	6.69900084	-0.0260000005	0	200	0
8.02299976	6.69909954	0.0120000001	0	200	0
8.02499962	6.69909954	0.0879999995	0	200	0
8.05099964	6.69900084	-0.228	0	200	0
8.23799992	6.69840097	0.59799999	0	200	0
8.21000004	6.69849968	0.54400003	0	200	0
8.22200012	6.69849968	0.572000027	0	200	0
8.22900009	6.69840097	0.584999979	0	200	0
8.23600006	6.69840097	0.569000006	0	200	0
8.20499992	6.69849968	0.529999971	0	200	0
8.16399956	6.69859982	0.479000002	0	200	0
8.1789999	6.69859982	0.504999995	0	200	0
8.17300034	6.69859982	0.460999995	0	200	0
8.15600014	6.69869995	0.479000002	0	200	0
8.13500023	6.69869995	0.409000009	0	200	0
8.14999962	6.69869995	0.465999991	0	200	0
8.14700031	6.69869995	0.451000005	0	200	0
8.14500046	6.69869995	0.437000006	0	200	0
8.11499977	6.69880009	0.338999987	0	200	0
8.12199974	6.69880009	0.381999999	0	200	0
8.125	6.69880009	0.365999997	0	200	0
8.18299961	6.69859982	0.518999994	0	200	0
8.08600044	6.69890022	0.314999998	0	200	0
8.09200001	6.69890022	0.328000009	0	200	0
8.30099964	6.69820023	0.704999983	0	200	0
8.28100014	6.69830036	0.648999989	0	200	0
8.30300045	6.69820023	0.675000012	0	200	0
8.29599953	6.69820023	0.661000013	0	200	0
8.05500031	6.69900084	0.202000007	0	200	0
8.05000019	6.69900084	0.188999996	0	200	0
8.05500031	6.69900084	0.232999995	0	200	0
8.08600044	6.69890022	0.268999994	0	200	0
8.07199955	6.69890022	0.257999986	0	200	0
8.0909996	6.69890022	0.282999992	0	200	0
8.05200005	6.69900084	0.248999998	0	200	0
8.06499958	6.69900084	0.25999999	0	200	0
8.13199997	6.69869995	-0.556999981	0	200	0
8.1260004	6.69880009	-0.474999994	0	200	0
8.13000011	6.69869995	-0.540000021	0	200	0
8.125	6.69869995	-0.523000002	0	200	0
8.14500046	6.69859982	-0.56099999	0	200	0
8.12699986	6.69869995	-0.490999997	0	200	0
8.13899994	6.69859982	-0.542999983	0	200	0
8.15299988	6.69859982	-0.532000005	0	200	0
8.14799976	6.69859982	-0.497999996	0	200	0
8.17500019	6.69849968	-0.635999978	0	200	0
8.14599991	6.69859982	-0.578000009	0	200	0
8.17599964	6.69849968	-0.652999997	0	200	0
8.18099976	6.69840097	-0.671000004	0	200	0
8.13799953	6.69859982	-0.623000026	0	200	0
8.17800045	6.69849968	-0.670000017	0	200	0
8.15499973	6.69859982	-0.646000028	0	200	0
8.14599991	6.69859982	-0.610000014	0	200	0
8.10499954	6.69880009	-0.48300001	0	200	0
8.11200047	6.69880009	-0.518000007	0	200	0
8.03899956	6.69900084	-0.301999986	0	200	0
8.03999996	6.69900084	-0.287	0	200	0
8.03899956	6.69900084	-0.254999995	0	200	0
8.04399967	6.69900084	-0.272000015	0	200	0
8.12100029	6.69869995	-0.569999993	0	200	0
8.10599995	6.69880009	-0.547999978	0	200	0
8.10400009	6.69880009	-0.531000018	0	200	0
8.06700039	6.69890022	-0.43900001	0	200	0
8.0710001	6.69890022	-0.407999992	0	200	0
8.08300018	6.69890022	-0.460000008	0	200	0
8.00399971	6.69909954	-0.245000005	0	200	0
8.01000023	6.69909954	-0.261999995	0	200	0
8.00500011	6.69909954	-0.214000002	0	200	0
8.02200031	6.69909954	-0.172999993	0	200	0
8.01900005	6.69909954	-0.202999994	0	200	0
8.03299999	6.69900084	-0.191	0	200	0
8.0369997	6.69900084	-0.349000007	0	200	0
8.0369997	6.69900084	-0.333000004	0	200	0
8.05099964	6.69900084	-0.368999988	0	200	0
8.04800034	6.69900084	-0.416000009	0	200	0
8.06000042	6.69890022	-0.419999987	0	200	0
8.04699993	6.69900084	-0.384000003	0	200	0
8.21399975	6.69830036	-0.76700002	0	200	0
8.20100021	6.69830036	-0.745000005	0	200	0
8.1079998	6.69880009	-0.56400001	0	200	0
8.10700035	6.69869995	-0.597000003	0	200	0
8.01399994	6.69909954	-0.108000003	0	200	0
8.0010004	6.69909954	-0.181999996	0	200	0
8.02000046	6.69909954	-0.141000003	0	200	0
7.98600006	6.69919968	-0.268999994	0	200	0
7.98199987	6.69919968	-0.252999991	0	200	0
8.01099968	6.69909954	-0.294	0	200	0
8.01000023	6.69909954	-0.277999997	0	200	0
7.99900007	6.69909954	-0.0879999995	0	200	0
7.99399996	6.69909954	-0.116999999	0	200	0
8.07499981	6.69890022	-0.47299999	0	200	0
8.04199982	6.69900084	-0.42899999	0	200	0
8.00800037	6.69909954	-0.340000004	0	200	0
7.99499989	6.69909954	-0.319999993	0	200	0
7.98999977	6.69919968	-0.287	0	200	0
8.01200008	6.69909954	-0.061999999	0	200	0
7.97700024	6.69919968	-0.127000004	0	200	0
8.0010004	6.69909954	-0.0430000015	0	200	0
7.9829998	6.69919968	-0.114	0	200	0
8.00399971	6.69909954	-0.0130000003	0	200	0
8.00800037	6.69909954	-0.0289999992	0	200	0
8.16800022	6.69840097	-0.714999974	0	200	0
8.17099953	6.69849968	-0.699999988	0	200	0
8.16800022	6.69840097	-0.699000001	0	200	0
8.15999985	6.69849968	-0.712000012	0	200	0
8.10099983	6.69880009	-0.610000014	0	200	0
8.13300037	6.69869995	-0.638999999	0	200	0
8.10000038	6.69880009	-0.593999982	0	200	0
8.11299992	6.69869995	-0.61500001	0	200	0
8.12300014	6.69869995	-0.651000023	0	200	0
8.14700031	6.69859982	-0.658999979	0	200	0
8.10900021	6.69880009	-0.629999995	0	200	0
8.11699963	6.69880009	-0.648999989	0	200	0
8.06900024	6.69890022	-0.518999994	0	200	0
8.06999969	6.69890022	-0.504000008	0	200	0
8.03800011	6.69900084	-0.460000008	0	200	0
8.04199982	6.69900084	-0.444999993	0	200	0
8.01299953	6.69909954	-0.388999999	0	200	0
8.00599957	6.69909954	-0.354999989	0	200	0
8.11999989	6.69869995	-0.683000028	0	200	0
8.13199997	6.69859982	-0.703000009	0	200	0
8.17000008	6.69849968	-0.731999993	0	200	0
8.14099979	6.69859982	-0.689999998	0	200	0
8.15999985	6.69840097	-0.745000005	0	200	0
8.15600014	6.69849968	-0.742999971	0	200	0
8.13000011	6.69859982	-0.717999995	0	200	0
8.14500046	6.69830036	-0.772000015	0	200	0
8.15799999	6.69849968	-0.77700001	0	200	0
8.12199974	6.69859982	-0.731000006	0	200	0
8.76599979	6.69669962	1.05599999	0	200	0
8.73799992	6.69679976	1.04499996	0	200	0
8.67000008	6.69700003	1.02400005	0	200	0
8.65200043	6.69710016	0.995999992	0	200	0
8.58199978	6.69729996	0.944999993	0	200	0
8.82999992	6.69650078	1.09300005	0	200	0
8.80900002	6.69659996	1.08099997	0	200	0
8.73400021	6.69679976	1.06200004	0	200	0
8.70499992	6.69689989	1.04900002	0	200	0
8.81000042	6.69659996	1.09599996	0	200	0
8.86900043	6.69640017	1.11899996	0	200	0
8.84200001	6.69650078	1.10699999	0	200	0
8.77799988	6.69669962	1.08599997	0	200	0
8.66399956	6.69710016	1.02499998	0	200	0
8.70199966	6.69700003	1.06500006	0	200	0
8.67500019	6.69700003	1.03799999	0	200	0
8.71700001	6.69689989	1.06299996	0	200	0
8.61800003	6.69719982	0.986000001	0	200	0
8.95199966	6.69609976	1.13999999	0	200	0
9.05099964	6.6958003	1.17299998	0	200	0
8.99800014	6.69599962	1.16499996	0	200	0
8.97700024	6.69599962	1.15199995	0	200	0
8.95699978	6.69609976	1.15499997	0	200	0
9.00899982	6.69590092	1.17900002	0	200	0
8.91899967	6.69619989	1.14300001	0	200	0
8.98499966	6.69599962	1.18299997	0	200	0
8.95400047	6.69609976	1.171	0	200	0
8.93099976	6.69619989	1.15699995	0	200	0
8.89900017	6.69630003	1.14600003	0	200	0
8.92199993	6.69619989	1.17400002	0	200	0
8.8920002	6.69630003	1.16299999	0	200	0
8.85499954	6.69640017	1.153	0	200	0
8.96399975	6.69609976	1.18599999	0	200	0
8.92399979	6.69619989	1.19000006	0	200	0
8.89099979	6.69630003	1.17900002	0	200	0
8.84000015	6.69650078	1.15499997	0	200	0
8.81900024	6.69650078	1.12699997	0	200	0
8.86499977	6.69640017	1.16700006	0	200	0
8.80000019	6.69659996	1.11399996	0	200	0
8.74499989	6.69679976	1.09099996	0	200	0
8.62100029	6.69719982	1.00100005	0	200	0
8.64799976	6.69710016	1.04299998	0	200	0
8.6789999	6.69700003	1.05299997	0	200	0
8.58199978	6.69729996	0.976000011	0	200	0
8.59300041	6.69729996	0.989000022	0	200	0
8.64500046	6.69710016	1.05900002	0	200	0
8.5880003	6.69729996	1.00600004	0	200	0
8.62199974	6.69719982	1.03199995	0	200	0
8.51900005	6.69750023	0.924000025	0	200	0
8.55900002	6.69740009	0.994000018	0	200	0
8.55500031	6.69740009	0.978999972	0	200	0
8.54800034	6.69740009	0.934000015	0	200	0
8.55700016	6.69740009	0.948000014	0	200	0
8.48799992	6.69759989	0.898000002	0	200	0
8.4630003	6.69770002	0.856999993	0	200	0
8.49499989	6.69759989	0.912	0	200	0
8.86499977	6.69640017	1.19799995	0	200	0
8.81599998	6.69659996	1.17400002	0	200	0
8.90299988	6.69630003	1.19299996	0	200	0
8.83600044	6.69650078	1.18700004	0	200	0
8.85900021	6.69640017	1.18400002	0	200	0
8.80099964	6.69659996	1.12899995	0	200	0
8.77400017	6.69669962	1.13300002	0	200	0
8.7510004	6.69679976	1.10599995	0	200	0
8.75199986	6.69669962	1.10599995	0	200	0
8.76599979	6.69669962	1.11899996	0	200	0
8.71399975	6.69689989	1.09500003	0	200	0
8.74400043	6.69679976	1.12199998	0	200	0
8.79500008	6.69659996	1.16199994	0	200	0
8.66300011	6.69710016	1.07200003	0	200	0
8.61299992	6.69719982	1.04900002	0	200	0
8.59399986	6.69729996	1.03499997	0	200	0
8.71800041	6.69689989	1.10899997	0	200	0
8.71199989	6.69689989	1.12600005	0	200	0
8.68400002	6.69700003	1.09899998	0	200	0
8.39500046	6.69789982	0.79400003	0	200	0
8.42399979	6.69780111	0.833999991	0	200	0
8.4630003	6.69770002	0.871999979	0	200	0
8.42599964	6.69780111	0.848999977	0	200	0
8.36900043	6.69799995	0.783999979	0	200	0
8.36499977	6.69799995	0.768999994	0	200	0
8.39799976	6.69789982	0.808000028	0	200	0
8.48700047	6.69759989	0.92900002	0	200	0
8.47000027	6.69770002	0.901000023	0	200	0
8.5170002	6.69750023	0.939999998	0	200	0
8.52299976	6.69750023	0.968999982	0	200	0
9.1960001	6.69530106	1.18599999	0	200	0
9.23999977	6.69510031	1.19799995	0	200	0
9.29599953	6.69490004	1.17400002	0	200	0
9.28800011	6.69500017	1.17499995	0	200	0
9.22099972	6.69519997	1.18400002	0	200	0
9.23400021	6.69510031	1.18200004	0	200	0
9.27400017	6.69500017	1.22599995	0	200	0
9.23200035	6.69510031	1.21500003	0	200	0
9.31799984	6.69490004	1.204	0	200	0
9.22799969	6.69519997	1.20000005	0	200	0
9.28499985	6.69500017	1.20799994	0	200	0
9.33600044	6.6947999	1.16799998	0	200	0
9.31599998	6.69490004	1.18700004	0	200	0
9.27799988	6.69500017	1.19299996	0	200	0
9.33699989	6.6947999	1.21800005	0	200	0
9.30700016	6.69490004	1.222	0	200	0
9.34300041	6.69469976	1.20000005	0	200	0
9.3380003	6.6947999	1.20099998	0	200	0
9.15799999	6.69539976	1.19000006	0	200	0
9.17800045	6.69539976	1.204	0	200	0
9.23900032	6.69510031	1.23099995	0	200	0
9.20199966	6.69519997	1.22000003	0	200	0
9.17300034	6.69530106	1.20599997	0	200	0
9.22900009	6.69519997	1.23199999	0	200	0
9.16699982	6.69539976	1.22099996	0	200	0
9.1420002	6.6954999	1.19299996	0	200	0
9.19200039	6.69530106	1.22000003	0	200	0
9.10000038	6.69560003	1.19799995	0	200	0
9.16399956	6.69530106	1.24000001	0	200	0
9.07999992	6.69570017	1.20099998	0	200	0
9.16899967	6.69539976	1.23699999	0	200	0
9.09700012	6.69560003	1.21500003	0	200	0
9.13599968	6.6954999	1.22599995	0	200	0
9.11800003	6.6954999	1.21200001	0	200	0
9.02000046	6.69590092	1.21000004	0	200	0
9.05200005	6.6958003	1.22099996	0	200	0
9.0710001	6.69570017	1.21899998	0	200	0
9.04699993	6.6958003	1.20599997	0	200	0
9.09399986	6.69560003	1.23199999	0	200	0
9.11999989	6.6954999	1.24399996	0	200	0
9.07699966	6.69570017	1.23399997	0	200	0
9.10200024	6.69560003	1.24699998	0	200	0
9.01500034	6.69590092	1.22599995	0	200	0
8.98799992	6.69599962	1.21399999	0	200	0
9.04500008	6.6958003	1.23800004	0	200	0
8.42599964	6.69780111	0.864000022	0	200	0
8.46500015	6.69770002	0.917999983	0	200	0
8.42800045	6.69780111	0.879000008	0	200	0
8.3409996	6.69810009	0.773000002	0	200	0
8.33100033	6.69810009	0.728999972	0	200	0
8.34000015	6.69810009	0.742999971	0	200	0
8.39999962	6.69789982	0.852999985	0	200	0
8.39900017	6.69789982	0.838	0	200	0
8.24199963	6.69840097	0.612999976	0	200	0
8.27499962	6.69830036	0.666000009	0	200	0
8.27799988	6.69830036	0.680000007	0	200	0
8.30599976	6.69820023	0.735000014	0	200	0
8.30300045	6.69820023	0.75	0	200	0
8.35700035	6.69799995	0.800999999	0	200	0
8.34500027	6.69810009	0.787	0	200	0
8.43500042	6.69780111	0.907999992	0	200	0
8.40699959	6.69789982	0.883000016	0	200	0
8.40499973	6.69789982	0.867999971	0	200	0
8.36999989	6.69799995	0.843999982	0	200	0
8.35000038	6.69799995	0.818000019	0	200	0
8.3380003	6.69810009	0.80400002	0	200	0
8.59300041	6.69729996	1.051	0	200	0
8.55900002	6.69740009	1.00899994	0	200	0
8.52600002	6.69750023	1	0	200	0
8.52299976	6.69750023	0.985000014	0	200	0
8.60700035	6.69719982	1.06500006	0	200	0
8.59200001	6.69729996	1.06599998	0	200	0
8.55300045	6.69740009	1.04100001	0	200	0
8.65499973	6.69710016	1.10399997	0	200	0
8.68099976	6.69700003	1.11500001	0	200	0
8.24100018	6.69840097	0.643000007	0	200	0
8.2130003	6.69849968	0.588999987	0	200	0
8.18400002	6.69859982	0.549000025	0	200	0
8.18099976	6.69859982	0.535000026	0	200	0
8.18900013	6.69859982	0.578000009	0	200	0
8.21000004	6.69849968	0.605000019	0	200	0
8.24300003	6.69840097	0.672999978	0	200	0
8.2159996	6.69849968	0.617999971	0	200	0
8.24100018	6.69840097	0.657999992	0	200	0
8.24300003	6.69840097	0.688000023	0	200	0
8.24600029	6.69840097	0.717000008	0	200	0
8.30599976	6.69820023	0.779999971	0	200	0
8.27700043	6.69830036	0.755999982	0	200	0
8.27700043	6.69830036	0.740999997	0	200	0
8.27200031	6.69830036	0.712000012	0	200	0
8.21899986	6.69849968	0.648000002	0	200	0
8.30900002	6.69820023	0.824999988	0	200	0
8.28499985	6.69830036	0.799000025	0	200	0
8.28600025	6.69830036	0.783999979	0	200	0
8.30799961	6.69820023	0.810000002	0	200	0
8.33100033	6.69810009	0.819999993	0	200	0
8.30300045	6.69820023	0.796000004	0	200	0
8.36999989	6.69799995	0.859000027	0	200	0
8.33699989	6.69810009	0.848999977	0	200	0
8.48499966	6.69759989	0.959999979	0	200	0
8.42700005	6.69780111	0.924000025	0	200	0
8.46199989	6.69770002	0.949000001	0	200	0
8.48499966	6.69759989	0.944000006	0	200	0
8.45899963	6.69770002	0.934000015	0	200	0
8.50699997	6.69759989	1.00199997	0	200	0
8.45400047	6.69770002	0.964999974	0	200	0
8.5	6.69759989	0.987999976	0	200	0
8.52999973	6.69750023	1.01400006	0	200	0
8.37699986	6.69799995	0.888000011	0	200	0
8.39900017	6.69789982	0.915000021	0	200	0
8.36900043	6.69799995	0.875	0	200	0
8.15799999	6.69869995	0.523999989	0	200	0
8.15699959	6.69869995	0.509000003	0	200	0
8.18500042	6.69859982	0.593999982	0	200	0
8.05000019	6.69900084	0.279000014	0	200	0
8.07299995	6.69900084	0.333000004	0	200	0
8.06200027	6.69900084	0.305999994	0	200	0
8.08399963	6.69890022	0.344999999	0	200	0
8.11299992	6.69880009	0.400000006	0	200	0
8.08300018	6.69890022	0.375999987	0	200	0
8.10599995	6.69880009	0.416999996	0	200	0
8.04800034	6.69900084	0.324999988	0	200	0
8.08899975	6.69890022	0.405000001	0	200	0
8.08899975	6.69890022	0.389999986	0	200	0
8.02299976	6.69909954	0.270000011	0	200	0
8.02999973	6.69909954	0.252999991	0	200	0
8.02400017	6.69909954	0.194000006	0	200	0
9.03299999	6.6958003	1.25600004	0	200	0
9.07299995	6.69570017	1.25100005	0	200	0
8.99199963	6.69599962	1.23000002	0	200	0
8.95499992	6.69609976	1.21899998	0	200	0
9.01000023	6.69590092	1.25899994	0	200	0
8.98900032	6.69599962	1.24600005	0	200	0
8.99400043	6.69590092	1.245	0	200	0
8.18700027	6.69859982	0.609000027	0	200	0
8.1239996	6.69880009	0.546999991	0	200	0
8.12300014	6.69880009	0.518000007	0	200	0
8.125	6.69880009	0.532000005	0	200	0
8.16300011	6.69869995	0.583000004	0	200	0
8.14799976	6.69869995	0.555999994	0	200	0
8.15200043	6.69869995	0.541000009	0	200	0
8.18200016	6.69859982	0.625	0	200	0
8.15999985	6.69869995	0.598999977	0	200	0
8.21199989	6.69849968	0.663999975	0	200	0
8.10999966	6.69880009	0.44600001	0	200	0
8.12100029	6.69880009	0.458000004	0	200	0
8.11100006	6.69880009	0.474999994	0	200	0
8.11699963	6.69880009	0.488999993	0	200	0
8.20300007	6.69849968	0.681999981	0	200	0
8.21399975	6.69849968	0.694000006	0	200	0
8.01799965	6.69909954	0.347000003	0	200	0
8.06499958	6.69900084	0.395999998	0	200	0
8.05300045	6.69900084	0.384000003	0	200	0
8.02099991	6.69909954	0.316000015	0	200	0
8.05700016	6.69900084	0.352999985	0	200	0
8.06499958	6.69900084	0.411000013	0	200	0
8.09300041	6.69890022	0.419	0	200	0
8.09000015	6.69890022	0.463999987	0	200	0
8.09700012	6.69890022	0.477999985	0	200	0
8.08699989	6.69890022	0.449999988	0	200	0
8.00899982	6.69909954	0.182999998	0	200	0
8.01399994	6.69909954	0.105999999	0	200	0
8.00599957	6.69909954	0.138999999	0	200	0
8.01599979	6.69909954	0.120999999	0	200	0
8.0170002	6.69909954	0.165999994	0	200	0
8.00899982	6.69909954	0.061999999	0	200	0
7.96899986	6.69929981	0.104000002	0	200	0
7.98600006	6.69919968	0.144999996	0	200	0
8.00500011	6.69909954	0.0480000004	0	200	0
7.9829998	6.69919968	0.100000001	0	200	0
7.98699999	6.69919968	0.128999993	0	200	0
7.9920001	6.69919968	0.112999998	0	200	0
7.95599985	6.69929981	0.0329999998	0	200	0
7.96000004	6.69929981	0.061999999	0	200	0
7.97399998	6.69919968	-0.0189999994	0	200	0
7.97100019	6.69919968	0.0729999989	0	200	0
7.97700024	6.69919968	-0.00400000019	0	200	0
7.97800016	6.69919968	0.0560000017	0	200	0
7.98500013	6.69919968	0.023	0	200	0
7.96600008	6.69919968	-0.0320000015	0	200	0
7.98099995	6.69919968	-0.0520000011	0	200	0
7.97200012	6.69929981	-0.156000003	0	200	0
7.96600008	6.69929981	-0.108000003	0	200	0
7.96799994	6.69919968	-0.0780000016	0	200	0
7.97100019	6.69919968	-0.0939999968	0	200	0
7.954	6.69929981	-0.119000003	0	200	0
7.96999979	6.69919968	-0.171000004	0	200	0
7.96600008	6.69919968	-0.185000002	0	200	0
7.94999981	6.69929981	-0.194999993	0	200	0
7.97399998	6.69919968	-0.233999997	0	200	0
7.96899986	6.69919968	-0.202000007	0	200	0
7.99700022	6.69909954	-0.414999992	0	200	0
7.98600006	6.69919968	-0.363999993	0	200	0
7.9920001	6.69909954	-0.397000015	0	200	0
7.97200012	6.69919968	-0.342999995	0	200	0
7.98099995	6.69919968	-0.314999998	0	200	0
8.06700039	6.69890022	-0.550999999	0	200	0
8.04199982	6.69900084	-0.509000003	0	200	0
8.03800011	6.69900084	-0.492000014	0	200	0
8.06700039	6.69890022	-0.533999979	0	200	0
7.99399996	6.69919968	-0.42899999	0	200	0
8.01599979	6.69909954	-0.453000009	0	200	0
8.00599957	6.69909954	-0.433999985	0	200	0
8.00899982	6.69909954	0.244000003	0	200	0
8.00899982	6.69909954	0.214000002	0	200	0
7.98199987	6.69919968	0.175999999	0	200	0
7.9829998	6.69919968	0.221000001	0	200	0
7.97599983	6.69919968	0.208000004	0	200	0
7.97599983	6.69919968	0.193000004	0	200	0
7.95300007	6.69929981	-0.0270000007	0	200	0
7.95800018	6.69929981	0.137999997	0	200	0
8.19099998	6.69859982	0.683000028	0	200	0
8.15200043	6.69869995	0.629999995	0	200	0
8.18599987	6.69859982	0.66900003	0	200	0
8.15699959	6.69869995	0.614000022	0	200	0
8.18400002	6.69859982	0.653999984	0	200	0
8.12899971	6.69880009	0.591000021	0	200	0
8.10400009	6.69890022	0.536000013	0	200	0
8.09399986	6.69890022	0.523000002	0	200	0
8.08899975	6.69890022	0.493999988	0	200	0
8.11100006	6.69880009	0.564999998	0	200	0
8.06099987	6.69900084	0.486999989	0	200	0
8.09300041	6.69890022	0.552999973	0	200	0
8.06799984	6.69900084	0.455000013	0	200	0
8.08100033	6.69900084	0.526000023	0	200	0
8.05700016	6.69900084	0.428000003	0	200	0
8.05700016	6.69900084	0.47299999	0	200	0
8.03899956	6.69909954	0.386000007	0	200	0
8.00199986	6.69919968	0.275999993	0	200	0
7.99900007	6.69909954	0.291999996	0	200	0
8.01399994	6.69909954	0.363000005	0	200	0
8.00899982	6.69919968	0.319000006	0	200	0
8.01200008	6.69909954	0.333000004	0	200	0
8.25500011	6.69840097	0.790000021	0	200	0
8.2159996	6.69849968	0.723999977	0	200	0
8.23900032	6.69840097	0.763999999	0	200	0
8.23799992	6.69840097	0.749000013	0	200	0
7.96299982	6.69929981	0.181999996	0	200	0
7.98899984	6.69919968	0.248999998	0	200	0
7.96299982	6.69929981	0.256999999	0	200	0
7.97399998	6.69919968	0.268999994	0	200	0
7.96199989	6.69929981	0.272000015	0	200	0
8.0710001	6.69890022	-0.633000016	0	200	0
8.0539999	6.69900084	-0.593999982	0	200	0
8.04800034	6.69900084	-0.542999983	0	200	0
8.05000019	6.69890022	-0.575999975	0	200	0
8.05900002	6.69890022	-0.596000016	0	200	0
8.07800007	6.69890022	-0.619000018	0	200	0
8.03999996	6.69900084	-0.523999989	0	200	0
8.10299969	6.69869995	-0.693000019	0	200	0
8.09399986	6.69880009	-0.672999978	0	200	0
8.09000015	6.69880009	-0.686999977	0	200	0
8.10299969	6.69869995	-0.708999991	0	200	0
8.1079998	6.69869995	-0.726999998	0	200	0
8.04699993	6.69900084	-0.623000026	0	200	0
8.0880003	6.69880009	-0.703000009	0	200	0
8.06400013	6.69890022	-0.662	0	200	0
8.01200008	6.69909954	-0.48300001	0	200	0
8.01399994	6.69909954	-0.5	0	200	0
8.02999973	6.69900084	-0.568000019	0	200	0
7.95499992	6.69929981	-0.337000012	0	200	0
7.95499992	6.69929981	-0.305999994	0	200	0
7.95900011	6.69929981	-0.321999997	0	200	0
7.96999979	6.69919968	-0.326000005	0	200	0
7.95200014	6.69929981	-0.257999986	0	200	0
8.04199982	6.69900084	-0.605000019	0	200	0
8.0010004	6.69909954	-0.510999978	0	200	0
7.98600006	6.69919968	-0.442000002	0	200	0
7.95499992	6.69929981	-0.384000003	0	200	0
7.94999981	6.69929981	-0.349999994	0	200	0
7.96899986	6.69919968	-0.404000014	0	200	0
7.97399998	6.69919968	-0.389999986	0	200	0
7.96400023	6.69919968	-0.465999991	0	200	0
7.96700001	6.69929981	-0.419999987	0	200	0
8.125	6.69859982	-0.764999986	0	200	0
8.0340004	6.69900084	-0.651000023	0	200	0
8.05700016	6.69890022	-0.675999999	0	200	0
7.98099995	6.69919968	-0.488000005	0	200	0
7.9920001	6.69909954	-0.523999989	0	200	0
7.98099995	6.69919968	-0.504000008	0	200	0
7.95599985	6.69929981	-0.463	0	200	0
8.09300041	6.69869995	-0.769999981	0	200	0
8.08199978	6.69880009	-0.717000008	0	200	0
8.09700012	6.69869995	-0.755999982	0	200	0
8.08199978	6.69880009	-0.749000013	0	200	0
8.03299999	6.69890022	-0.681999981	0	200	0
8.01099968	6.69909954	-0.611000001	0	200	0
8.0340004	6.69900084	-0.666999996	0	200	0
8.04699993	6.69890022	-0.703999996	0	200	0
8.02400017	6.69900084	-0.67900002	0	200	0
7.97700024	6.69919968	-0.518000007	0	200	0
7.9920001	6.69909954	-0.572000027	0	200	0
8.00199986	6.69909954	-0.559000015	0	200	0
7.9460001	6.69929981	-0.474999994	0	200	0
7.95599985	6.69929981	-0.493999988	0	200	0
8.03999996	6.69890022	-0.734000027	0	200	0
8.05700016	6.69880009	-0.755999982	0	200	0
8.04100037	6.69880009	-0.765999973	0	200	0
8.71800041	6.69689989	1.14100003	0	200	0
8.72500038	6.69679976	1.14100003	0	200	0
8.64900017	6.69710016	1.12	0	200	0
8.625	6.69719982	1.10899997	0	200	0
8.61699963	6.69719982	1.079	0	200	0
8.77499962	6.69669962	1.16499996	0	200	0
8.80599976	6.69650078	1.176	0	200	0
8.68599987	6.69700003	1.14600003	0	200	0
8.68599987	6.69700003	1.13	0	200	0
8.81200027	6.69659996	1.19099998	0	200	0
8.83100033	6.69650078	1.20299995	0	200	0
8.75800037	6.69669962	1.18299997	0	200	0
8.73999977	6.69679976	1.16999996	0	200	0
8.65200043	6.69710016	1.15100002	0	200	0
8.65499973	6.69710016	1.13499999	0	200	0
8.55599976	6.69740009	1.05599999	0	200	0
8.95400047	6.69609976	1.23500001	0	200	0
8.93799973	6.69619989	1.22000003	0	200	0
8.98099995	6.69599962	1.26300001	0	200	0
8.95600033	6.69609976	1.25100005	0	200	0
8.93500042	6.69619989	1.25199997	0	200	0
8.89700031	6.69630003	1.22599995	0	200	0
8.92700005	6.69619989	1.23699999	0	200	0
8.90200043	6.69630003	1.24100006	0	200	0
8.95600033	6.69609976	1.26699996	0	200	0
8.86699963	6.69640017	1.23000002	0	200	0
8.8579998	6.69640017	1.24699998	0	200	0
8.92099953	6.69619989	1.26999998	0	200	0
8.88599968	6.69630003	1.25899994	0	200	0
8.83600044	6.69650078	1.25	0	200	0
8.82299995	6.69650078	1.23599994	0	200	0
8.79800034	6.69659996	1.20799994	0	200	0
8.85900021	6.69640017	1.26199996	0	200	0
8.90100002	6.69630003	1.273	0	200	0
8.79500008	6.69659996	1.24000001	0	200	0
8.77000046	6.69669962	1.21200001	0	200	0
8.76500034	6.69669962	1.19700003	0	200	0
8.72500038	6.69689989	1.171	0	200	0
8.74199963	6.69679976	1.18499994	0	200	0
8.55799961	6.69740009	1.07099998	0	200	0
8.58300018	6.69729996	1.08299994	0	200	0
8.61200047	6.69719982	1.12600005	0	200	0
8.49699974	6.69759989	1.01900005	0	200	0
8.52600002	6.69750023	1.046	0	200	0
8.52700043	6.69750023	1.06099999	0	200	0
8.58399963	6.69729996	1.12899995	0	200	0
8.57900047	6.69729996	1.11500001	0	200	0
8.62100029	6.69719982	1.13999999	0	200	0
8.50500011	6.69759989	1.04799998	0	200	0
8.51399994	6.69759989	1.06099999	0	200	0
8.54800034	6.69740009	1.08800006	0	200	0
8.53999996	6.69750023	1.074	0	200	0
8.47099972	6.69770002	1.00800002	0	200	0
8.46800041	6.69770002	0.992999971	0	200	0
8.44099998	6.69780111	0.98299998	0	200	0
8.39999962	6.69789982	0.92900002	0	200	0
8.40699959	6.69789982	0.943000019	0	200	0
8.42300034	6.69780111	0.95599997	0	200	0
8.42199993	6.69780111	0.940999985	0	200	0
8.81900024	6.69650078	1.28400004	0	200	0
8.81099987	6.69659996	1.26900005	0	200	0
8.79699993	6.69659996	1.255	0	200	0
8.82400036	6.69650078	1.26699996	0	200	0
8.86600018	6.69640017	1.27699995	0	200	0
8.72999954	6.69679976	1.20299995	0	200	0
8.76399994	6.69669962	1.24399996	0	200	0
8.74300003	6.69679976	1.21599996	0	200	0
8.70800018	6.69689989	1.204	0	200	0
8.71800041	6.69689989	1.18700004	0	200	0
8.68700027	6.69700003	1.176	0	200	0
8.69299984	6.69700003	1.19099998	0	200	0
8.72099972	6.69689989	1.21800005	0	200	0
8.61800003	6.69719982	1.15600002	0	200	0
8.58600044	6.69729996	1.14400005	0	200	0
8.53100014	6.69750023	1.09099996	0	200	0
8.56400013	6.69740009	1.11600006	0	200	0
8.66399956	6.69710016	1.21099997	0	200	0
8.65200043	6.69710016	1.19700003	0	200	0
8.64799976	6.69710016	1.18200004	0	200	0
8.68700027	6.69700003	1.20700002	0	200	0
8.32600021	6.69820023	0.851000011	0	200	0
8.34599972	6.69810009	0.862999976	0	200	0
8.375	6.69799995	0.91900003	0	200	0
8.33399963	6.69810009	0.879999995	0	200	0
8.46700001	6.69770002	1.02400005	0	200	0
8.40100002	6.69789982	0.959999979	0	200	0
8.43400002	6.69780111	0.999000013	0	200	0
9.14799976	6.69539976	1.273	0	200	0
9.20400047	6.69519997	1.28499997	0	200	0
9.21100044	6.69530106	1.28199995	0	200	0
9.24400043	6.69510031	1.26300001	0	200	0
9.22700024	6.69519997	1.26499999	0	200	0
9.18400002	6.69530106	1.26999998	0	200	0
9.25199986	6.69500017	1.29499996	0	200	0
9.31599998	6.69490004	1.25399995	0	200	0
9.2840004	6.69500017	1.27400005	0	200	0
9.24600029	6.69510031	1.27900004	0	200	0
9.27000046	6.69500017	1.25999999	0	200	0
9.31499958	6.69490004	1.26999998	0	200	0
9.34000015	6.6947999	1.25	0	200	0
9.33600044	6.6947999	1.301	0	200	0
9.23700047	6.69510031	1.31299996	0	200	0
9.34300041	6.69469976	1.28299999	0	200	0
9.22299957	6.69519997	1.29900002	0	200	0
9.3409996	6.6947999	1.28299999	0	200	0
9.22999954	6.69510031	1.29799998	0	200	0
9.34200001	6.69469976	1.26699996	0	200	0
9.30500031	6.69490004	1.30400002	0	200	0
9.26599979	6.69500017	1.30900002	0	200	0
9.30200005	6.69490004	1.28799999	0	200	0
9.19099998	6.69530106	1.301	0	200	0
9.15799999	6.69539976	1.28799999	0	200	0
9.13399982	6.6954999	1.27499998	0	200	0
9.13399982	6.6954999	1.29100001	0	200	0
9.22399998	6.69519997	1.31500006	0	200	0
9.18900013	6.69530106	1.31799996	0	200	0
9.15999985	6.69539976	1.30400002	0	200	0
9.1789999	6.69539976	1.31799996	0	200	0
9.1260004	6.6954999	1.30799997	0	200	0
9.10299969	6.69560003	1.27900004	0	200	0
9.13000011	6.69560003	1.29200006	0	200	0
9.08300018	6.69570017	1.28199995	0	200	0
9.13799953	6.6954999	1.32299995	0	200	0
9.04399967	6.6958003	1.28699994	0	200	0
9.05300045	6.6958003	1.30200005	0	200	0
9.10000038	6.69560003	1.31200004	0	200	0
9.06200027	6.69570017	1.29999995	0	200	0
9.01299953	6.69590092	1.30700004	0	200	0
8.97900009	6.69599962	1.29499996	0	200	0
9.02000046	6.69590092	1.28999996	0	200	0
9.07600021	6.69570017	1.31500006	0	200	0
9.04800034	6.6958003	1.31799996	0	200	0
9.0880003	6.69570017	1.329	0	200	0
9.11699963	6.69560003	1.32599998	0	200	0
9.02099991	6.69590092	1.32200003	0	200	0
8.97500038	6.69599962	1.31200004	0	200	0
8.96399975	6.69609976	1.29700005	0	200	0
8.94200039	6.69619989	1.29900002	0	200	0
9.04500008	6.6958003	1.33500004	0	200	0
8.33699989	6.69810009	0.893999994	0	200	0
8.36200047	6.69799995	0.93599999	0	200	0
8.40100002	6.69789982	0.975000024	0	200	0
8.34700012	6.69810009	0.922999978	0	200	0
8.36800003	6.69799995	0.950999975	0	200	0
8.27000046	6.69830036	0.816999972	0	200	0
8.28199959	6.69830036	0.829999983	0	200	0
8.31900024	6.69820023	0.898000002	0	200	0
8.18999958	6.69859982	0.698000014	0	200	0
8.2130003	6.69849968	0.754000008	0	200	0
8.2489996	6.69840097	0.806999981	0	200	0
8.24600029	6.69840097	0.822000027	0	200	0
8.2159996	6.69849968	0.768999994	0	200	0
8.28899956	6.69830036	0.859000027	0	200	0
8.3039999	6.69820023	0.870999992	0	200	0
8.4090004	6.69789982	1.00399995	0	200	0
8.34500027	6.69810009	0.938000023	0	200	0
8.36600018	6.69799995	0.966000021	0	200	0
8.30099964	6.69820023	0.885999978	0	200	0
8.54399967	6.69750023	1.13399994	0	200	0
8.53299999	6.69750023	1.12100005	0	200	0
8.55700016	6.69740009	1.13199997	0	200	0
8.5010004	6.69759989	1.079	0	200	0
8.50599957	6.69759989	1.09300005	0	200	0
8.43799973	6.69780111	1.01400006	0	200	0
8.44499969	6.69780111	1.028	0	200	0
8.47299957	6.69770002	1.06799996	0	200	0
8.47200012	6.69770002	1.05299997	0	200	0
8.58600044	6.69729996	1.15999997	0	200	0
8.55900002	6.69740009	1.14699996	0	200	0
8.61699963	6.69719982	1.18700004	0	200	0
8.14799976	6.69869995	0.661000013	0	200	0
8.13099957	6.69880009	0.620000005	0	200	0
8.10099983	6.69890022	0.596000016	0	200	0
8.11800003	6.69880009	0.60799998	0	200	0
8.11499977	6.69880009	0.638999999	0	200	0
8.10200024	6.69890022	0.611000001	0	200	0
8.15100002	6.69869995	0.675000012	0	200	0
8.1619997	6.69869995	0.703000009	0	200	0
8.18999958	6.69859982	0.727999985	0	200	0
8.14900017	6.69869995	0.690999985	0	200	0
8.18799973	6.69859982	0.758000016	0	200	0
8.15799999	6.69869995	0.734000027	0	200	0
8.20600033	6.69849968	0.800999999	0	200	0
8.17700005	6.69859982	0.774999976	0	200	0
8.24600029	6.69840097	0.837000012	0	200	0
8.21399975	6.69849968	0.828999996	0	200	0
8.2159996	6.69849968	0.813000023	0	200	0
8.13199997	6.69880009	0.680000007	0	200	0
8.13000011	6.69880009	0.665000021	0	200	0
8.28100014	6.69830036	0.904999971	0	200	0
8.25300026	6.69840097	0.880999982	0	200	0
8.26599979	6.69830036	0.893000007	0	200	0
8.25399971	6.69840097	0.86500001	0	200	0
8.26900005	6.69830036	0.878000021	0	200	0
8.22099972	6.69849968	0.871999979	0	200	0
8.20300007	6.69859982	0.845000029	0	200	0
8.21000004	6.69849968	0.843999982	0	200	0
8.31000042	6.69820023	0.930000007	0	200	0
8.31900024	6.69820023	0.943000019	0	200	0
8.37300014	6.69799995	0.995000005	0	200	0
8.39700031	6.69789982	1.02100003	0	200	0
8.45800018	6.69770002	1.08599997	0	200	0
8.44299984	6.69780111	1.05799997	0	200	0
8.37199974	6.69799995	1.00999999	0	200	0
8.40299988	6.69789982	1.03499997	0	200	0
8.32900047	6.69810009	0.971000016	0	200	0
8.31499958	6.69820023	0.958999991	0	200	0
8.32699966	6.69810009	0.957000017	0	200	0
8.35099983	6.69810009	0.996999979	0	200	0
8.06700039	6.69900084	0.545000017	0	200	0
8.08100033	6.69890022	0.57099998	0	200	0
8.10299969	6.69890022	0.639999986	0	200	0
8.09899998	6.69890022	0.625999987	0	200	0
7.95599985	6.69919968	0.30399999	0	200	0
7.98699999	6.69919968	0.340000004	0	200	0
8.02499962	6.69909954	0.419999987	0	200	0
8	6.69919968	0.395999998	0	200	0
7.9829998	6.69919968	0.356000006	0	200	0
7.99300003	6.69919968	0.368000001	0	200	0
8.02799988	6.69909954	0.404000014	0	200	0
8.0369997	6.69909954	0.460999995	0	200	0
8.02400017	6.69909954	0.435000002	0	200	0
8.06099987	6.69900084	0.500999987	0	200	0
8.03100014	6.69909954	0.477999985	0	200	0
7.95300007	6.69929981	0.289999992	0	200	0
7.95300007	6.69929981	0.155000001	0	200	0
8.99699974	6.69599962	1.34099996	0	200	0
9.02000046	6.69590092	1.33800006	0	200	0
8.99499989	6.69599962	1.32500005	0	200	0
8.95400047	6.69609976	1.31400001	0	200	0
8.97900009	6.69609976	1.34300005	0	200	0
8.96199989	6.69609976	1.329	0	200	0
8.92300034	6.69619989	1.31700003	0	200	0
8.04199982	6.69909954	0.504999995	0	200	0
8.06499958	6.69900084	0.619000018	0	200	0
8.03600025	6.69909954	0.564999998	0	200	0
8.06099987	6.69900084	0.606000006	0	200	0
8.04199982	6.69909954	0.533999979	0	200	0
8.04800034	6.69909954	0.577000022	0	200	0
8.04300022	6.69909954	0.549000025	0	200	0
8.06099987	6.69900084	0.56099999	0	200	0
8.0710001	6.69900084	0.573000014	0	200	0
8.03800011	6.69909954	0.490999997	0	200	0
8.10000038	6.69890022	0.671000004	0	200	0
8.1260004	6.69880009	0.69599998	0	200	0
8.12800026	6.69880009	0.74000001	0	200	0
8.12800026	6.69880009	0.709999979	0	200	0
8.14900017	6.69869995	0.764999986	0	200	0
7.96000004	6.69929981	0.421000004	0	200	0
7.9829998	6.69929981	0.430000007	0	200	0
7.98999977	6.69919968	0.42899999	0	200	0
7.98999977	6.69919968	0.414000005	0	200	0
7.98400021	6.69919968	0.444999993	0	200	0
7.99399996	6.69919968	0.472000003	0	200	0
7.98699999	6.69919968	-0.601999998	0	200	0
7.98000002	6.69919968	-0.583000004	0	200	0
7.9749999	6.69919968	-0.549000025	0	200	0
7.99700022	6.69909954	-0.589999974	0	200	0
7.94799995	6.69929981	-0.507000029	0	200	0
7.97100019	6.69919968	-0.56400001	0	200	0
8.10099983	6.69890022	0.699999988	0	200	0
8.10499954	6.69890022	0.684000015	0	200	0
8.07299995	6.69900084	0.676999986	0	200	0
8.06099987	6.69900084	0.63499999	0	200	0
8.06999969	6.69900084	0.648000002	0	200	0
8.04699993	6.69909954	0.621999979	0	200	0
8.04899979	6.69909954	0.606999993	0	200	0
8.01200008	6.69919968	0.57099998	0	200	0
7.99800014	6.69919968	0.514999986	0	200	0
7.99599981	6.69919968	0.500999987	0	200	0
7.99300003	6.69919968	0.546000004	0	200	0
7.97900009	6.69919968	0.490999997	0	200	0
7.98999977	6.69929981	0.488000005	0	200	0
8.00599957	6.69919968	0.587000012	0	200	0
7.99499989	6.69919968	0.56099999	0	200	0
8.16399956	6.69869995	0.806999981	0	200	0
8.18799973	6.69859982	0.833000004	0	200	0
8.18400002	6.69859982	0.819000006	0	200	0
8.18299961	6.69859982	0.80400002	0	200	0
8.15100002	6.69869995	0.779999971	0	200	0
8	6.69909954	-0.686999977	0	200	0
8	6.69909954	-0.671000004	0	200	0
8.0170002	6.69900084	-0.691999972	0	200	0
8.01500034	6.69909954	-0.661000013	0	200	0
8.01099968	6.69909954	-0.643000007	0	200	0
7.97599983	6.69919968	-0.644999981	0	200	0
7.97399998	6.69919968	-0.629000008	0	200	0
8.02400017	6.69890022	-0.744000018	0	200	0
8.01200008	6.69900084	-0.72299999	0	200	0
8.00899982	6.69900084	-0.737999976	0	200	0
7.97599983	6.69919968	-0.677999973	0	200	0
7.97399998	6.69919968	-0.661000013	0	200	0
7.95300007	6.69929981	-0.572000027	0	200	0
7.9380002	6.69929981	-0.583000004	0	200	0
7.95100021	6.69919968	-0.699999988	0	200	0
7.94299984	6.69929981	-0.663999975	0	200	0
7.98000002	6.69909954	-0.727999985	0	200	0
7.96799994	6.69909954	-0.707000017	0	200	0
8.01099968	6.69890022	-0.771000028	0	200	0
7.94700003	6.69919968	-0.713999987	0	200	0
7.9380002	6.69929981	-0.629999995	0	200	0
7.94199991	6.69929981	-0.615999997	0	200	0
8.67099953	6.69700003	1.22500002	0	200	0
8.58699989	6.69729996	1.19000006	0	200	0
8.61400032	6.69719982	1.20299995	0	200	0
8.55099964	6.69740009	1.16400003	0	200	0
8.76299953	6.69669962	1.25999999	0	200	0
8.73799992	6.69679976	1.24800003	0	200	0
8.61900043	6.69719982	1.21700001	0	200	0
8.6420002	6.69710016	1.22899997	0	200	0
8.74699974	6.69679976	1.26199996	0	200	0
8.80300045	6.69659996	1.28600001	0	200	0
8.76799965	6.69669962	1.27499998	0	200	0
8.71700001	6.69689989	1.26499999	0	200	0
8.70899963	6.69689989	1.25100005	0	200	0
8.58899975	6.69729996	1.22099996	0	200	0
8.61600018	6.69719982	1.23300004	0	200	0
8.59300041	6.69729996	1.20500004	0	200	0
8.47299957	6.69770002	1.09899998	0	200	0
8.49400043	6.69759989	1.12600005	0	200	0
8.88700008	6.69630003	1.30599999	0	200	0
8.93799973	6.69619989	1.33099997	0	200	0
8.94299984	6.69619989	1.34599996	0	200	0
8.89599991	6.69630003	1.32099998	0	200	0
8.85900021	6.69640017	1.30999994	0	200	0
8.89099979	6.69630003	1.33700001	0	200	0
8.88300037	6.69640017	1.33800006	0	200	0
8.86299992	6.69640017	1.32500005	0	200	0
8.81900024	6.69650078	1.31500006	0	200	0
8.85499954	6.69650078	1.34200001	0	200	0
8.80500031	6.69659996	1.31700003	0	200	0
8.84200001	6.69650078	1.32799995	0	200	0
8.90400028	6.69630003	1.35099995	0	200	0
8.86900043	6.69640017	1.35599995	0	200	0
8.79800034	6.69659996	1.33299994	0	200	0
8.78199959	6.69669962	1.32000005	0	200	0
8.76299953	6.69669962	1.29100001	0	200	0
8.73499966	6.69679976	1.27999997	0	200	0
8.8409996	6.69650078	1.35899997	0	200	0
8.7489996	6.69679976	1.324	0	200	0
8.77900028	6.69669962	1.33599997	0	200	0
8.7159996	6.69689989	1.28100002	0	200	0
8.74199963	6.69679976	1.29400003	0	200	0
8.68099976	6.69700003	1.255	0	200	0
8.5010004	6.69759989	1.13999999	0	200	0
8.52700043	6.69750023	1.15199995	0	200	0
8.55900002	6.69740009	1.20799994	0	200	0
8.53100014	6.69750023	1.16700006	0	200	0
8.5539999	6.69740009	1.19400001	0	200	0
8.47599983	6.69770002	1.12899995	0	200	0
8.55500031	6.69740009	1.22399998	0	200	0
8.49400043	6.69759989	1.15600002	0	200	0
8.50399971	6.69759989	1.16999996	0	200	0
8.53100014	6.69750023	1.19700003	0	200	0
8.41600037	6.69780111	1.07799995	0	200	0
8.43400002	6.69780111	1.10500002	0	200	0
8.47200012	6.69770002	1.14400005	0	200	0
8.38099957	6.69799995	1.03900003	0	200	0
8.37800026	6.69799995	1.02400005	0	200	0
8.41399956	6.69789982	1.07799995	0	200	0
8.40999985	6.69789982	1.06400001	0	200	0
8.35099983	6.69810009	1.01199996	0	200	0
8.31700039	6.69820023	0.97299999	0	200	0
8.78100014	6.69669962	1.36699998	0	200	0
8.75699997	6.69679976	1.33899999	0	200	0
8.77999973	6.69669962	1.35099995	0	200	0
8.81099987	6.69659996	1.36300004	0	200	0
8.80900002	6.69659996	1.34800005	0	200	0
8.68200016	6.69700003	1.28499997	0	200	0
8.66899967	6.69710016	1.27199996	0	200	0
8.68200016	6.69700003	1.26999998	0	200	0
8.71899986	6.69689989	1.32700002	0	200	0
8.69999981	6.69689989	1.29799998	0	200	0
8.66100025	6.69710016	1.28799999	0	200	0
8.65100002	6.69710016	1.25899994	0	200	0
8.68299961	6.69700003	1.301	0	200	0
8.59000015	6.69729996	1.23599994	0	200	0
8.56200027	6.69740009	1.23800004	0	200	0
8.53100014	6.69750023	1.21300006	0	200	0
8.46500015	6.69770002	1.16100001	0	200	0
8.58699989	6.69729996	1.26699996	0	200	0
8.65600014	6.69710016	1.30499995	0	200	0
8.62699986	6.69719982	1.29299998	0	200	0
8.60900021	6.69719982	1.27999997	0	200	0
8.61800003	6.69719982	1.26400006	0	200	0
8.27499962	6.69830036	0.93599999	0	200	0
8.32499981	6.69820023	1.00199997	0	200	0
8.29100037	6.69830036	0.948000014	0	200	0
8.2869997	6.69830036	0.963999987	0	200	0
8.40499973	6.69789982	1.09500003	0	200	0
8.39000034	6.69799995	1.06700003	0	200	0
8.41600037	6.69780111	1.09300005	0	200	0
8.35200024	6.69810009	1.04200006	0	200	0
8.34700012	6.69810009	1.028	0	200	0
9.14000034	6.6954999	1.37100005	0	200	0
9.15699959	6.69539976	1.36899996	0	200	0
