-5.08699989	6.66150093	-0.0309999995	200	0	0
-5.11000013	6.66169977	0.0780000016	200	0	0
-5.11000013	6.66169977	0.0670000017	200	0	0
-5.11399984	6.66159964	0.0869999975	200	0	0
-5.10099983	6.66169977	0.0610000007	200	0	0
-5.10900021	6.66169977	0.0350000001	200	0	0
-5.11199999	6.66159964	0.0780000016	200	0	0
-5.10699987	6.66159964	0.0689999983	200	0	0
-5.1170001	6.66159964	0.0529999994	200	0	0
-5.08400011	6.66159964	0.155000001	200	0	0
-5.08099985	6.66159964	0.145999998	200	0	0
-5.08500004	6.66159964	0.133000001	200	0	0
-5.08699989	6.66159964	0.122000001	200	0	0
-5.08199978	6.66169977	0.123999998	200	0	0
-5.09299994	6.66169977	0.0970000029	200	0	0
-5.10900021	6.66190004	0.0790000036	200	0	0
-5.07600021	6.66179991	0.104999997	200	0	0
-5.08599997	6.66169977	0.133000001	200	0	0
-5.11000013	6.66179991	0.0560000017	200	0	0
-5.1170001	6.66179991	0.064000003	200	0	0
-5.10699987	6.66179991	0.0799999982	200	0	0
-5.11000013	6.66179991	0.0350000001	200	0	0
-5.08199978	6.66169977	0.144999996	200	0	0
-5.08099985	6.66179991	0.123999998	200	0	0
-5.07700014	6.66179991	0.158000007	200	0	0
-5.08599997	6.66179991	0.133000001	200	0	0
-5.08900023	6.66179991	0.142000005	200	0	0
-5.08500004	6.66190004	0.133000001	200	0	0
-5.1079998	6.66190004	0.0680000037	200	0	0
-5.07800007	6.66190004	0.126000002	200	0	0
-5.07700014	6.66190004	0.104999997	200	0	0
-5.11600018	6.66190004	0.0540000014	200	0	0
-5.10900021	6.66190004	0.0350000001	200	0	0
-5.07700014	6.66190004	0.148000002	200	0	0
-5.09700012	6.66190004	0.150000006	200	0	0
-5.11399984	6.66200018	0.0329999998	200	0	0
-5.10500002	6.66200018	0.0810000002	200	0	0
-5.11299992	6.66200018	0.0659999996	200	0	0
-5.07999992	6.66200018	0.125	200	0	0
-5.07999992	6.66200018	0.103	200	0	0
-5.08099985	6.66200018	0.157000005	200	0	0
-5.08900023	6.66200018	0.142000005	200	0	0
-5.08300018	6.66200018	0.134000003	200	0	0
-5.10400009	6.66210032	0.0370000005	200	0	0
-5.10200024	6.66210032	0.0820000023	200	0	0
-5.1079998	6.66210032	0.0680000037	200	0	0
-5.11299992	6.66210032	0.0549999997	200	0	0
-5.079	6.66210032	0.104000002	200	0	0
-5.08199978	6.66210032	0.156000003	200	0	0
-5.08500004	6.66210032	0.143999994	200	0	0
-5.08500004	6.66210032	0.123000003	200	0	0
-5.08400011	6.66210032	0.134000003	200	0	0
-5.09000015	6.6621995	0.142000005	200	0	0
-5.09100008	6.6621995	0.0979999974	200	0	0
-5.09100008	6.6621995	0.151999995	200	0	0
-5.07800007	6.6621995	0.126000002	200	0	0
-5.08300018	6.6621995	0.134000003	200	0	0
-5.10699987	6.6621995	0.0799999982	200	0	0
-5.10599995	6.6621995	0.0579999983	200	0	0
-5.11499977	6.6621995	0.0649999976	200	0	0
-5.09000015	6.66229963	0.152999997	200	0	0
-5.08699989	6.66229963	0.143000007	200	0	0
-5.08099985	6.66229963	0.103	200	0	0
-5.07700014	6.66229963	0.136999995	200	0	0
-5.079	6.66229963	0.125	200	0	0
-5.06899977	6.66229963	0.184	200	0	0
-5.10300016	6.66229963	0.0599999987	200	0	0
-5.11100006	6.66229963	0.0670000017	200	0	0
-5.10200024	6.66229963	0.0820000023	200	0	0
-5.10400009	6.66229963	0.0379999988	200	0	0
-5.07200003	6.66239977	0.128000006	200	0	0
-5.11100006	6.66239977	0.0670000017	200	0	0
-5.10699987	6.66239977	0.0799999982	200	0	0
-5.08199978	6.66239977	0.101999998	200	0	0
-5.09899998	6.66239977	0.0399999991	200	0	0
-5.0710001	6.66239977	0.160999998	200	0	0
-5.07399988	6.66239977	0.138999999	200	0	0
-5.09600019	6.66239977	0.171000004	200	0	0
-5.08400011	6.66239977	0.143999994	200	0	0
-5.10400009	6.66260004	0.0370000005	200	0	0
-5.07999992	6.6624999	0.125	200	0	0
-5.10500002	6.66260004	0.0590000004	200	0	0
-5.09399986	6.66260004	0.0860000029	200	0	0
-5.07600021	6.6624999	0.104999997	200	0	0
-5.10500002	6.66260004	0.0700000003	200	0	0
-5.10200024	6.6624999	0.0390000008	200	0	0
-5.08900023	6.6624999	0.0670000017	200	0	0
-5.09299994	6.6624999	0.0869999975	200	0	0
-5.10900021	6.6624999	0.0680000037	200	0	0
-5.07999992	6.6624999	0.136000007	200	0	0
-5.06899977	6.66260004	0.162	200	0	0
-5.08199978	6.66260004	0.144999996	200	0	0
-5.07399988	6.66260004	0.105999999	200	0	0
-5.07399988	6.66260004	0.138999999	200	0	0
-5.07499981	6.66260004	0.127000004	200	0	0
-5.07700014	6.66270018	0.127000004	200	0	0
-5.10500002	6.66280079	0.0599999987	200	0	0
-5.09899998	6.66280079	0.0850000009	200	0	0
-5.09899998	6.66280079	0.074000001	200	0	0
-5.07800007	6.66270018	0.104999997	200	0	0
-5.10099983	6.66270018	0.0399999991	200	0	0
-5.09899998	6.66270018	0.063000001	200	0	0
-5.10200024	6.66270018	0.0719999969	200	0	0
-5.10099983	6.66270018	0.0829999968	200	0	0
-5.08099985	6.66270018	0.136000007	200	0	0
-5.07600021	6.66270018	0.159999996	200	0	0
-5.07600021	6.66270018	0.149000004	200	0	0
-5.07200003	6.66280079	0.108000003	200	0	0
-5.08599997	6.66280079	0.156000003	200	0	0
-5.08300018	6.66280079	0.145999998	200	0	0
-5.07800007	6.66280079	0.127000004	200	0	0
-5.08099985	6.66280079	0.136999995	200	0	0
-5.0999999	6.66289997	0.074000001	200	0	0
-5.09899998	6.66289997	0.063000001	200	0	0
-5.0999999	6.66289997	0.0410000011	200	0	0
-5.09399986	6.66289997	0.0869999975	200	0	0
-5.08699989	6.66289997	0.155000001	200	0	0
-5.0710001	6.66289997	0.151999995	200	0	0
-5.08199978	6.66289997	0.136000007	200	0	0
-5.07499981	6.66289997	0.128999993	200	0	0
-5.1079998	6.66300011	0.0710000023	200	0	0
-5.10200024	6.66300011	0.063000001	200	0	0
-5.09899998	6.66300011	0.0860000029	200	0	0
-5.07299995	6.66300011	0.141000003	200	0	0
-5.07299995	6.66300011	0.129999995	200	0	0
-5.079	6.66300011	0.149000004	200	0	0
-5.07399988	6.66309977	0.108000003	200	0	0
-5.07000017	6.66309977	0.131999999	200	0	0
-5.07000017	6.66309977	0.142000005	200	0	0
-5.079	6.66309977	0.149000004	200	0	0
-5.09800005	6.66309977	0.0649999976	200	0	0
-5.09200001	6.66309977	0.0780000016	200	0	0
-5.09800005	6.66309977	0.0860000029	200	0	0
-5.07399988	6.6631999	0.130999997	200	0	0
-5.07600021	6.6631999	0.140000001	200	0	0
-5.0710001	6.6631999	0.109999999	200	0	0
-5.09899998	6.6631999	0.0649999976	200	0	0
-5.09600019	6.6631999	0.0769999996	200	0	0
-5.08300018	6.6631999	0.0939999968	200	0	0
-5.09600019	6.6631999	0.0340000018	200	0	0
-5.09899998	6.6631999	0.0430000015	200	0	0
-5.09100008	6.66330004	0.0909999982	200	0	0
-5.06699991	6.66330004	0.112999998	200	0	0
-5.0710001	6.66330004	0.131999999	200	0	0
-5.10099983	6.66330004	0.0419999994	200	0	0
-5.09800005	6.66330004	0.0659999996	200	0	0
-5.10200024	6.66330004	0.074000001	200	0	0
-5.09899998	6.66349983	0.0759999976	200	0	0
-5.09800005	6.66349983	0.0659999996	200	0	0
-5.09100008	6.66349983	0.0469999984	200	0	0
-5.09600019	6.66340065	0.0769999996	200	0	0
-5.09899998	6.66340065	0.0649999976	200	0	0
-5.08300018	6.66340065	0.0939999968	200	0	0
-5.06899977	6.66340065	0.143999994	200	0	0
-5.06699991	6.66340065	0.112999998	200	0	0
-5.07700014	6.66340065	0.128999993	200	0	0
-5.08300018	6.66349983	0.0939999968	200	0	0
-5.06799984	6.66349983	0.112000003	200	0	0
-5.0710001	6.66349983	0.131999999	200	0	0
-5.07299995	6.66349983	0.142000005	200	0	0
-5.07299995	6.66359997	0.152999997	200	0	0
-5.06500006	6.66359997	0.112999998	200	0	0
-5.0710001	6.66359997	0.143000007	200	0	0
-5.0710001	6.66359997	0.131999999	200	0	0
-5.08300018	6.6637001	0.0949999988	200	0	0
-5.09499979	6.6637001	0.0790000036	200	0	0
-5.09899998	6.6637001	0.0659999996	200	0	0
-5.09800005	6.66359997	0.0869999975	200	0	0
-5.09399986	6.66359997	0.0460000001	200	0	0
-5.10099983	6.66359997	0.075000003	200	0	0
-5.07000017	6.6637001	0.143999994	200	0	0
-5.06899977	6.6637001	0.134000003	200	0	0
-5.07600021	6.6637001	0.151999995	200	0	0
-5.08199978	6.66380024	0.0960000008	200	0	0
-5.09499979	6.66380024	0.0680000037	200	0	0
-5.10400009	6.66380024	0.075000003	200	0	0
-5.07000017	6.66380024	0.112000003	200	0	0
-5.07000017	6.66380024	0.134000003	200	0	0
-5.07000017	6.66380024	0.155000001	200	0	0
-5.08599997	6.66390038	0.0949999988	200	0	0
-5.09700012	6.66390038	0.0680000037	200	0	0
-5.10400009	6.66390038	0.075000003	200	0	0
-5.07000017	6.66390038	0.112999998	200	0	0
-5.06899977	6.66390038	0.166999996	200	0	0
-5.07299995	6.66390038	0.155000001	200	0	0
-5.07499981	6.66390038	0.131999999	200	0	0
-5.07299995	6.66390038	0.143999994	200	0	0
-5.06599998	6.66400099	0.147	200	0	0
-5.08900023	6.66400099	0.0820000023	200	0	0
-5.07399988	6.66400099	0.133000001	200	0	0
-5.08099985	6.66400099	0.0970000029	200	0	0
-5.07000017	6.66400099	0.112999998	200	0	0
-5.08300018	6.66400099	0.160999998	200	0	0
-5.07700014	6.66400099	0.152999997	200	0	0
-5.09399986	6.66400099	0.0469999984	200	0	0
-5.09299994	6.66409969	0.0920000002	200	0	0
-5.08199978	6.66409969	0.160999998	200	0	0
-5.07000017	6.66409969	0.156000003	200	0	0
-5.07000017	6.66409969	0.144999996	200	0	0
-5.06400013	6.66409969	0.136999995	200	0	0
-5.09499979	6.66409969	0.0799999982	200	0	0
-5.09000015	6.66409969	0.0489999987	200	0	0
-5.09700012	6.66409969	0.0680000037	200	0	0
-5.07000017	6.66419983	0.112999998	200	0	0
-5.09499979	6.66419983	0.0799999982	200	0	0
-5.08099985	6.66419983	0.0970000029	200	0	0
-5.0710001	6.66419983	0.156000003	200	0	0
-5.07200003	6.66419983	0.143999994	200	0	0
-5.06799984	6.66419983	0.136000007	200	0	0
-5.09899998	6.66429996	0.0670000017	200	0	0
-5.0619998	6.66429996	0.116999999	200	0	0
-5.09000015	6.6644001	0.0710000023	200	0	0
-5.09499979	6.6644001	0.0799999982	200	0	0
-5.07000017	6.66429996	0.101999998	200	0	0
-5.09499979	6.66429996	0.0799999982	200	0	0
-5.06899977	6.6644001	0.145999998	200	0	0
-5.07299995	6.66429996	0.165999994	200	0	0
-5.06400013	6.66429996	0.136999995	200	0	0
-5.06599998	6.66429996	0.147	200	0	0
-5.0630002	6.6644001	0.115999997	200	0	0
-5.08099985	6.6644001	0.150999993	200	0	0
-5.06799984	6.6644001	0.136000007	200	0	0
-5.0619998	6.66450024	0.116999999	200	0	0
-5.06599998	6.66450024	0.136000007	200	0	0
-5.07299995	6.66450024	0.165999994	200	0	0
-5.06799984	6.66450024	0.145999998	200	0	0
-5.08500004	6.66450024	0.0850000009	200	0	0
-5.07700014	6.66450024	0.0989999995	200	0	0
-5.05600023	6.66460037	0.119999997	200	0	0
-5.09800005	6.66460037	0.0670000017	200	0	0
-5.06799984	6.66460037	0.103	200	0	0
-5.08699989	6.66460037	0.0829999968	200	0	0
-5.07800007	6.66450024	0.0549999997	200	0	0
-5.09299994	6.66450024	0.0700000003	200	0	0
-5.09600019	6.66469955	0.0790000036	200	0	0
-5.09200001	6.66460037	0.0370000005	200	0	0
-5.06400013	6.66460037	0.136999995	200	0	0
-5.05999994	6.66469955	0.118000001	200	0	0
-5.09499979	6.66469955	0.0689999983	200	0	0
-5.0630002	6.66469955	0.105999999	200	0	0
-5.07999992	6.66469955	0.0430000015	200	0	0
-5.08599997	6.66469955	0.050999999	200	0	0
-5.06099987	6.66469955	0.150000006	200	0	0
-5.06400013	6.66469955	0.136999995	200	0	0
-5.08500004	6.66479969	0.0729999989	200	0	0
-5.09399986	6.66479969	0.0799999982	200	0	0
-5.07299995	6.66479969	0.155000001	200	0	0
-5.0630002	6.66479969	0.149000004	200	0	0
-5.06500006	6.66479969	0.136999995	200	0	0
-5.05100012	6.66479969	0.122000001	200	0	0
-5.06899977	6.66489983	0.166999996	200	0	0
-5.06500006	6.66499996	0.148000002	200	0	0
-5.05900002	6.66489983	0.107000001	200	0	0
-5.05999994	6.66489983	0.118000001	200	0	0
-5.0630002	6.66489983	0.158999994	200	0	0
-5.0630002	6.66489983	0.137999997	200	0	0
-5.0630002	6.66489983	0.149000004	200	0	0
-5.08900023	6.66499996	0.0820000023	200	0	0
-5.08699989	6.66489983	0.0729999989	200	0	0
-5.08699989	6.66489983	0.0829999968	200	0	0
-5.08300018	6.66499996	0.0529999994	200	0	0
-5.08799982	6.66499996	0.0719999969	200	0	0
-5.07499981	6.66499996	0.100000001	200	0	0
-5.05600023	6.66499996	0.141000003	200	0	0
-5.05600023	6.66499996	0.163000003	200	0	0
-5.06599998	6.66499996	0.167999998	200	0	0
-5.05600023	6.66499996	0.119999997	200	0	0
-5.08699989	6.66499996	0.0399999991	200	0	0
-5.05800009	6.6651001	0.150999993	200	0	0
-5.08599997	6.6651001	0.0839999989	200	0	0
-5.05999994	6.6651001	0.138999999	200	0	0
-5.05200005	6.6651001	0.111000001	200	0	0
-5.05800009	6.6651001	0.119000003	200	0	0
-5.07600021	6.6651001	0.0560000017	200	0	0
-5.08900023	6.6651001	0.0719999969	200	0	0
-5.04699993	6.6651001	0.177000001	200	0	0
-5.0619998	6.6651001	0.159999996	200	0	0
-5.07700014	6.66520023	0.0450000018	200	0	0
-5.08799982	6.66520023	0.0829999968	200	0	0
-5.08900023	6.66520023	0.0719999969	200	0	0
-5.06400013	6.66520023	0.158999994	200	0	0
-5.0630002	6.66520023	0.149000004	200	0	0
-5.05900002	6.66520023	0.140000001	200	0	0
-5.05999994	6.66520023	0.107000001	200	0	0
-5.05800009	6.66520023	0.119000003	200	0	0
-5.08400011	6.66530085	0.0520000011	200	0	0
-5.08300018	6.66530085	0.0850000009	200	0	0
-5.08300018	6.66530085	0.074000001	200	0	0
-5.05999994	6.66530085	0.107000001	200	0	0
-5.05700016	6.66530085	0.119000003	200	0	0
-5.05800009	6.66530085	0.150999993	200	0	0
-5.06099987	6.66530085	0.138999999	200	0	0
-5.0710001	6.66530085	0.156000003	200	0	0
-5.0619998	6.66539955	0.159999996	200	0	0
-5.08400011	6.66539955	0.0850000009	200	0	0
-5.0630002	6.66539955	0.149000004	200	0	0
-5.05900002	6.66539955	0.140000001	200	0	0
-5.05000019	6.66539955	0.123000003	200	0	0
-5.08199978	6.66539955	0.0529999994	200	0	0
-5.08300018	6.66539955	0.074000001	200	0	0
-5.07999992	6.66549969	0.0869999975	200	0	0
-5.05600023	6.66549969	0.151999995	200	0	0
-5.05700016	6.66549969	0.141000003	200	0	0
-5.06599998	6.66549969	0.104000002	200	0	0
-5.05700016	6.66549969	0.119000003	200	0	0
-5.08300018	6.66549969	0.0529999994	200	0	0
-5.08400011	6.66549969	0.074000001	200	0	0
-5.07999992	6.66559982	0.0869999975	200	0	0
-5.08799982	6.66559982	0.0719999969	200	0	0
-5.06099987	6.66549969	0.171000004	200	0	0
-5.06099987	6.66559982	0.149000004	200	0	0
-5.05800009	6.66559982	0.140000001	200	0	0
-5.05800009	6.66559982	0.119000003	200	0	0
-5.07399988	6.66559982	0.165000007	200	0	0
-5.05299997	6.66559982	0.164000005	200	0	0
-5.08199978	6.66569996	0.0410000011	200	0	0
-5.0710001	6.66569996	0.101000004	200	0	0
-5.079	6.66569996	0.0529999994	200	0	0
-5.08400011	6.66569996	0.0839999989	200	0	0
-5.07800007	6.66569996	0.0759999976	200	0	0
-5.05499983	6.66569996	0.119000003	200	0	0
-5.05200005	6.66569996	0.142000005	200	0	0
-5.06599998	6.66569996	0.167999998	200	0	0
-5.05299997	6.66580009	0.140000001	200	0	0
-5.05999994	6.66580009	0.148000002	200	0	0
-5.05499983	6.66580009	0.160999998	200	0	0
-5.05499983	6.66590071	0.107000001	200	0	0
-5.04699993	6.66590071	0.122000001	200	0	0
-5.05100012	6.66590071	0.163000003	200	0	0
-5.06099987	6.66590071	0.136999995	200	0	0
-5.05600023	6.66590071	0.150000006	200	0	0
-5.04699993	6.66580009	0.111000001	200	0	0
-5.05100012	6.66580009	0.119999997	200	0	0
-5.08099985	6.66580009	0.0729999989	200	0	0
-5.08699989	6.66580009	0.0820000023	200	0	0
-5.07499981	6.66590071	0.0439999998	200	0	0
-5.07700014	6.66580009	0.0320000015	200	0	0
-5.07700014	6.66590071	0.075000003	200	0	0
-5.08199978	6.66580009	0.0399999991	200	0	0
-5.08400011	6.66590071	0.0829999968	200	0	0
-5.07200003	6.66580009	0.0560000017	200	0	0
-5.05600023	6.66599989	0.118000001	200	0	0
-5.05100012	6.66599989	0.108999997	200	0	0
-5.04699993	6.66599989	0.143000007	200	0	0
-5.0619998	6.66599989	0.158000007	200	0	0
-5.05800009	6.66599989	0.149000004	200	0	0
-5.07299995	6.66599989	0.0439999998	200	0	0
-5.07700014	6.66599989	0.0540000014	200	0	0
-5.07999992	6.66599989	0.074000001	200	0	0
-5.08599997	6.66599989	0.0820000023	200	0	0
-5.09000015	6.66610003	0.0689999983	200	0	0
-5.0710001	6.66610003	0.0560000017	200	0	0
-5.07399988	6.66610003	0.0439999998	200	0	0
-5.0539999	6.66610003	0.108000003	200	0	0
-5.04799986	6.66610003	0.120999999	200	0	0
-5.05299997	6.66610003	0.140000001	200	0	0
-5.05200005	6.66610003	0.163000003	200	0	0
-5.05999994	6.66610003	0.148000002	200	0	0
-5.08099985	6.66620016	0.0839999989	200	0	0
-5.08799982	6.66620016	0.0700000003	200	0	0
-5.079	6.66620016	0.0419999994	200	0	0
-5.07800007	6.66620016	0.0529999994	200	0	0
-5.08199978	6.66629982	0.0729999989	200	0	0
-5.05499983	6.66620016	0.150000006	200	0	0
-5.05600023	6.66620016	0.138999999	200	0	0
-5.05100012	6.66620016	0.119999997	200	0	0
-5.05499983	6.66620016	0.160999998	200	0	0
-5.04699993	6.66629982	0.122000001	200	0	0
-5.03499985	6.66629982	0.170000002	200	0	0
-5.03999996	6.66629982	0.157000005	200	0	0
-5.05299997	6.66629982	0.140000001	200	0	0
-5.06899977	6.66629982	0.0469999984	200	0	0
-5.07600021	6.66629982	0.0540000014	200	0	0
-5.07600021	6.66629982	0.0869999975	200	0	0
-5.046	6.66629982	0.112000003	200	0	0
-5.07200003	6.66639996	0.0560000017	200	0	0
-5.07800007	6.66639996	0.075000003	200	0	0
-5.08400011	6.66639996	0.0829999968	200	0	0
-5.04799986	6.66639996	0.120999999	200	0	0
-5.04199982	6.66639996	0.166999996	200	0	0
-5.05200005	6.66639996	0.141000003	200	0	0
-5.05700016	6.66639996	0.150000006	200	0	0
-5.046	6.66650105	0.111000001	200	0	0
-5.06899977	6.66650105	0.057	200	0	0
-5.0710001	6.66650105	0.0780000016	200	0	0
-5.08500004	6.66650105	0.0820000023	200	0	0
-5.079	6.66650105	0.0419999994	200	0	0
-5.05999994	6.66659975	0.148000002	200	0	0
-5.05000019	6.66650105	0.120999999	200	0	0
-5.04199982	6.66650105	0.166999996	200	0	0
-5.04799986	6.66650105	0.143000007	200	0	0
-5.05200005	6.66650105	0.151999995	200	0	0
-5.079	6.66659975	0.074000001	200	0	0
-5.07600021	6.66659975	0.0540000014	200	0	0
-5.07399988	6.66659975	0.0439999998	200	0	0
-5.04899979	6.66659975	0.120999999	200	0	0
-5.05200005	6.66659975	0.108999997	200	0	0
-5.07800007	6.66659975	0.0860000029	200	0	0
-5.08199978	6.66669989	0.0839999989	200	0	0
-5.05700016	6.66659975	0.159999996	200	0	0
-5.04400015	6.66659975	0.144999996	200	0	0
-5.06500006	6.66659975	0.166999996	200	0	0
-5.04899979	6.66669989	0.109999999	200	0	0
-5.0619998	6.66669989	0.158000007	200	0	0
-5.04300022	6.66669989	0.123999998	200	0	0
-5.04400015	6.66669989	0.155000001	200	0	0
-5.0539999	6.66669989	0.140000001	200	0	0
-5.05200005	6.66690016	0.108999997	200	0	0
-5.08199978	6.66680002	0.0729999989	200	0	0
-5.04899979	6.66680002	0.142000005	200	0	0
-5.07000017	6.66669989	0.057	200	0	0
-5.07200003	6.66680002	0.0879999995	200	0	0
-5.04199982	6.66680002	0.123999998	200	0	0
-5.04300022	6.66680002	0.112999998	200	0	0
-5.07999992	6.66669989	0.074000001	200	0	0
-5.04899979	6.66690016	0.120999999	200	0	0
-5.04899979	6.66680002	0.152999997	200	0	0
-5.06599998	6.66680002	0.166999996	200	0	0
-5.07399988	6.66669989	0.0439999998	200	0	0
-5.07200003	6.66690016	0.0450000018	200	0	0
-5.07299995	6.66680002	0.0549999997	200	0	0
-5.07800007	6.66680002	0.0419999994	200	0	0
-5.07700014	6.66690016	0.075000003	200	0	0
-5.07800007	6.66690016	0.0850000009	200	0	0
-5.046	6.66690016	0.155000001	200	0	0
-5.07000017	6.66690016	0.057	200	0	0
-5.06799984	6.66700029	0.0909999982	200	0	0
-5.07000017	6.66700029	0.057	200	0	0
-5.07299995	6.66700029	0.0769999996	200	0	0
-5.04799986	6.66700029	0.143000007	200	0	0
-5.04400015	6.66700029	0.123000003	200	0	0
-5.04099989	6.66700029	0.114	200	0	0
-5.05100012	6.66700029	0.151999995	200	0	0
-5.05000019	6.66710043	0.109999999	200	0	0
-5.06899977	6.66710043	0.057	200	0	0
-5.07000017	6.66710043	0.0890000015	200	0	0
-5.07600021	6.66710043	0.0759999976	200	0	0
-5.06599998	6.66719961	0.0799999982	200	0	0
-5.07399988	6.66719961	0.0879999995	200	0	0
-5.05499983	6.66719961	0.150000006	200	0	0
-5.05100012	6.66710043	0.163000003	200	0	0
-5.04500008	6.66710043	0.155000001	200	0	0
-5.04799986	6.66719961	0.143000007	200	0	0
-5.04300022	6.66719961	0.112999998	200	0	0
-5.04500008	6.66719961	0.123000003	200	0	0
-5.0710001	6.66729975	0.0890000015	200	0	0
-5.07399988	6.66729975	0.0769999996	200	0	0
-5.06400013	6.66729975	0.0599999987	200	0	0
-5.04400015	6.66729975	0.155000001	200	0	0
-5.04199982	6.66729975	0.144999996	200	0	0
-5.03900003	6.66729975	0.115000002	200	0	0
-5.05499983	6.66729975	0.118000001	200	0	0
-5.05299997	6.66739988	0.150999993	200	0	0
-5.07700014	6.66739988	0.0860000029	200	0	0
-5.04199982	6.66739988	0.145999998	200	0	0
-5.05000019	6.66739988	0.109999999	200	0	0
-5.06599998	6.66750002	0.0590000004	200	0	0
-5.07399988	6.66739988	0.0769999996	200	0	0
-5.06699991	6.66739988	0.0579999983	200	0	0
-5.07399988	6.66750002	0.0769999996	200	0	0
-5.03700018	6.66750002	0.127000004	200	0	0
-5.04400015	6.66750002	0.144999996	200	0	0
-5.06500006	6.66750002	0.0480000004	200	0	0
-5.06500006	6.66760015	0.0480000004	200	0	0
-5.05900002	6.66760015	0.061999999	200	0	0
-5.07000017	6.66760015	0.0790000036	200	0	0
-5.0710001	6.66760015	0.0890000015	200	0	0
-5.04199982	6.66760015	0.144999996	200	0	0
-5.03700018	6.66760015	0.127000004	200	0	0
-5.03700018	6.66760015	0.115999997	200	0	0
-5.046	6.66760015	0.155000001	200	0	0
-5.0619998	6.66770029	0.0500000007	200	0	0
-5.0710001	6.66770029	0.0560000017	200	0	0
-5.06899977	6.6678009	0.0790000036	200	0	0
-5.03700018	6.66770029	0.158000007	200	0	0
-5.0710001	6.6678009	0.0890000015	200	0	0
-5.03399992	6.6678009	0.128000006	200	0	0
-5.03399992	6.6678009	0.116999999	200	0	0
-5.03999996	6.66770029	0.147	200	0	0
-5.0710001	6.66770029	0.0780000016	200	0	0
-5.07000017	6.66770029	0.0890000015	200	0	0
-5.03800011	6.66770029	0.126000002	200	0	0
-5.03200006	6.66770029	0.118000001	200	0	0
-5.05100012	6.6678009	0.163000003	200	0	0
-5.04699993	6.6678009	0.153999999	200	0	0
-5.07200003	6.66789961	0.0450000018	200	0	0
-5.06799984	6.6678009	0.0579999983	200	0	0
-5.06400013	6.6678009	0.0379999988	200	0	0
-5.06599998	6.6678009	0.0480000004	200	0	0
-5.04400015	6.66789961	0.155000001	200	0	0
-5.06799984	6.66799974	0.0909999982	200	0	0
-5.05800009	6.66789961	0.063000001	200	0	0
-5.07200003	6.66789961	0.0780000016	200	0	0
-5.0619998	6.66789961	0.0930000022	200	0	0
-5.03299999	6.66789961	0.118000001	200	0	0
-5.04500008	6.66789961	0.165000007	200	0	0
-5.03599977	6.66789961	0.127000004	200	0	0
-5.04099989	6.66789961	0.145999998	200	0	0
-5.06799984	6.66799974	0.0799999982	200	0	0
-5.03700018	6.66799974	0.127000004	200	0	0
-5.03800011	6.66799974	0.115999997	200	0	0
-5.06699991	6.66799974	0.0480000004	200	0	0
-5.06400013	6.66799974	0.0610000007	200	0	0
-5.0710001	6.66809988	0.0900000036	200	0	0
-5.07600021	6.66809988	0.0759999976	200	0	0
-5.06099987	6.66809988	0.050999999	200	0	0
-5.06400013	6.66809988	0.0610000007	200	0	0
-5.03700018	6.66809988	0.127000004	200	0	0
-5.03800011	6.66809988	0.158999994	200	0	0
-5.03800011	6.66809988	0.148000002	200	0	0
-5.05299997	6.66809988	0.163000003	200	0	0
-5.04699993	6.66799974	0.155000001	200	0	0
-5.0630002	6.66820002	0.0500000007	200	0	0
-5.046	6.66820002	0.112000003	200	0	0
-5.0630002	6.66820002	0.0610000007	200	0	0
-5.07000017	6.66820002	0.0790000036	200	0	0
-5.05999994	6.66820002	0.0410000011	200	0	0
-5.03499985	6.66820002	0.128000006	200	0	0
-5.046	6.66820002	0.143999994	200	0	0
-5.046	6.66820002	0.155000001	200	0	0
-5.03599977	6.66830015	0.116999999	200	0	0
-5.03100014	6.66830015	0.129999995	200	0	0
-5.03700018	6.66830015	0.158999994	200	0	0
-5.046	6.66830015	0.143999994	200	0	0
-5.06799984	6.66830015	0.0480000004	200	0	0
-5.05900002	6.66830015	0.063000001	200	0	0
-5.05999994	6.66830015	0.0839999989	200	0	0
-5.06799984	6.66830015	0.0909999982	200	0	0
-5.07299995	6.66840076	0.0890000015	200	0	0
-5.0630002	6.66840076	0.0829999968	200	0	0
-5.06099987	6.66840076	0.050999999	200	0	0
-5.05800009	6.66840076	0.064000003	200	0	0
-5.04199982	6.66840076	0.157000005	200	0	0
-5.03900003	6.66840076	0.148000002	200	0	0
-5.02899981	6.66840076	0.119999997	200	0	0
-5.06599998	6.66849995	0.0820000023	200	0	0
-5.06099987	6.66849995	0.061999999	200	0	0
-5.06400013	6.66849995	0.0399999991	200	0	0
-5.06400013	6.66849995	0.0500000007	200	0	0
-5.06099987	6.66860008	0.061999999	200	0	0
-5.05900002	6.66849995	0.0960000008	200	0	0
-5.03000021	6.66849995	0.130999997	200	0	0
-5.03900003	6.66849995	0.158999994	200	0	0
-5.03700018	6.66849995	0.149000004	200	0	0
-5.03599977	6.66860008	0.128000006	200	0	0
-5.0630002	6.66869974	0.050999999	200	0	0
-5.05499983	6.66860008	0.0869999975	200	0	0
-5.0630002	6.66860008	0.050999999	200	0	0
-5.06400013	6.66860008	0.0939999968	200	0	0
-5.03399992	6.66860008	0.119000003	200	0	0
-5.0619998	6.66869974	0.063000001	200	0	0
-5.0630002	6.66869974	0.0949999988	200	0	0
-5.0630002	6.66869974	0.0839999989	200	0	0
-5.04199982	6.66860008	0.169	200	0	0
-5.03999996	6.66860008	0.148000002	200	0	0
-5.03399992	6.66860008	0.160999998	200	0	0
-5.03800011	6.66869974	0.159999996	200	0	0
-5.03399992	6.66869974	0.150999993	200	0	0
-5.03700018	6.66869974	0.118000001	200	0	0
-5.03000021	6.66869974	0.131999999	200	0	0
-5.06699991	6.66879988	0.0829999968	200	0	0
-5.05999994	6.66879988	0.0649999976	200	0	0
-5.05999994	6.66879988	0.0540000014	200	0	0
-5.03100014	6.66879988	0.131999999	200	0	0
-5.03599977	6.66879988	0.150999993	200	0	0
-5.04099989	6.66879988	0.159999996	200	0	0
-5.0619998	6.66890001	0.0529999994	200	0	0
-5.05999994	6.66890001	0.0649999976	200	0	0
-5.0630002	6.66890001	0.0850000009	200	0	0
-5.06899977	6.66890001	0.0930000022	200	0	0
-5.06099987	6.66879988	0.0960000008	200	0	0
-5.03999996	6.66890001	0.159999996	200	0	0
-5.03499985	6.66890001	0.151999995	200	0	0
-5.02400017	6.66890001	0.136000007	200	0	0
-5.02799988	6.66890001	0.123000003	200	0	0
-5.05999994	6.66900063	0.0540000014	200	0	0
-5.05900002	6.66900063	0.0649999976	200	0	0
-5.0619998	6.66900063	0.0960000008	200	0	0
-5.06099987	6.66900063	0.0860000029	200	0	0
-5.03299999	6.66890001	0.173999995	200	0	0
-5.02699995	6.66900063	0.134000003	200	0	0
-5.06500006	6.66909981	0.0839999989	200	0	0
-5.05900002	6.66909981	0.0649999976	200	0	0
-5.0539999	6.66909981	0.0560000017	200	0	0
-5.03399992	6.66909981	0.151999995	200	0	0
-5.02799988	6.66909981	0.134000003	200	0	0
-5.06500006	6.66909981	0.0949999988	200	0	0
-5.02799988	6.66909981	0.123000003	200	0	0
-5.03700018	6.66909981	0.162	200	0	0
-5.03100014	6.66919994	0.153999999	200	0	0
-5.05499983	6.66919994	0.0879999995	200	0	0
-5.05299997	6.66919994	0.100000001	200	0	0
-5.03200006	6.66919994	0.120999999	200	0	0
-5.05800009	6.66919994	0.0659999996	200	0	0
-5.05499983	6.66930008	0.0560000017	200	0	0
-5.05999994	6.66930008	0.0649999976	200	0	0
-5.05299997	6.66930008	0.100000001	200	0	0
-5.05700016	6.66930008	0.0869999975	200	0	0
-5.02899981	6.66930008	0.122000001	200	0	0
-5.05600023	6.66940022	0.0549999997	200	0	0
-5.05499983	6.66940022	0.0670000017	200	0	0
-5.06500006	6.66940022	0.0949999988	200	0	0
-5.05600023	6.66940022	0.0879999995	200	0	0
-5.05499983	6.66950035	0.0989999995	200	0	0
-5.0619998	6.66950035	0.0850000009	200	0	0
-5.0539999	6.66950035	0.0670000017	200	0	0
-5.05499983	6.66950035	0.0560000017	200	0	0
-5.03399992	6.66940022	0.119999997	200	0	0
-5.02400017	6.66940022	0.135000005	200	0	0
-5.02899981	6.66950035	0.165000007	200	0	0
-5.02299976	6.66950035	0.136000007	200	0	0
-5.02400017	6.66950035	0.125	200	0	0
-5.0539999	6.66960001	0.0900000036	200	0	0
-5.05600023	6.66960001	0.0670000017	200	0	0
-5.04899979	6.66960001	0.0599999987	200	0	0
-5.05999994	6.66960001	0.0430000015	200	0	0
-5.05999994	6.66960001	0.0970000029	200	0	0
-5.02299976	6.66960001	0.126000002	200	0	0
-5.0250001	6.66960001	0.136000007	200	0	0
-5.03999996	6.66960001	0.160999998	200	0	0
-5.05600023	6.66969967	0.0560000017	200	0	0
-5.05100012	6.66969967	0.101999998	200	0	0
-5.0539999	6.66969967	0.0680000037	200	0	0
-5.0539999	6.66969967	0.0900000036	200	0	0
-5.03499985	6.66969967	0.163000003	200	0	0
-5.03200006	6.66969967	0.153999999	200	0	0
-5.02099991	6.66969967	0.127000004	200	0	0
-5.02699995	6.66969967	0.135000005	200	0	0
-5.04899979	6.6697998	0.0920000002	200	0	0
-5.04699993	6.6697998	0.0710000023	200	0	0
-5.05200005	6.6697998	0.0579999983	200	0	0
-5.05299997	6.6697998	0.101000004	200	0	0
-5.02600002	6.6697998	0.135000005	200	0	0
-5.03200006	6.6697998	0.153999999	200	0	0
-5.02400017	6.66989994	0.136000007	200	0	0
-5.05999994	6.66989994	0.0869999975	200	0	0
-5.04500008	6.66989994	0.0719999969	200	0	0
-5.046	6.66989994	0.0610000007	200	0	0
-5.05700016	6.67000008	0.0670000017	200	0	0
-5.0539999	6.66989994	0.100000001	200	0	0
-5.03599977	6.66989994	0.172999993	200	0	0
-5.03100014	6.66989994	0.165000007	200	0	0
-5.03000021	6.66989994	0.155000001	200	0	0
-5.04500008	6.67000008	0.050999999	200	0	0
-5.03800011	6.67000008	0.108999997	200	0	0
-5.04199982	6.67000008	0.064000003	200	0	0
-5.05200005	6.67000008	0.0909999982	200	0	0
-5.01999998	6.67000008	0.128000006	200	0	0
-5.01999998	6.67000008	0.138999999	200	0	0
-5.03800011	6.67000008	0.162	200	0	0
-5.02799988	6.67000008	0.156000003	200	0	0
-5.02099991	6.67010021	0.137999997	200	0	0
-5.02600002	6.67010021	0.167999998	200	0	0
-5.02899981	6.67010021	0.156000003	200	0	0
-5.046	6.67010021	0.061999999	200	0	0
-5.04699993	6.67010021	0.104999997	200	0	0
-5.04899979	6.67010021	0.0710000023	200	0	0
-5.0539999	6.67010021	0.0900000036	200	0	0
-5.05100012	6.67020035	0.0920000002	200	0	0
-5.04300022	6.67020035	0.074000001	200	0	0
-5.04699993	6.67020035	0.0610000007	200	0	0
-5.04799986	6.67020035	0.0500000007	200	0	0
-5.05700016	6.67020035	0.100000001	200	0	0
-5.02899981	6.67020035	0.123000003	200	0	0
-5.03100014	6.67020035	0.155000001	200	0	0
-5.02199984	6.67020035	0.137999997	200	0	0
-5.05800009	6.67030096	0.0869999975	200	0	0
-5.04300022	6.67030096	0.0729999989	200	0	0
-5.046	6.67030096	0.0500000007	200	0	0
-5.05200005	6.67030096	0.0579999983	200	0	0
-5.04500008	6.67030096	0.104000002	200	0	0
-5.02099991	6.67039967	0.125	200	0	0
-5.04899979	6.67039967	0.0579999983	200	0	0
-5.04300022	6.67039967	0.0719999969	200	0	0
-5.04699993	6.67039967	0.0909999982	200	0	0
-5.04500008	6.67039967	0.103	200	0	0
-5.02400017	6.67030096	0.125	200	0	0
-5.04699993	6.67039967	0.0480000004	200	0	0
-5.0250001	6.67030096	0.156000003	200	0	0
-5.0250001	6.67020035	0.167999998	200	0	0
-5.03000021	6.67030096	0.165000007	200	0	0
-5.02099991	6.67039967	0.136000007	200	0	0
-5.01599979	6.67039967	0.158999994	200	0	0
-5.04899979	6.6704998	0.0579999983	200	0	0
-5.05100012	6.6704998	0.0680000037	200	0	0
-5.05000019	6.6704998	0.101000004	200	0	0
-5.05299997	6.6704998	0.0890000015	200	0	0
-5.02099991	6.6704998	0.157000005	200	0	0
-5.01399994	6.6704998	0.138999999	200	0	0
-5.02099991	6.6704998	0.125	200	0	0
-5.03100014	6.6704998	0.173999995	200	0	0
-5.05600023	6.67059994	0.0869999975	200	0	0
-5.03900003	6.67059994	0.0520000011	200	0	0
-5.04699993	6.67059994	0.0700000003	200	0	0
-5.04199982	6.67059994	0.0610000007	200	0	0
-5.04500008	6.67059994	0.103	200	0	0
-5.01300001	6.67059994	0.140000001	200	0	0
-5.02299976	6.67059994	0.156000003	200	0	0
-5.02600002	6.67059994	0.165999994	200	0	0
-5.04300022	6.67070007	0.0610000007	200	0	0
-5.04500008	6.67070007	0.0710000023	200	0	0
-5.04300022	6.67070007	0.104000002	200	0	0
-5.05200005	6.67070007	0.0890000015	200	0	0
-5.02799988	6.67070007	0.165000007	200	0	0
-5.02099991	6.67070007	0.157000005	200	0	0
-5.01499987	6.67070007	0.138999999	200	0	0
-5.01800013	6.67070007	0.127000004	200	0	0
-5.03499985	6.67080021	0.108000003	200	0	0
-5.01599979	6.67080021	0.128000006	200	0	0
-5.0170002	6.67080021	0.137999997	200	0	0
-5.05000019	6.67080021	0.057	200	0	0
-5.03999996	6.67080021	0.0729999989	200	0	0
-5.03900003	6.67080021	0.0949999988	200	0	0
-5.04400015	6.67090082	0.103	200	0	0
-5.04199982	6.67090082	0.0939999968	200	0	0
-5.04899979	6.67090082	0.0469999984	200	0	0
-5.03800011	6.67090082	0.074000001	200	0	0
-5.046	6.67090082	0.0590000004	200	0	0
-5.04500008	6.67099953	0.0489999987	200	0	0
-5.01599979	6.67090082	0.137999997	200	0	0
-5.01999998	6.67099953	0.126000002	200	0	0
-5.01399994	6.67090082	0.160999998	200	0	0
-5.02899981	6.67099953	0.164000005	200	0	0
-5.01200008	6.67099953	0.160999998	200	0	0
-5.01200008	6.67099953	0.140000001	200	0	0
-5.05000019	6.67099953	0.101000004	200	0	0
-5.04699993	6.67099953	0.0909999982	200	0	0
-5.03499985	6.67099953	0.075000003	200	0	0
-5.03999996	6.67099953	0.061999999	200	0	0
-5.04099989	6.67109966	0.050999999	200	0	0
-5.04500008	6.67109966	0.0599999987	200	0	0
-5.03399992	6.67109966	0.108000003	200	0	0
-5.04300022	6.67109966	0.0719999969	200	0	0
-5.04300022	6.67109966	0.0930000022	200	0	0
-5.01999998	6.67109966	0.158000007	200	0	0
-5.01499987	6.67109966	0.138999999	200	0	0
-5.02299976	6.67109966	0.166999996	200	0	0
-5.04099989	6.6711998	0.050999999	200	0	0
-5.04099989	6.6711998	0.061999999	200	0	0
-5.03700018	6.6711998	0.107000001	200	0	0
-5.04199982	6.6711998	0.0719999969	200	0	0
-5.04500008	6.6711998	0.0920000002	200	0	0
-5.04400015	6.67129993	0.0710000023	200	0	0
-5.01100016	6.6711998	0.129999995	200	0	0
-5.02600002	6.67129993	0.165999994	200	0	0
-5.04500008	6.67129993	0.0920000002	200	0	0
-5.0250001	6.67129993	0.156000003	200	0	0
-5.03900003	6.67129993	0.105999999	200	0	0
-5.01599979	6.67129993	0.137999997	200	0	0
-5.01000023	6.67129993	0.130999997	200	0	0
-5.0250001	6.6711998	0.165999994	200	0	0
-5.01399994	6.6711998	0.160999998	200	0	0
-5.01300001	6.6711998	0.140000001	200	0	0
-5.04099989	6.67129993	0.061999999	200	0	0
-5.03999996	6.67140007	0.0949999988	200	0	0
-5.04300022	6.67140007	0.0719999969	200	0	0
-5.04500008	6.67140007	0.0489999987	200	0	0
-5.05200005	6.67140007	0.057	200	0	0
-5.01599979	6.67140007	0.128000006	200	0	0
-5.02899981	6.67140007	0.164000005	200	0	0
-5.0170002	6.67140007	0.158999994	200	0	0
-5.03399992	6.67150068	0.0649999976	200	0	0
-5.03900003	6.67150068	0.074000001	200	0	0
-5.03800011	6.67150068	0.0949999988	200	0	0
-5.04799986	6.67159986	0.0689999983	200	0	0
-5.00199986	6.67150068	0.123000003	200	0	0
-5.01599979	6.67150068	0.137999997	200	0	0
-5.03900003	6.67159986	0.0949999988	200	0	0
-5.04500008	6.67159986	0.0489999987	200	0	0
-5.03800011	6.67159986	0.063000001	200	0	0
-5.03800011	6.67159986	0.105999999	200	0	0
-5.00699997	6.67159986	0.131999999	200	0	0
-5.01499987	6.67159986	0.138999999	200	0	0
-5.01399994	6.67159986	0.160999998	200	0	0
-5.03000021	6.67159986	0.173999995	200	0	0
-5.02799988	6.67159986	0.165000007	200	0	0
-5.01200008	6.6717	0.140000001	200	0	0
-5.00899982	6.6717	0.130999997	200	0	0
-5.03499985	6.6717	0.0759999976	200	0	0
-5.04099989	6.6717	0.0939999968	200	0	0
-5.02299976	6.6717	0.114	200	0	0
-5.01399994	6.67180014	0.128000006	200	0	0
-5.02600002	6.6717	0.165999994	200	0	0
-5.01399994	6.6717	0.160999998	200	0	0
-5.03999996	6.6717	0.0520000011	200	0	0
-5.03499985	6.67180014	0.0649999976	200	0	0
-5.03700018	6.67180014	0.074000001	200	0	0
-5.02799988	6.67180014	0.111000001	200	0	0
-5.04400015	6.67180014	0.0930000022	200	0	0
-5.04300022	6.6718998	0.0930000022	200	0	0
-5.03800011	6.6718998	0.074000001	200	0	0
-5.03700018	6.6718998	0.064000003	200	0	0
-5.03800011	6.6718998	0.0529999994	200	0	0
-5.01300001	6.67180014	0.160999998	200	0	0
-5.01200008	6.67180014	0.140000001	200	0	0
-5.01599979	6.6718998	0.158999994	200	0	0
-5.01100016	6.6718998	0.141000003	200	0	0
-5.00600004	6.6718998	0.120999999	200	0	0
-5.00600004	6.6718998	0.174999997	200	0	0
-5.04099989	6.67199993	0.0939999968	200	0	0
-5.03599977	6.67199993	0.075000003	200	0	0
-5.03900003	6.67199993	0.063000001	200	0	0
-5.04199982	6.67199993	0.0500000007	200	0	0
-5.00400019	6.67199993	0.133000001	200	0	0
-5.01499987	6.67199993	0.138999999	200	0	0
-5.02699995	6.67199993	0.112000003	200	0	0
-5.01300001	6.67199993	0.160999998	200	0	0
-5.02699995	6.67210007	0.0790000036	200	0	0
-5.03000021	6.67210007	0.0670000017	200	0	0
-5.03999996	6.67210007	0.0949999988	200	0	0
-5.00899982	6.67210007	0.130999997	200	0	0
-5.02299976	6.67210007	0.114	200	0	0
-5.03399992	6.67219973	0.108999997	200	0	0
-5.03399992	6.67219973	0.0979999974	200	0	0
-5.02699995	6.67219973	0.0790000036	200	0	0
-5.03000021	6.67219973	0.0670000017	200	0	0
-5.01399994	6.67210007	0.160999998	200	0	0
-5.00500011	6.67210007	0.143000007	200	0	0
-5.02400017	6.67229986	0.165999994	200	0	0
-5.0079999	6.67219973	0.130999997	200	0	0
-5.00600004	6.67219973	0.143000007	200	0	0
-5.01300001	6.67219973	0.160999998	200	0	0
-5.02099991	6.67219973	0.167999998	200	0	0
-5.03700018	6.67229986	0.0529999994	200	0	0
-5.03299999	6.67229986	0.0659999996	200	0	0
-5.01999998	6.67229986	0.115000002	200	0	0
-5.03700018	6.67229986	0.074000001	200	0	0
-5.03700018	6.67229986	0.0960000008	200	0	0
-5.01100016	6.67229986	0.162	200	0	0
-5.00600004	6.67229986	0.143000007	200	0	0
-5.03499985	6.67250013	0.064000003	200	0	0
-5.03700018	6.6724	0.0949999988	200	0	0
-5.03499985	6.6724	0.075000003	200	0	0
-5.03200006	6.6724	0.0649999976	200	0	0
-5.03599977	6.67250013	0.074000001	200	0	0
-5.01300001	6.6724	0.116999999	200	0	0
-5.02299976	6.67250013	0.101999998	200	0	0
-5.02299976	6.67250013	0.0590000004	200	0	0
-5.01200008	6.6724	0.159999996	200	0	0
-5.00699997	6.6724	0.141000003	200	0	0
-5.00600004	6.6724	0.130999997	200	0	0
-5.01599979	6.67250013	0.115999997	200	0	0
-5.00600004	6.67250013	0.130999997	200	0	0
-5.01900005	6.67250013	0.167999998	200	0	0
-5.00899982	6.67250013	0.162	200	0	0
-5.00600004	6.67250013	0.142000005	200	0	0
-5.02299976	6.67260027	0.165999994	200	0	0
-5.00600004	6.67260027	0.120999999	200	0	0
-5.00600004	6.67260027	0.142000005	200	0	0
-5.03200006	6.67260027	0.0549999997	200	0	0
-5.03599977	6.67260027	0.0960000008	200	0	0
-5.02899981	6.67260027	0.0659999996	200	0	0
-5.03499985	6.67260027	0.075000003	200	0	0
-5.00899982	6.67270041	0.162	200	0	0
-5.03000021	6.67270041	0.0979999974	200	0	0
-5.00400019	6.67270041	0.143000007	200	0	0
-5.01499987	6.67270041	0.116999999	200	0	0
-5.00400019	6.67270041	0.131999999	200	0	0
-5.03200006	6.67270041	0.0759999976	200	0	0
-5.03100014	6.67270041	0.0549999997	200	0	0
-5.03000021	6.67270041	0.0659999996	200	0	0
-5.02899981	6.67280102	0.0560000017	200	0	0
-5.01999998	6.67280102	0.0710000023	200	0	0
-5.02699995	6.67280102	0.0790000036	200	0	0
-5.02699995	6.67280102	0.100000001	200	0	0
-5.00400019	6.67280102	0.122000001	200	0	0
-5	6.67280102	0.134000003	200	0	0
-5.00199986	6.67280102	0.143999994	200	0	0
-5.01300001	6.67280102	0.170000002	200	0	0
-5.00600004	6.67280102	0.163000003	200	0	0
-5.0079999	6.67289972	0.119999997	200	0	0
-5.02899981	6.67289972	0.0560000017	200	0	0
-5.02600002	6.67289972	0.0680000037	200	0	0
-5.01800013	6.67289972	0.0829999968	200	0	0
-5.03499985	6.67289972	0.0960000008	200	0	0
-5.00699997	6.67289972	0.163000003	200	0	0
-5.00400019	6.67289972	0.143000007	200	0	0
-5.00199986	6.67289972	0.133000001	200	0	0
-5.0250001	6.67299986	0.112000003	200	0	0
-5.02600002	6.67309999	0.0790000036	200	0	0
-5.02299976	6.67299986	0.101999998	200	0	0
-5.02099991	6.67299986	0.0700000003	200	0	0
-5.02699995	6.67299986	0.0790000036	200	0	0
-5.02099991	6.67299986	0.166999996	200	0	0
-5.00899982	6.67299986	0.162	200	0	0
-5.02699995	6.67309999	0.0680000037	200	0	0
-5.00299978	6.67309999	0.133000001	200	0	0
-5.01499987	6.67309999	0.116999999	200	0	0
-5.03299999	6.67309999	0.0979999974	200	0	0
-5.03100014	6.67309999	0.0560000017	200	0	0
-5.01999998	6.67309999	0.0500000007	200	0	0
-4.99700022	6.67320013	0.148000002	200	0	0
-5.00500011	6.67320013	0.165000007	200	0	0
-5.01999998	6.67320013	0.169	200	0	0
-4.99499989	6.67309999	0.148000002	200	0	0
-5.0079999	6.67309999	0.163000003	200	0	0
-5.01599979	6.67309999	0.170000002	200	0	0
-5.00199986	6.67229986	-0.0390000008	200	0	0
-5.02199984	6.67320013	0.0820000023	200	0	0
-5.0170002	6.67320013	0.0520000011	200	0	0
-5.0250001	6.67320013	0.0590000004	200	0	0
-5.03299999	6.67320013	0.0989999995	200	0	0
-5.01100016	6.67320013	0.119999997	200	0	0
-5.02600002	6.67340088	0.103	200	0	0
-5.02600002	6.67340088	0.0820000023	200	0	0
-5.02400017	6.67340088	0.050999999	200	0	0
-5.02199984	6.67340088	0.0729999989	200	0	0
-5.02799988	6.67340088	0.0590000004	200	0	0
-5.02600002	6.67330027	0.103	200	0	0
-5.01599979	6.67330027	0.0529999994	200	0	0
-5.02600002	6.67330027	0.0810000002	200	0	0
-5.02899981	6.67330027	0.0689999983	200	0	0
-5.03200006	6.67330027	0.057	200	0	0
-5.0079999	6.67330027	0.122000001	200	0	0
-5.00099993	6.67330027	0.136000007	200	0	0
-5.00299978	6.67340088	0.125	200	0	0
-5.00600004	6.67330027	0.165000007	200	0	0
-4.99900007	6.67340088	0.148000002	200	0	0
-4.99700022	6.67340088	0.137999997	200	0	0
-5.00899982	6.67340088	0.165000007	200	0	0
-4.99900007	6.67340088	0.180000007	200	0	0
-4.99300003	6.67349958	0.138999999	200	0	0
-5	6.67349958	0.147	200	0	0
-5.00099993	6.67349958	0.166999996	200	0	0
-5.01499987	6.67349958	0.172000006	200	0	0
-5.00600004	6.67359972	0.122000001	200	0	0
-5.02199984	6.67349958	0.0829999968	200	0	0
-5.03499985	6.67349958	0.0979999974	200	0	0
-4.99700022	6.67349958	0.127000004	200	0	0
-5.00500011	6.67309999	-0.0189999994	200	0	0
-5.02600002	6.67349958	0.0700000003	200	0	0
-5.03000021	6.67349958	0.057	200	0	0
-4.99399996	6.67359972	0.138999999	200	0	0
-4.98999977	6.67359972	0.172000006	200	0	0
-4.99100018	6.67359972	0.150999993	200	0	0
-5.00500011	6.67359972	0.175999999	200	0	0
-5.01999998	6.67359972	0.061999999	200	0	0
-5.02299976	6.67359972	0.0710000023	200	0	0
-5.02600002	6.67359972	0.0810000002	200	0	0
-5.02600002	6.67359972	0.101999998	200	0	0
-5.01999998	6.67299986	-0.0379999988	200	0	0
-5.01999998	6.67369986	0.0829999968	200	0	0
-5.01399994	6.67369986	0.064000003	200	0	0
-5.02400017	6.67369986	0.0700000003	200	0	0
-5.02899981	6.67369986	0.100000001	200	0	0
-5.00199986	6.67369986	0.123000003	200	0	0
-4.9920001	6.67369986	0.149000004	200	0	0
-4.99300003	6.67369986	0.137999997	200	0	0
-5.00099993	6.67369986	0.177000001	200	0	0
-5.00099993	6.67369986	0.165999994	200	0	0
-5.01999998	6.67379999	0.0820000023	200	0	0
-4.99700022	6.67379999	0.145999998	200	0	0
-4.9920001	6.67379999	0.137999997	200	0	0
-5.02299976	6.67379999	0.101999998	200	0	0
-4.99300003	6.67379999	0.127000004	200	0	0
-5.0170002	6.67379999	0.061999999	200	0	0
-5.02899981	6.67379999	0.0670000017	200	0	0
-4.97800016	6.67379999	0.175999999	200	0	0
-5.00199986	6.67379999	0.174999997	200	0	0
-5.01999998	6.67390013	0.0710000023	200	0	0
-5.00299978	6.67390013	0.143000007	200	0	0
-4.99100018	6.67390013	0.128000006	200	0	0
-5.02099991	6.67390013	0.0810000002	200	0	0
-5.02600002	6.67390013	0.100000001	200	0	0
-5.02199984	6.67400074	0.101999998	200	0	0
-5.02199984	6.67400074	0.0590000004	200	0	0
-5.02199984	6.67400074	0.0700000003	200	0	0
-5.01999998	6.67400074	0.0820000023	200	0	0
-5.01900005	6.67390013	0.0500000007	200	0	0
-5.02199984	6.67390013	0.0590000004	200	0	0
-4.98899984	6.67390013	0.138999999	200	0	0
-5.00400019	6.67390013	0.164000005	200	0	0
-5.00699997	6.67390013	0.172999993	200	0	0
-4.98999977	6.67400074	0.149000004	200	0	0
-5.00400019	6.67400074	0.122000001	200	0	0
-4.99499989	6.67400074	0.136000007	200	0	0
-4.99599981	6.67420006	0.147	200	0	0
-5.00099993	6.67409992	0.123000003	200	0	0
-4.99800014	6.67409992	0.166999996	200	0	0
-4.98799992	6.67409992	0.140000001	200	0	0
-4.98799992	6.67409992	0.150999993	200	0	0
-5.0250001	6.67409992	0.0579999983	200	0	0
-5.02299976	6.67409992	0.101999998	200	0	0
-5.01200008	6.67409992	0.075000003	200	0	0
-5.01300001	6.67409992	0.0850000009	200	0	0
-5.0250001	6.67439985	0.101000004	200	0	0
-5.01999998	6.67429972	0.0599999987	200	0	0
-5.01800013	6.67420006	0.0500000007	200	0	0
-4.99900007	6.67429972	0.123999998	200	0	0
-5.01800013	6.67429972	0.0719999969	200	0	0
-4.99300003	6.67420006	0.137999997	200	0	0
-4.98699999	6.67420006	0.129999995	200	0	0
-5.01200008	6.67429972	0.0860000029	200	0	0
-5.01499987	6.67420006	0.061999999	200	0	0
-5.02899981	6.67429972	0.0989999995	200	0	0
-5.01999998	6.67420006	0.0710000023	200	0	0
-5.01599979	6.67420006	0.0839999989	200	0	0
-5.01999998	6.67420006	0.103	200	0	0
-5.01800013	6.67429972	0.0500000007	200	0	0
-5.01000023	6.67420006	0.172000006	200	0	0
-4.99300003	6.67420006	0.169	200	0	0
-4.99700022	6.67429972	0.167999998	200	0	0
-4.98799992	6.67429972	0.150999993	200	0	0
-4.9920001	6.67429972	0.137999997	200	0	0
-4.99499989	6.67439985	0.126000002	200	0	0
-4.98899984	6.67439985	0.138999999	200	0	0
-5.01200008	6.67449999	0.0860000029	200	0	0
-4.98799992	6.67449999	0.150999993	200	0	0
-5.0170002	6.67439985	0.0719999969	200	0	0
-4.98999977	6.67449999	0.138999999	200	0	0
-5.01000023	6.67449999	0.108000003	200	0	0
-5	6.67449999	0.123000003	200	0	0
-5.0170002	6.67439985	0.0829999968	200	0	0
-5.01300001	6.67439985	0.0529999994	200	0	0
-5.01599979	6.67439985	0.061999999	200	0	0
-4.98799992	6.67449999	0.171000004	200	0	0
-5.00600004	6.67449999	0.0670000017	200	0	0
-5.01499987	6.67449999	0.0520000011	200	0	0
-5.01800013	6.67449999	0.0719999969	200	0	0
-5.0079999	6.67460012	0.0549999997	200	0	0
-5.01800013	6.67460012	0.0610000007	200	0	0
-5.01800013	6.67460012	0.104000002	200	0	0
-5.01900005	6.67460012	0.0719999969	200	0	0
-5.02299976	6.67460012	0.0799999982	200	0	0
-5.02699995	6.67469978	0.100000001	200	0	0
-5	6.67460012	0.165999994	200	0	0
-4.98699999	6.67460012	0.150999993	200	0	0
-4.98600006	6.67460012	0.141000003	200	0	0
-4.99399996	6.67460012	0.126000002	200	0	0
-4.99300003	6.67460012	0.180000007	200	0	0
-5.01800013	6.67479992	0.0820000023	200	0	0
-5.01800013	6.67469978	0.0610000007	200	0	0
-5.01100016	6.67469978	0.075000003	200	0	0
-5.01300001	6.67469978	0.0850000009	200	0	0
-4.98699999	6.67469978	0.182999998	200	0	0
-4.99399996	6.67469978	0.169	200	0	0
-4.98999977	6.67469978	0.128000006	200	0	0
-4.98400021	6.67469978	0.141000003	200	0	0
-4.98699999	6.67469978	0.150999993	200	0	0
-4.99399996	6.67479992	0.126000002	200	0	0
-5.01399994	6.67479992	0.105999999	200	0	0
-5.01300001	6.67479992	0.064000003	200	0	0
-5.01200008	6.67479992	0.075000003	200	0	0
-4.98600006	6.67479992	0.150999993	200	0	0
-4.98999977	6.67479992	0.138999999	200	0	0
-5.01499987	6.67490005	0.061999999	200	0	0
-4.99700022	6.67490005	0.125	200	0	0
-5.00699997	6.67490005	0.0769999996	200	0	0
-5.01599979	6.67490005	0.0839999989	200	0	0
-5.00600004	6.67490005	0.109999999	200	0	0
-4.98799992	6.67500019	0.150000006	200	0	0
-4.99800014	6.67490005	0.177000001	200	0	0
-4.99100018	6.67490005	0.170000002	200	0	0
-4.98400021	6.67490005	0.141000003	200	0	0
-4.98400021	6.67490005	0.151999995	200	0	0
-5.01100016	6.67510033	0.107000001	200	0	0
-4.99900007	6.67510033	0.177000001	200	0	0
-4.98999977	6.67510033	0.128000006	200	0	0
-5.01399994	6.67500019	0.105999999	200	0	0
-4.97900009	6.67510033	0.143999994	200	0	0
-4.98699999	6.67510033	0.150999993	200	0	0
-5.00400019	6.67500019	0.174999997	200	0	0
-4.99100018	6.67500019	0.127000004	200	0	0
-4.99700022	6.67500019	0.166999996	200	0	0
-4.98899984	6.67500019	0.138999999	200	0	0
-5.01100016	6.67500019	0.0860000029	200	0	0
-5.01599979	6.67500019	0.0729999989	200	0	0
-5.01300001	6.67500019	0.064000003	200	0	0
-5.01599979	6.67500019	0.050999999	200	0	0
-5.00600004	6.67530107	0.0659999996	200	0	0
-4.9829998	6.67519999	0.130999997	200	0	0
-5.01100016	6.67530107	0.075000003	200	0	0
-4.99800014	6.67519999	0.0599999987	200	0	0
-5.00600004	6.67530107	0.109999999	200	0	0
-5.01200008	6.67530107	0.0850000009	200	0	0
-5.01399994	6.67519999	0.063000001	200	0	0
-4.9920001	6.67519999	0.115999997	200	0	0
-4.99800014	6.67510033	0.0599999987	200	0	0
-5.01000023	6.67519999	0.0759999976	200	0	0
-5.0079999	6.67519999	0.0869999975	200	0	0
-5.01499987	6.67510033	0.061999999	200	0	0
-5.01100016	6.67510033	0.075000003	200	0	0
-5.00500011	6.67510033	0.0890000015	200	0	0
-4.98600006	6.67519999	0.150999993	200	0	0
-4.98000002	6.67519999	0.143000007	200	0	0
-4.96799994	6.67510033	0.180999994	200	0	0
-4.9829998	6.67519999	0.173999995	200	0	0
-4.98799992	6.67530107	0.128999993	200	0	0
-5.00500011	6.67530107	0.173999995	200	0	0
-4.98799992	6.67530107	0.171000004	200	0	0
-5.01300001	6.67539978	0.0520000011	200	0	0
-5.01399994	6.67539978	0.061999999	200	0	0
-5.01599979	6.67539978	0.104999997	200	0	0
-5.01599979	6.67539978	0.0719999969	200	0	0
-5.00699997	6.67539978	0.0879999995	200	0	0
-4.98500013	6.67539978	0.129999995	200	0	0
-4.99399996	6.67539978	0.167999998	200	0	0
-4.98199987	6.67539978	0.142000005	200	0	0
-4.98899984	6.67539978	0.149000004	200	0	0
-5.01000023	6.67549992	0.107000001	200	0	0
-5.00699997	6.67549992	0.0879999995	200	0	0
-5.01300001	6.67549992	0.074000001	200	0	0
-5.01599979	6.67549992	0.0610000007	200	0	0
-5.0079999	6.67549992	0.0549999997	200	0	0
-5.0170002	6.67560005	0.104000002	200	0	0
-5.00299978	6.67560005	0.0680000037	200	0	0
-5.00500011	6.67560005	0.0769999996	200	0	0
-5.00500011	6.67560005	0.0879999995	200	0	0
-4.97800016	6.67549992	0.143999994	200	0	0
-4.99399996	6.67549992	0.167999998	200	0	0
-5.00099993	6.67570019	0.0579999983	200	0	0
-5.00899982	6.67570019	0.108000003	200	0	0
-5.01100016	6.67570019	0.064000003	200	0	0
-5.00500011	6.67570019	0.0879999995	200	0	0
-5.01000023	6.67570019	0.075000003	200	0	0
-4.98000002	6.67560005	0.143000007	200	0	0
-4.98099995	6.67560005	0.152999997	200	0	0
-4.99599981	6.67560005	0.166999996	200	0	0
-4.98199987	6.67560005	0.130999997	200	0	0
-4.98099995	6.67570019	0.152999997	200	0	0
-4.98400021	6.67570019	0.129999995	200	0	0
