-18.2740002	6.65049982	2.33899999	200	0	0
-18.2830009	6.65059996	2.30699992	200	0	0
-18.2630005	6.65059996	2.36999989	200	0	0
-18.2819996	6.65080023	2.08299994	200	0	0
-18.2940006	6.65059996	2.01900005	200	0	0
-18.2560005	6.65059996	2.05200005	200	0	0
-18.2770004	6.65049982	2.01999998	200	0	0
-18.2889996	6.65049982	2.40199995	200	0	0
-18.2549992	6.65049982	1.98800004	200	0	0
-18.2590008	6.65080023	2.05200005	200	0	0
-18.2549992	6.64909983	2.65700006	200	0	0
-18.2819996	6.6487999	2.72099996	200	0	0
-18.2800007	6.64900064	2.68899989	200	0	0
-18.2870007	6.64900064	2.65700006	200	0	0
-18.2609997	6.64840078	2.78500009	200	0	0
-18.2779999	6.64909983	2.72099996	200	0	0
-18.2810001	6.6480999	2.81699991	200	0	0
-18.2619991	6.64849997	2.78500009	200	0	0
-18.2539997	6.64940023	2.68899989	200	0	0
-18.2660007	6.64940023	2.625	200	0	0
-18.2619991	6.64940023	2.65700006	200	0	0
-18.2630005	6.6493001	2.65700006	200	0	0
-18.2590008	6.64960003	2.56200004	200	0	0
-18.2749996	6.64949989	2.65700006	200	0	0
-18.2539997	6.64989996	2.56200004	200	0	0
-18.2630005	6.64989996	2.52999997	200	0	0
-18.2849998	6.64979982	2.52999997	200	0	0
-18.2549992	6.64979982	2.56200004	200	0	0
-18.2609997	6.65119982	2.14700007	200	0	0
-18.2759991	6.65109968	2.14700007	200	0	0
-18.2630005	6.65080023	2.33899999	200	0	0
-18.2649994	6.65030098	1.92400002	200	0	0
-18.2730007	6.65099955	1.98800004	200	0	0
-18.2900009	6.65099955	2.01900005	200	0	0
-18.2490005	6.65070009	1.98800004	200	0	0
-18.2749996	6.65080023	2.01999998	200	0	0
-18.2840004	6.65099955	2.08299994	200	0	0
-18.2900009	6.65059996	1.82799995	200	0	0
-18.2870007	6.65059996	1.89199996	200	0	0
-18.2639999	6.65059996	1.86000001	200	0	0
-18.2940006	6.65049982	1.82700002	200	0	0
-18.309	6.65049982	1.85899997	200	0	0
-18.3139992	6.65039968	1.89100003	200	0	0
-18.2849998	6.65039968	1.82799995	200	0	0
-18.2980003	6.65030098	1.89100003	200	0	0
-18.2740002	6.65039968	1.86000001	200	0	0
-18.2639999	6.65030098	1.86000001	200	0	0
-18.2530003	6.65059996	1.92499995	200	0	0
-18.2619991	6.65049982	1.92400002	200	0	0
-18.2810001	6.64960003	1.73199999	200	0	0
-18.302	6.64979982	1.699	200	0	0
-18.2940006	6.64969969	1.70000005	200	0	0
-18.2980003	6.64960003	1.699	200	0	0
-18.2779999	6.64969969	1.66799998	200	0	0
-18.2759991	6.64960003	1.66799998	200	0	0
-18.2639999	6.65059996	1.76499999	200	0	0
-18.2849998	6.65049982	1.73199999	200	0	0
-18.2999992	6.65049982	1.76300001	200	0	0
-18.2980003	6.6500001	1.41100001	200	0	0
-18.2929993	6.64979982	1.38	200	0	0
-18.2719994	6.6500001	1.44500005	200	0	0
-18.2700005	6.64989996	1.41299999	200	0	0
-18.3050003	6.6500001	1.37899995	200	0	0
-18.2889996	6.64989996	1.38	200	0	0
-18.3069992	6.64949989	1.28299999	200	0	0
-18.2929993	6.6493001	1.28400004	200	0	0
-18.3040009	6.64919996	1.28299999	200	0	0
-18.2910004	6.64710045	2.93499994	200	0	0
-18.2619991	6.64700031	2.93400002	200	0	0
-18.2560005	6.64690018	2.93400002	200	0	0
-18.2630005	6.64590073	3.023	200	0	0
-18.2560005	6.64569998	3.023	200	0	0
-18.2619991	6.64770031	2.87700009	200	0	0
-18.2789993	6.64750004	2.87400007	200	0	0
-18.2840004	6.6473999	2.87400007	200	0	0
-18.2639999	6.6480999	2.84800005	200	0	0
-18.2689991	6.64799976	2.84899998	200	0	0
-18.2859993	6.64830017	2.81699991	200	0	0
-18.2700005	6.64820004	2.81699991	200	0	0
-18.2670002	6.64599991	3.02600002	200	0	0
-18.2590008	6.64680004	2.96600008	200	0	0
-18.2740002	6.64650106	2.99499989	200	0	0
-18.2730007	6.64669991	2.96600008	200	0	0
-18.257	6.64639997	2.99399996	200	0	0
-18.257	6.64659977	2.96600008	200	0	0
-18.2670002	6.64510012	3.08699989	200	0	0
-18.2880001	6.64450026	3.11999989	200	0	0
-18.2770004	6.64520025	3.08699989	200	0	0
-18.2709999	6.64530087	3.08699989	200	0	0
-18.3040009	6.6390996	3.11999989	200	0	0
-18.3050003	6.64069986	3.15199995	200	0	0
-18.3010006	6.64090109	3.11999989	200	0	0
-18.309	6.6406002	3.15199995	200	0	0
-18.2749996	6.63940001	3.15100002	200	0	0
-18.2989998	6.6408	3.11999989	200	0	0
-18.2840004	6.63919973	3.11899996	200	0	0
-18.3110008	6.64069986	3.11999989	200	0	0
-18.2950001	6.63960028	3.15100002	200	0	0
-18.3129997	6.6406002	3.11999989	200	0	0
-18.2810001	6.63969994	3.15100002	200	0	0
-18.2749996	6.63940001	3.11899996	200	0	0
-18.2779999	6.63979959	3.15100002	200	0	0
-18.3050003	6.63999987	3.15199995	200	0	0
-18.2730007	6.6401	3.15100002	200	0	0
-18.2900009	6.63989973	3.15100002	200	0	0
-18.2910004	6.63950014	3.11899996	200	0	0
-18.2889996	6.63960028	3.11899996	200	0	0
-18.3080006	6.63969994	3.11999989	200	0	0
-18.2759991	6.63979959	3.11899996	200	0	0
-18.2770004	6.63989973	3.11899996	200	0	0
-18.2789993	6.6401	3.11899996	200	0	0
-18.2849998	6.63999987	3.11899996	200	0	0
-18.2900009	6.64099979	3.15100002	200	0	0
-18.2889996	6.64090109	3.15100002	200	0	0
-18.2880001	6.6408	3.15100002	200	0	0
-18.3029995	6.64150095	3.11999989	200	0	0
-18.2940006	6.64140034	3.11899996	200	0	0
-18.3120003	6.6413002	3.11999989	200	0	0
-18.2959995	6.64120007	3.11899996	200	0	0
-18.3080006	6.64109993	3.11999989	200	0	0
-18.2959995	6.63880014	3.11899996	200	0	0
-18.3010006	6.63890028	3.11999989	200	0	0
-18.2679996	6.63900089	3.11800003	200	0	0
-18.2989998	6.6390996	3.15100002	200	0	0
-18.3010006	6.63919973	3.15199995	200	0	0
-18.2980003	6.63900089	3.15100002	200	0	0
-18.2889996	6.63890028	3.15100002	200	0	0
-18.2989998	6.63880014	3.15100002	200	0	0
-18.2819996	6.64109993	3.15100002	200	0	0
-18.3040009	6.64169979	3.11999989	200	0	0
-18.2970009	6.64159966	3.11899996	200	0	0
-18.2740002	6.64239979	3.16100001	200	0	0
-18.2999992	6.64260006	3.1329999	200	0	0
-18.3129997	6.64229965	3.16199994	200	0	0
-18.2709999	6.64219952	3.15700006	200	0	0
-18.2779999	6.6413002	3.15100002	200	0	0
-18.2970009	6.64249992	3.13000011	200	0	0
-18.2870007	6.64210033	3.15799999	200	0	0
-18.2679996	6.6420002	3.15400004	200	0	0
-18.2730007	6.64150095	3.15100002	200	0	0
-18.2719994	6.64169979	3.15100002	200	0	0
-18.2859993	6.64159966	3.15100002	200	0	0
-18.2770004	6.64179993	3.15100002	200	0	0
-18.2810001	6.64190006	3.15100002	200	0	0
-18.2940006	6.64229965	3.12899995	200	0	0
-18.3010006	6.64219952	3.12599993	200	0	0
-18.3059998	6.64210033	3.12599993	200	0	0
-18.2840004	6.6420002	3.12199998	200	0	0
-18.2900009	6.64190006	3.11899996	200	0	0
-18.2999992	6.64179993	3.11999989	200	0	0
-18.2870007	6.64280081	3.13199997	200	0	0
-18.2929993	6.64249992	3.16100001	200	0	0
-18.2889996	6.64289999	3.13599992	200	0	0
-18.2959995	6.64299965	3.13899994	200	0	0
-18.2679996	6.64260006	3.16400003	200	0	0
-18.2940006	6.64309978	3.13899994	200	0	0
-18.2660007	6.64280081	3.16300011	200	0	0
-18.2819996	6.64289999	3.16700006	200	0	0
-18.2830009	6.6427002	3.16400003	200	0	0
-18.2889996	6.64349985	3.14499998	200	0	0
-18.2999992	6.64340067	3.14499998	200	0	0
-18.2840004	6.64330006	3.14199996	200	0	0
-18.2870007	6.64319992	3.14199996	200	0	0
-18.2779999	6.64299965	3.17000008	200	0	0
-18.2970009	6.64370012	3.14499998	200	0	0
-18.3050003	6.64309978	3.171	200	0	0
-18.2889996	6.64359999	3.14499998	200	0	0
-18.2740002	6.64340067	3.17600012	200	0	0
-18.3029995	6.64330006	3.17400002	200	0	0
-18.2830009	6.64319992	3.17400002	200	0	0
-18.2830009	6.64389992	3.14499998	200	0	0
-18.2950001	6.64380026	3.14499998	200	0	0
-18.2880001	6.64349985	3.17700005	200	0	0
-18.2880001	6.64400101	3.14499998	200	0	0
-18.2800007	6.64409971	3.14499998	200	0	0
-18.2870007	6.64419985	3.148	200	0	0
-18.2940006	6.64380026	3.17700005	200	0	0
-18.2719994	6.64370012	3.17600012	200	0	0
-18.2929993	6.64429998	3.148	200	0	0
-18.2880001	6.64389992	3.17700005	200	0	0
-18.2670002	6.64440012	3.14700007	200	0	0
-18.2619991	6.64489985	3.11899996	200	0	0
-18.2730007	6.64479971	3.11899996	200	0	0
-18.2779999	6.64539957	3.08699989	200	0	0
-18.2709999	6.64460039	3.15100002	200	0	0
-18.2579994	6.64499998	3.11899996	200	0	0
-18.2590008	6.64549971	3.08699989	200	0	0
-18.2770004	6.64510012	3.11899996	200	0	0
-18.2779999	6.64559984	3.08699989	200	0	0
-18.2779999	6.64629984	3.02699995	200	0	0
-18.2560005	6.64620018	3.02600002	200	0	0
-18.2660007	6.64610004	3.02600002	200	0	0
-18.257	6.64700031	2.96600008	200	0	0
-18.2849998	6.64680004	2.99799991	200	0	0
-18.257	6.64690018	2.96600008	200	0	0
-18.2759991	6.64750004	2.93799996	200	0	0
-18.2779999	6.64539957	3.11899996	200	0	0
-18.2880001	6.64520025	3.11999989	200	0	0
-18.2590008	6.64580011	3.08699989	200	0	0
-18.2590008	6.64569998	3.08699989	200	0	0
-18.2579994	6.64650106	3.02600002	200	0	0
-18.257	6.64659977	3.02900004	200	0	0
-18.2800007	6.64440012	3.18000007	200	0	0
-18.2789993	6.64429998	3.18000007	200	0	0
-18.2989998	6.64409971	3.17700005	200	0	0
-18.2759991	6.64489985	3.15100002	200	0	0
-18.2600002	6.64479971	3.15100002	200	0	0
-18.2859993	6.64469957	3.15100002	200	0	0
-18.2609997	6.64499998	3.15100002	200	0	0
-18.2800007	6.64450026	3.18300009	200	0	0
-18.2749996	6.64510012	3.15100002	200	0	0
-18.2700005	6.64799976	2.88000011	200	0	0
-18.2619991	6.64789963	2.88000011	200	0	0
-18.2539997	6.64719963	2.96600008	200	0	0
-18.2530003	6.64710045	2.96600008	200	0	0
-18.2679996	6.64710045	2.99799991	200	0	0
-18.2940006	6.64919996	1.25100005	200	0	0
-18.3040009	6.64960003	1.28299999	200	0	0
-18.2810001	6.65010023	1.44400001	200	0	0
-18.3050003	6.65010023	1.41100001	200	0	0
-18.3460007	6.64109993	0.555000007	200	0	0
-18.3490009	6.64090109	0.55400002	200	0	0
-18.3490009	6.64140034	0.587000012	200	0	0
-18.3460007	6.6413002	0.587000012	200	0	0
-18.3320007	6.64159966	0.652999997	200	0	0
-18.3279991	6.64109993	0.588999987	200	0	0
-18.3630009	6.64090109	0.584999979	200	0	0
-18.3349991	6.64099979	0.588	200	0	0
-18.3479996	6.64150095	0.651000023	200	0	0
-18.3460007	6.64140034	0.65200001	200	0	0
-18.3430004	6.6427002	0.730000019	200	0	0
-18.3339996	6.64249992	0.662999988	200	0	0
-18.3190002	6.64190006	0.653999984	200	0	0
-18.3339996	6.6420002	0.656000018	200	0	0
-18.3479996	6.64229965	0.694000006	200	0	0
-18.3400002	6.64229965	0.726999998	200	0	0
-18.3710003	6.64219952	0.688000023	200	0	0
-18.3460007	6.64210033	0.689999998	200	0	0
-18.3409996	6.64299965	0.736000001	200	0	0
-18.3570004	6.64340067	0.773000002	200	0	0
-18.3379993	6.64289999	0.73299998	200	0	0
-18.3390007	6.64319992	0.901000023	200	0	0
-18.3509998	6.64340067	0.870000005	200	0	0
-18.3719997	6.64299965	0.764999986	200	0	0
-18.3409996	6.64340067	0.838999987	200	0	0
-18.3260002	6.64319992	0.869000018	200	0	0
-18.3470001	6.64289999	0.764999986	200	0	0
-18.3419991	6.64319992	0.836000025	200	0	0
-18.3700008	6.64289999	0.859000027	200	0	0
-18.3490009	6.64309978	0.832000017	200	0	0
-18.3579998	6.64299965	0.83099997	200	0	0
-18.3290005	6.64319992	0.934000015	200	0	0
-18.3419991	6.64340067	0.902999997	200	0	0
-18.3330002	6.64289999	0.926999986	200	0	0
-18.3540001	6.64309978	0.702000022	200	0	0
-18.3519993	6.64309978	0.735000014	200	0	0
-18.3530006	6.64299965	0.703000009	200	0	0
-18.3589993	6.64319992	0.704999983	200	0	0
-18.3490009	6.64319992	0.737999976	200	0	0
-18.3349991	6.63950014	0.588	200	0	0
-18.3530006	6.63940001	0.586000025	200	0	0
-18.3470001	6.63979959	0.587000012	200	0	0
-18.3379993	6.6420002	0.591000021	200	0	0
-18.3439999	6.64190006	0.587000012	200	0	0
-18.3689995	6.64169979	0.584999979	200	0	0
-18.3640003	6.63969994	0.584999979	200	0	0
-18.3579998	6.63979959	0.552999973	200	0	0
-18.3490009	6.63989973	0.55400002	200	0	0
-18.3509998	6.6401	0.55400002	200	0	0
-18.3330002	6.63940001	0.555999994	200	0	0
-18.3519993	6.63960028	0.55400002	200	0	0
-18.3509998	6.64940023	1.18299997	200	0	0
-18.3320007	6.6493001	1.18499994	200	0	0
-18.3029995	6.64949989	1.21899998	200	0	0
-18.3080006	6.64989996	1.25	200	0	0
-18.2789993	6.64969969	1.28499997	200	0	0
-18.3069992	6.65030098	1.37899995	200	0	0
-18.2959995	6.65030098	1.41199994	200	0	0
-18.3209991	6.65020037	1.37800002	200	0	0
-18.2940006	6.65030098	1.53999996	200	0	0
-18.2970009	6.65049982	1.60399997	200	0	0
-18.2919998	6.65020037	1.53999996	200	0	0
-18.2789993	6.65010023	1.54100001	200	0	0
-18.2940006	6.65059996	1.53999996	200	0	0
-18.3010006	6.65049982	1.53900003	200	0	0
-18.3050003	6.65030098	1.50699997	200	0	0
-18.3169994	6.65010023	1.50600004	200	0	0
-18.2830009	6.65020037	1.50800002	200	0	0
-18.2700005	6.65030098	1.44500005	200	0	0
-18.2830009	6.65059996	1.41199994	200	0	0
-18.2800007	6.65059996	1.38100004	200	0	0
-18.2849998	6.65049982	1.38	200	0	0
-18.2929993	6.65039968	1.41199994	200	0	0
-18.2910004	6.65039968	1.34800005	200	0	0
-18.2749996	6.65039968	1.38100004	200	0	0
-18.2560005	6.65059996	1.44599998	200	0	0
-18.2579994	6.65049982	1.44599998	200	0	0
-18.2959995	6.65070009	1.44400001	200	0	0
-18.3050003	6.65070009	1.37899995	200	0	0
-18.2779999	6.65090084	1.54100001	200	0	0
-18.2709999	6.64620018	3.08999991	200	0	0
-18.2639999	6.64559984	3.11899996	200	0	0
-18.2590008	6.64610004	3.08999991	200	0	0
-18.2770004	6.64599991	3.09100008	200	0	0
-18.257	6.64590073	3.08699989	200	0	0
-18.2539997	6.64690018	3.02900004	200	0	0
-18.2520008	6.64680004	3.02900004	200	0	0
-18.2660007	6.64669991	3.02999997	200	0	0
-18.2830009	6.64489985	3.18300009	200	0	0
-18.2849998	6.64479971	3.18300009	200	0	0
-18.2880001	6.64539957	3.15199995	200	0	0
-18.2630005	6.64460039	3.18300009	200	0	0
-18.2849998	6.64549971	3.11999989	200	0	0
-18.2749996	6.64530087	3.15100002	200	0	0
-18.2660007	6.64520025	3.15100002	200	0	0
-18.2910004	6.64510012	3.18400002	200	0	0
-18.2719994	6.64559984	3.15100002	200	0	0
-18.2810001	6.64580011	3.11899996	200	0	0
-18.2649994	6.64549971	3.15100002	200	0	0
-18.2830009	6.64569998	3.11999989	200	0	0
-18.2840004	6.64590073	3.11999989	200	0	0
-18.2740002	6.64569998	3.15100002	200	0	0
-18.2579994	6.64499998	3.18199992	200	0	0
-18.2520008	6.64710045	3.02900004	200	0	0
-18.2579994	6.64629984	3.08999991	200	0	0
-18.2600002	6.64700031	3.02999997	200	0	0
-18.2639999	6.64840078	2.88000011	200	0	0
-18.2660007	6.64840078	2.81699991	200	0	0
-18.25	6.64830017	2.88000011	200	0	0
-18.2759991	6.64820004	2.88100004	200	0	0
-18.2679996	6.64830017	2.84899998	200	0	0
-18.2789993	6.64780092	2.94099998	200	0	0
-18.2789993	6.64859962	2.81699991	200	0	0
-18.2619991	6.64849997	2.81699991	200	0	0
-18.2539997	6.64849997	2.84800005	200	0	0
-18.2810001	6.64750004	3.00200009	200	0	0
-18.2619991	6.64760017	2.97199988	200	0	0
-18.2770004	6.6473999	3.00099993	200	0	0
-18.2539997	6.64750004	2.9690001	200	0	0
-18.2660007	6.64729977	2.99799991	200	0	0
-18.257	6.6473999	2.9690001	200	0	0
-18.2789993	6.65010023	2.52999997	200	0	0
-18.2649994	6.65030098	2.49799991	200	0	0
-18.2460003	6.65020037	2.49799991	200	0	0
-18.2479992	6.65010023	2.49799991	200	0	0
-18.2590008	6.6500001	2.49799991	200	0	0
-18.2740002	6.64979982	2.625	200	0	0
-18.2670002	6.64969969	2.625	200	0	0
-18.2719994	6.64960003	2.625	200	0	0
-18.2469997	6.65020037	2.56200004	200	0	0
-18.2719994	6.65020037	2.52999997	200	0	0
-18.2639999	6.6500001	2.625	200	0	0
-18.2840004	6.64989996	2.62599993	200	0	0
-18.2679996	6.64890003	2.78500009	200	0	0
-18.2490005	6.64949989	2.72099996	200	0	0
-18.2509995	6.64949989	2.68899989	200	0	0
-18.25	6.64940023	2.72099996	200	0	0
-18.2900009	6.65140009	2.21099997	200	0	0
-18.2649994	6.65140009	2.1789999	200	0	0
-18.257	6.65140009	2.24300003	200	0	0
-18.2590008	6.65129995	2.24300003	200	0	0
-18.257	6.65129995	2.1789999	200	0	0
-18.2539997	6.65129995	2.21099997	200	0	0
-18.2539997	6.65119982	2.24300003	200	0	0
-18.2719994	6.65140009	2.14700007	200	0	0
-18.2609997	6.65109968	2.08400011	200	0	0
-18.2800007	6.64979982	2.65700006	200	0	0
-18.2520008	6.64969969	2.65700006	200	0	0
-18.2689991	6.64960003	2.68899989	200	0	0
-18.2679996	6.64960003	2.65700006	200	0	0
-18.2409992	6.64909983	2.78399992	200	0	0
-18.2609997	6.64979982	2.72099996	200	0	0
-18.2469997	6.64969969	2.72099996	200	0	0
-18.2849998	6.6487999	2.81699991	200	0	0
-18.2849998	6.64869976	2.81699991	200	0	0
-18.2619991	6.64890003	2.81699991	200	0	0
-18.25	6.64940023	2.78399992	200	0	0
-18.2789993	6.65010023	2.625	200	0	0
-18.2490005	6.6500001	2.65700006	200	0	0
-18.2770004	6.64989996	2.65700006	200	0	0
-18.2609997	6.64869976	2.88000011	200	0	0
-18.2439995	6.64869976	2.84800005	200	0	0
-18.2549992	6.64859962	2.88000011	200	0	0
-18.2479992	6.64849997	2.88000011	200	0	0
-18.2749996	6.64900064	2.81699991	200	0	0
-18.2520008	6.6487999	2.84800005	200	0	0
-18.2800007	6.64919996	2.81699991	200	0	0
-18.2730007	6.64900064	2.84899998	200	0	0
-18.2789993	6.64909983	2.81699991	200	0	0
-18.2600002	6.65119982	2.30699992	200	0	0
-18.2600002	6.65109968	2.30699992	200	0	0
-18.2679996	6.65099955	2.30699992	200	0	0
-18.2689991	6.65090084	2.30699992	200	0	0
-18.2560005	6.6515007	2.148	200	0	0
-18.2460003	6.6515007	2.18000007	200	0	0
-18.2870007	6.6515007	2.21099997	200	0	0
-18.2409992	6.6515007	2.24300003	200	0	0
-18.2450008	6.65059996	2.49799991	200	0	0
-18.2719994	6.65049982	2.49799991	200	0	0
-18.2409992	6.65059996	2.52999997	200	0	0
-18.2660007	6.65049982	2.56200004	200	0	0
-18.2740002	6.65049982	2.52999997	200	0	0
-18.2490005	6.65039968	2.49799991	200	0	0
-18.2810001	6.65049982	2.46600008	200	0	0
-18.2509995	6.65080023	2.52999997	200	0	0
-18.2649994	6.65070009	2.52999997	200	0	0
-18.2590008	6.65090084	2.49799991	200	0	0
-18.2539997	6.65080023	2.49799991	200	0	0
-18.2479992	6.65070009	2.49799991	200	0	0
-18.2660007	6.65119982	2.33899999	200	0	0
-18.2409992	6.65119982	2.37100005	200	0	0
-18.2619991	6.65109968	2.33899999	200	0	0
-18.2469997	6.65109968	2.37100005	200	0	0
-18.2959995	6.65090084	2.33800006	200	0	0
-18.2749996	6.65099955	2.36999989	200	0	0
-18.2759991	6.65090084	2.40199995	200	0	0
-18.2759991	6.65090084	2.36999989	200	0	0
-18.2810001	6.65140009	2.33800006	200	0	0
-18.2549992	6.65140009	2.30699992	200	0	0
-18.2740002	6.65159988	2.08299994	200	0	0
-18.2700005	6.6515007	2.08400011	200	0	0
-18.2579994	6.65159988	2.1789999	200	0	0
-18.2819996	6.65210009	2.1789999	200	0	0
-18.2889996	6.65159988	2.24300003	200	0	0
-18.2420006	6.65159988	2.30699992	200	0	0
-18.2450008	6.6515007	2.30699992	200	0	0
-18.243	6.65140009	2.37100005	200	0	0
-18.2800007	6.65159988	2.33800006	200	0	0
-18.2709999	6.6515007	2.33899999	200	0	0
-18.2649994	6.65159988	2.36999989	200	0	0
-18.2399998	6.6515007	2.37100005	200	0	0
-18.2789993	6.6515007	2.01999998	200	0	0
-18.2479992	6.65159988	2.05200005	200	0	0
-18.2560005	6.6515007	2.05200005	200	0	0
-18.2709999	6.65119982	2.46600008	200	0	0
-18.3059998	6.65099955	1.92299998	200	0	0
-18.2919998	6.65109968	1.92299998	200	0	0
-18.2989998	6.65159988	2.01900005	200	0	0
-18.2549992	6.6500001	2.68899989	200	0	0
-18.2800007	6.64989996	2.72099996	200	0	0
-18.2479992	6.64909983	2.84800005	200	0	0
-18.2590008	6.6500001	2.72099996	200	0	0
-18.2479992	6.64949989	2.78399992	200	0	0
-18.2740002	6.6487999	2.88100004	200	0	0
-18.243	6.64919996	2.84800005	200	0	0
-18.2689991	6.64940023	2.81699991	200	0	0
-18.2700005	6.65030098	2.68899989	200	0	0
-18.2810001	6.65020037	2.72099996	200	0	0
-18.2579994	6.65020037	2.65700006	200	0	0
-18.2479992	6.65020037	2.68899989	200	0	0
-18.2730007	6.65010023	2.65700006	200	0	0
-18.2709999	6.65010023	2.72099996	200	0	0
-18.2730007	6.65010023	2.68899989	200	0	0
-18.2819996	6.65030098	2.62599993	200	0	0
-18.2830009	6.65020037	2.62599993	200	0	0
-18.2490005	6.65039968	2.625	200	0	0
-18.2749996	6.65039968	2.65700006	200	0	0
-18.2450008	6.65059996	2.625	200	0	0
-18.243	6.65070009	2.56200004	200	0	0
-18.2870007	6.65210009	2.14700007	200	0	0
-18.2849998	6.65099955	1.89199996	200	0	0
-18.2940006	6.65159988	1.92299998	200	0	0
-18.2579994	6.65159988	1.98800004	200	0	0
-18.2819996	6.6515007	1.86000001	200	0	0
-18.2929993	6.65129995	1.76400006	200	0	0
-18.3010006	6.6515007	1.82700002	200	0	0
-18.2670002	6.65119982	1.76499999	200	0	0
-18.2639999	6.65119982	1.86000001	200	0	0
-18.3010006	6.65119982	1.82700002	200	0	0
-18.2950001	6.65099955	1.85899997	200	0	0
-18.3059998	6.65049982	1.699	200	0	0
-18.2950001	6.65059996	1.70000005	200	0	0
-18.2689991	6.6515007	1.73300004	200	0	0
-18.2950001	6.65119982	1.70000005	200	0	0
-18.2859993	6.6515007	1.76400006	200	0	0
-18.2639999	6.65109968	1.70099998	200	0	0
-18.2889996	6.65119982	1.73199999	200	0	0
-18.2919998	6.65109968	1.73199999	200	0	0
-18.2810001	6.65119982	1.66799998	200	0	0
-18.2630005	6.65109968	1.66900003	200	0	0
-18.2630005	6.65090084	1.66900003	200	0	0
-18.2859993	6.65070009	1.34800005	200	0	0
-18.2999992	6.65020037	1.28299999	200	0	0
-18.3199997	6.64989996	1.21800005	200	0	0
-18.2590008	6.64789963	2.97600007	200	0	0
-18.2759991	6.64770031	3.00500011	200	0	0
-18.2740002	6.64799976	2.94400001	200	0	0
-18.2619991	6.64760017	3.00399995	200	0	0
-18.2539997	6.64780092	2.97199988	200	0	0
-18.2779999	6.64789963	2.94400001	200	0	0
-18.2530003	6.64650106	3.08999991	200	0	0
-18.2770004	6.64840078	2.94400001	200	0	0
-18.2709999	6.64830017	2.94400001	200	0	0
-18.2679996	6.64820004	2.94400001	200	0	0
-18.2679996	6.6480999	2.94400001	200	0	0
-18.2649994	6.64900064	2.88000011	200	0	0
-18.2789993	6.64620018	3.12299991	200	0	0
-18.2549992	6.64610004	3.12199998	200	0	0
-18.2590008	6.64669991	3.09299994	200	0	0
-18.2800007	6.64659977	3.0940001	200	0	0
-18.2509995	6.6473999	3.03299999	200	0	0
-18.2639999	6.64729977	3.02999997	200	0	0
-18.2759991	6.64530087	3.18300009	200	0	0
-18.2539997	6.64580011	3.1500001	200	0	0
-18.2959995	6.64520025	3.18400002	200	0	0
-18.2759991	6.64539957	3.18300009	200	0	0
-18.2709999	6.64590073	3.15100002	200	0	0
-18.2709999	6.64599991	3.15400004	200	0	0
-18.3080006	6.63919973	3.21600008	200	0	0
-18.2880001	6.6390996	3.21499991	200	0	0
-18.2919998	6.6408	3.24699998	200	0	0
-18.3050003	6.64069986	3.24799991	200	0	0
-18.3069992	6.6401	3.21600008	200	0	0
-18.2810001	6.64120007	3.21499991	200	0	0
-18.2929993	6.64109993	3.21499991	200	0	0
-18.2919998	6.64099979	3.21499991	200	0	0
-18.2870007	6.64069986	3.21499991	200	0	0
-18.2940006	6.6408	3.21499991	200	0	0
-18.3010006	6.6406002	3.21499991	200	0	0
-18.2870007	6.63960028	3.24699998	200	0	0
-18.2759991	6.63929987	3.24600005	200	0	0
-18.2910004	6.63979959	3.21499991	200	0	0
-18.2999992	6.63969994	3.21499991	200	0	0
-18.2919998	6.63960028	3.21499991	200	0	0
-18.2830009	6.63950014	3.21499991	200	0	0
-18.2770004	6.63940001	3.21499991	200	0	0
-18.2689991	6.63989973	3.24600005	200	0	0
-18.2700005	6.63979959	3.24600005	200	0	0
-18.2759991	6.6401	3.24600005	200	0	0
-18.3139992	6.64099979	3.24799991	200	0	0
-18.3040009	6.64109993	3.24799991	200	0	0
-18.2719994	6.64090109	3.24600005	200	0	0
-18.2900009	6.64169979	3.21499991	200	0	0
-18.2999992	6.64150095	3.21499991	200	0	0
-18.3069992	6.63900089	3.24799991	200	0	0
-18.3010006	6.6390996	3.24699998	200	0	0
-18.2649994	6.63890028	3.24600005	200	0	0
-18.2910004	6.64179993	3.21499991	200	0	0
-18.2870007	6.64190006	3.21499991	200	0	0
-18.2789993	6.6420002	3.25	200	0	0
-18.2740002	6.64299965	3.23399997	200	0	0
-18.3080006	6.64289999	3.23200011	200	0	0
-18.2759991	6.64280081	3.22799993	200	0	0
-18.2830009	6.64260006	3.22799993	200	0	0
-18.2849998	6.6420002	3.21799994	200	0	0
-18.2910004	6.64210033	3.22199988	200	0	0
-18.2880001	6.64249992	3.2249999	200	0	0
-18.2840004	6.64229965	3.2249999	200	0	0
-18.2880001	6.64239979	3.2249999	200	0	0
-18.2819996	6.64219952	3.22099996	200	0	0
-18.3010006	6.64179993	3.24699998	200	0	0
-18.2959995	6.64150095	3.24699998	200	0	0
-18.2950001	6.64140034	3.24699998	200	0	0
-18.3029995	6.64159966	3.24799991	200	0	0
-18.2709999	6.64309978	3.23399997	200	0	0
-18.2819996	6.64280081	3.25999999	200	0	0
-18.2800007	6.6427002	3.25999999	200	0	0
-18.2700005	6.64319992	3.23699999	200	0	0
-18.2639999	6.64340067	3.24000001	200	0	0
-18.2789993	6.64330006	3.23699999	200	0	0
-18.2800007	6.64349985	3.24000001	200	0	0
-18.2989998	6.64260006	3.26099992	200	0	0
-18.2670002	6.64370012	3.24000001	200	0	0
-18.2619991	6.64359999	3.24000001	200	0	0
-18.2919998	6.64309978	3.26699996	200	0	0
-18.2849998	6.64359999	3.273	200	0	0
-18.2919998	6.64319992	3.26999998	200	0	0
-18.2789993	6.64349985	3.27200007	200	0	0
-18.2810001	6.64409971	3.24000001	200	0	0
-18.2740002	6.64330006	3.26900005	200	0	0
-18.2719994	6.64400101	3.24000001	200	0	0
-18.2609997	6.64389992	3.24000001	200	0	0
-18.257	6.64380026	3.23900008	200	0	0
-18.2819996	6.64380026	3.27200007	200	0	0
-18.2740002	6.64419985	3.24300003	200	0	0
-18.2590008	6.64429998	3.24300003	200	0	0
-18.2509995	6.64440012	3.24300003	200	0	0
-18.2800007	6.64400101	3.27200007	200	0	0
-18.2770004	6.64389992	3.27200007	200	0	0
-18.2900009	6.64409971	3.273	200	0	0
-18.2709999	6.64450026	3.24699998	200	0	0
-18.2819996	6.64559984	3.18300009	200	0	0
-18.2900009	6.64549971	3.18400002	200	0	0
-18.2619991	6.64629984	3.12199998	200	0	0
-18.2679996	6.64489985	3.24600005	200	0	0
-18.2549992	6.64479971	3.24600005	200	0	0
-18.2840004	6.64469957	3.24699998	200	0	0
-18.2590008	6.64460039	3.24600005	200	0	0
-18.2789993	6.64639997	3.12299991	200	0	0
-18.2619991	6.64620018	3.15400004	200	0	0
-18.2530003	6.64610004	3.15400004	200	0	0
-18.2880001	6.64580011	3.18400002	200	0	0
-18.2740002	6.64650106	3.12199998	200	0	0
-18.2709999	6.64690018	3.0940001	200	0	0
-18.2709999	6.64680004	3.0940001	200	0	0
-18.2360001	6.64760017	3.03500009	200	0	0
-18.2450008	6.64830017	2.9749999	200	0	0
-18.2679996	6.6480999	3.0079999	200	0	0
-18.2549992	6.64820004	2.97600007	200	0	0
-18.2520008	6.6480999	2.97600007	200	0	0
-18.2749996	6.64599991	3.18600011	200	0	0
-18.2670002	6.64669991	3.125	200	0	0
-18.2579994	6.64650106	3.15400004	200	0	0
-18.2759991	6.64639997	3.15400004	200	0	0
-18.2460003	6.64719963	3.09299994	200	0	0
-18.2549992	6.64710045	3.09299994	200	0	0
-18.2490005	6.64700031	3.09299994	200	0	0
-18.2439995	6.64729977	3.09299994	200	0	0
-18.2810001	6.64450026	3.27900004	200	0	0
-18.2689991	6.64419985	3.2750001	200	0	0
-18.2630005	6.64510012	3.24600005	200	0	0
-18.2660007	6.64440012	3.2750001	200	0	0
-18.2759991	6.64429998	3.2750001	200	0	0
-18.2679996	6.64499998	3.24699998	200	0	0
-18.2579994	6.64530087	3.24600005	200	0	0
-18.257	6.64520025	3.24600005	200	0	0
-18.2709999	6.64469957	3.27900004	200	0	0
-18.2709999	6.64460039	3.27900004	200	0	0
-18.2749996	6.64859962	2.94400001	200	0	0
-18.2800007	6.64849997	2.94400001	200	0	0
-18.257	6.64780092	3.03600001	200	0	0
-18.2579994	6.64799976	3.03999996	200	0	0
-18.3069992	6.65099955	1.41100001	200	0	0
-18.2789993	6.65099955	1.38100004	200	0	0
-18.3400002	6.6420002	0.526000023	200	0	0
-18.3719997	6.64169979	0.486999989	200	0	0
-18.3589993	6.6420002	0.556999981	200	0	0
-18.3430004	6.64159966	0.49000001	200	0	0
-18.3640003	6.64190006	0.552999973	200	0	0
-18.3500004	6.64069986	0.49000001	200	0	0
-18.3439999	6.64140034	0.49000001	200	0	0
-18.3600006	6.6413002	0.488000005	200	0	0
-18.3500004	6.64179993	0.55400002	200	0	0
-18.3600006	6.64120007	0.488000005	200	0	0
-18.3390007	6.64169979	0.523000002	200	0	0
-18.375	6.64169979	0.551999986	200	0	0
-18.3369999	6.64159966	0.523000002	200	0	0
-18.3640003	6.6406002	0.552999973	200	0	0
-18.375	6.64090109	0.518999994	200	0	0
-18.3509998	6.64159966	0.55400002	200	0	0
-18.3360004	6.64140034	0.523000002	200	0	0
-18.3570004	6.6413002	0.521000028	200	0	0
-18.3419991	6.64120007	0.523000002	200	0	0
-18.3330002	6.64109993	0.523999989	200	0	0
-18.3659992	6.6413002	0.552999973	200	0	0
-18.3330002	6.6401	0.523999989	200	0	0
-18.3470001	6.64239979	0.597000003	200	0	0
-18.3430004	6.64330006	0.674000025	200	0	0
-18.3579998	6.64319992	0.672999978	200	0	0
-18.3409996	6.64309978	0.671000004	200	0	0
-18.3619995	6.64330006	0.704999983	200	0	0
-18.3309994	6.64280081	0.569000006	200	0	0
-18.3540001	6.64260006	0.566999972	200	0	0
-18.3430004	6.64249992	0.564999998	200	0	0
-18.3379993	6.64330006	0.610000014	200	0	0
-18.3649998	6.64319992	0.606999993	200	0	0
-18.3099995	6.64309978	0.610000014	200	0	0
-18.3460007	6.64289999	0.602999985	200	0	0
-18.3190002	6.64280081	0.602999985	200	0	0
-18.3279991	6.64249992	0.598999977	200	0	0
-18.3519993	6.64409971	0.935000002	200	0	0
-18.3169994	6.64409971	0.873000026	200	0	0
-18.3369999	6.64309978	0.994000018	200	0	0
-18.3490009	6.64409971	0.902999997	200	0	0
-18.3519993	6.64370012	0.90200001	200	0	0
-18.3330002	6.64429998	0.907000005	200	0	0
-18.3449993	6.64419985	0.906000018	200	0	0
-18.3260002	6.64419985	0.875999987	200	0	0
-18.3400002	6.64429998	0.93900001	200	0	0
-18.3330002	6.64340067	0.614000022	200	0	0
-18.3390007	6.63969994	0.490999997	200	0	0
-18.3509998	6.63890028	0.522000015	200	0	0
-18.3780003	6.63989973	0.518999994	200	0	0
-18.3619995	6.63900089	0.521000028	200	0	0
-18.3659992	6.63969994	0.519999981	200	0	0
-18.3549995	6.63979959	0.521000028	200	0	0
-18.3670006	6.63960028	0.519999981	200	0	0
-18.3530006	6.63890028	0.55400002	200	0	0
-18.3439999	6.63940001	0.523000002	200	0	0
-18.3490009	6.6420002	0.493000001	200	0	0
-18.3309994	6.64280081	0.537	200	0	0
-18.3490009	6.64210033	0.495999992	200	0	0
-18.3320007	6.64260006	0.537	200	0	0
-18.3330002	6.64249992	0.533999979	200	0	0
-18.3540001	6.64239979	0.531000018	200	0	0
-18.3589993	6.64239979	0.563000023	200	0	0
-18.3640003	6.63989973	0.488000005	200	0	0
-18.3659992	6.63979959	0.488000005	200	0	0
-18.3700008	6.63929987	0.486999989	200	0	0
-18.3490009	6.6401	0.49000001	200	0	0
-18.3579998	6.63999987	0.488999993	200	0	0
-18.3530006	6.63890028	0.488999993	200	0	0
-18.323	6.64989996	1.18499994	200	0	0
-18.3180008	6.65059996	1.18599999	200	0	0
-18.2779999	6.65119982	1.34899998	200	0	0
-18.2840004	6.65119982	1.38	200	0	0
-18.2649994	6.65099955	1.34899998	200	0	0
-18.2959995	6.65090084	1.60399997	200	0	0
-18.2919998	6.65090084	1.57200003	200	0	0
-18.2950001	6.65119982	1.60399997	200	0	0
-18.2719994	6.6515007	1.57299995	200	0	0
-18.2819996	6.6515007	1.50800002	200	0	0
-18.2819996	6.6515007	1.53999996	200	0	0
-18.2789993	6.65129995	1.53999996	200	0	0
-18.2980003	6.6515007	1.37899995	200	0	0
-18.2870007	6.65140009	1.41199994	200	0	0
-18.2630005	6.6515007	1.34899998	200	0	0
-18.3129997	6.65109968	1.28199995	200	0	0
-18.2770004	6.65159988	1.41299999	200	0	0
-18.2740002	6.65159988	1.44500005	200	0	0
-18.2900009	6.65159988	1.34800005	200	0	0
-18.2830009	6.6515007	1.60399997	200	0	0
-18.2520008	6.65159988	1.574	200	0	0
-18.2749996	6.65159988	1.50899994	200	0	0
-18.2880001	6.65159988	1.53999996	200	0	0
-18.2800007	6.64639997	3.18600011	200	0	0
-18.2830009	6.64620018	3.18700004	200	0	0
-18.2639999	6.64690018	3.15700006	200	0	0
-18.2619991	6.64710045	3.125	200	0	0
-18.2560005	6.64680004	3.15700006	200	0	0
-18.2630005	6.64669991	3.15700006	200	0	0
-18.2539997	6.64659977	3.15700006	200	0	0
-18.2779999	6.64690018	3.12599993	200	0	0
-18.2779999	6.64680004	3.12599993	200	0	0
-18.2450008	6.64760017	3.09899998	200	0	0
-18.2469997	6.64750004	3.09599996	200	0	0
-18.2549992	6.6473999	3.09599996	200	0	0
-18.2579994	6.64479971	3.27800012	200	0	0
-18.257	6.64559984	3.24600005	200	0	0
-18.2859993	6.64489985	3.27900004	200	0	0
-18.2630005	6.64549971	3.24600005	200	0	0
-18.2689991	6.64539957	3.24699998	200	0	0
-18.2619991	6.64520025	3.27800012	200	0	0
-18.2719994	6.64650106	3.18600011	200	0	0
-18.2460003	6.64580011	3.24600005	200	0	0
-18.2479992	6.64510012	3.27800012	200	0	0
-18.2469997	6.64499998	3.27800012	200	0	0
-18.2679996	6.64719963	3.12599993	200	0	0
-18.2590008	6.64770031	3.0999999	200	0	0
-18.2709999	6.64859962	2.97600007	200	0	0
-18.2490005	6.64840078	2.97600007	200	0	0
-18.2759991	6.64909983	2.94400001	200	0	0
-18.2530003	6.6493001	2.88000011	200	0	0
-18.2749996	6.64900064	2.94400001	200	0	0
-18.2770004	6.64890003	2.94400001	200	0	0
-18.2609997	6.64919996	2.88000011	200	0	0
-18.2679996	6.6487999	2.94400001	200	0	0
-18.2600002	6.64909983	2.88000011	200	0	0
-18.2560005	6.64849997	3.0079999	200	0	0
-18.2619991	6.64869976	2.97600007	200	0	0
-18.2539997	6.64840078	3.0079999	200	0	0
-18.2539997	6.64830017	3.0079999	200	0	0
-18.2420006	6.64940023	2.84800005	200	0	0
-18.2689991	6.64949989	2.81699991	200	0	0
-18.2380009	6.64940023	2.88000011	200	0	0
-18.2360001	6.64830017	3.03900003	200	0	0
-18.2840004	6.64820004	3.03999996	200	0	0
-18.2789993	6.6480999	3.03999996	200	0	0
-18.2509995	6.65099955	2.52999997	200	0	0
-18.2679996	6.65119982	2.49799991	200	0	0
-18.2390003	6.65070009	2.625	200	0	0
-18.2709999	6.65070009	2.65700006	200	0	0
-18.2649994	6.65049982	2.68899989	200	0	0
-18.2719994	6.65059996	2.65700006	200	0	0
-18.2830009	6.65049982	2.65700006	200	0	0
-18.2420006	6.65090084	2.625	200	0	0
-18.2759991	6.65080023	2.625	200	0	0
-18.2649994	6.65099955	2.625	200	0	0
-18.2590008	6.65090084	2.65700006	200	0	0
-18.2590008	6.65070009	2.68899989	200	0	0
-18.25	6.65080023	2.65700006	200	0	0
-18.2450008	6.64979982	2.81599998	200	0	0
-18.2380009	6.64949989	2.84800005	200	0	0
-18.2670002	6.65020037	2.78500009	200	0	0
-18.2660007	6.65039968	2.72099996	200	0	0
-18.257	6.65010023	2.78500009	200	0	0
-18.2380009	6.6500001	2.78399992	200	0	0
-18.2549992	6.64989996	2.78500009	200	0	0
-18.2810001	6.65229988	2.24600005	200	0	0
-18.2870007	6.65229988	2.18199992	200	0	0
-18.2929993	6.65229988	2.21399999	200	0	0
-18.2600002	6.65229988	2.15100002	200	0	0
-18.2779999	6.65210009	2.30699992	200	0	0
-18.2819996	6.65049982	2.72099996	200	0	0
-18.2840004	6.64989996	2.81699991	200	0	0
-18.2350006	6.6500001	2.81599998	200	0	0
-18.2590008	6.65010023	2.81599998	200	0	0
-18.2479992	6.65049982	2.78399992	200	0	0
-18.2740002	6.65070009	2.72099996	200	0	0
-18.2660007	6.64960003	2.88000011	200	0	0
-18.2460003	6.64949989	2.88000011	200	0	0
-18.257	6.65030098	2.81599998	200	0	0
-18.2420006	6.6500001	2.84800005	200	0	0
-18.2520008	6.64989996	2.84800005	200	0	0
-18.2469997	6.65090084	2.68899989	200	0	0
-18.2719994	6.64940023	2.94400001	200	0	0
-18.2679996	6.64919996	2.94400001	200	0	0
-18.2749996	6.64969969	2.88100004	200	0	0
-18.2469997	6.64979982	2.88000011	200	0	0
-18.2579994	6.65210009	2.33899999	200	0	0
-18.2509995	6.65240002	2.18300009	200	0	0
-18.2609997	6.65240002	2.15100002	200	0	0
-18.2789993	6.65240002	2.24600005	200	0	0
-18.2840004	6.65240002	2.21399999	200	0	0
-18.2409992	6.65219975	2.30699992	200	0	0
-18.2660007	6.6515007	2.46600008	200	0	0
-18.2339993	6.65129995	2.56200004	200	0	0
-18.2759991	6.65140009	2.52999997	200	0	0
-18.2450008	6.6515007	2.49799991	200	0	0
-18.2320004	6.65119982	2.56200004	200	0	0
-18.2549992	6.65140009	2.46600008	200	0	0
-18.2509995	6.65140009	2.49799991	200	0	0
-18.2660007	6.65129995	2.52999997	200	0	0
-18.2380009	6.6515007	2.56200004	200	0	0
-18.2520008	6.65119982	2.625	200	0	0
-18.25	6.65109968	2.625	200	0	0
-18.2719994	6.65159988	2.52999997	200	0	0
-18.2789993	6.65159988	2.46600008	200	0	0
-18.243	6.65210009	2.37100005	200	0	0
-18.2460003	6.65159988	2.40199995	200	0	0
-18.2409992	6.65210009	2.40199995	200	0	0
-18.2619991	6.65229988	2.37400007	200	0	0
-18.2730007	6.65229988	2.30999994	200	0	0
-18.2649994	6.65229988	2.34200001	200	0	0
-18.2779999	6.65219975	2.33899999	200	0	0
-18.2469997	6.65250015	2.05500007	200	0	0
-18.2539997	6.65229988	2.023	200	0	0
-18.2579994	6.65219975	2.01999998	200	0	0
-18.2819996	6.65210009	2.01900005	200	0	0
-18.2719994	6.65229988	2.05500007	200	0	0
-18.2490005	6.65219975	2.05200005	200	0	0
-18.2900009	6.65219975	2.08299994	200	0	0
-18.2679996	6.65210009	2.05200005	200	0	0
-18.2469997	6.65250015	2.21499991	200	0	0
-18.2609997	6.65250015	2.15100002	200	0	0
-18.2719994	6.65250015	2.18199992	200	0	0
-18.2420006	6.65289974	2.22099996	200	0	0
-18.2560005	6.65299988	2.16100001	200	0	0
-18.257	6.65299988	2.19300008	200	0	0
-18.2670002	6.65260029	2.24600005	200	0	0
-18.2549992	6.65250015	2.24600005	200	0	0
-18.2709999	6.65280104	2.22099996	200	0	0
-18.2740002	6.65289974	2.18899989	200	0	0
-18.2670002	6.65280104	2.15700006	200	0	0
-18.2490005	6.65260029	2.15100002	200	0	0
-18.2600002	6.65260029	2.21399999	200	0	0
-18.2700005	6.65270042	2.18600011	200	0	0
-18.2719994	6.65260029	2.18199992	200	0	0
-18.243	6.65250015	2.30999994	200	0	0
-18.2490005	6.65240002	2.34200001	200	0	0
-18.257	6.65240002	2.30999994	200	0	0
-18.25	6.65229988	2.4059999	200	0	0
-18.2619991	6.65219975	2.40199995	200	0	0
-18.257	6.65240002	2.37400007	200	0	0
-18.2339993	6.65250015	2.37400007	200	0	0
-18.2479992	6.65240002	2.4059999	200	0	0
-18.2539997	6.65240002	1.99100006	200	0	0
-18.2849998	6.65229988	1.99100006	200	0	0
-18.2520008	6.65210009	1.98800004	200	0	0
-18.2730007	6.65250015	2.023	200	0	0
-18.25	6.65210009	2.49799991	200	0	0
-18.2609997	6.65159988	1.89199996	200	0	0
-18.2530003	6.65159988	1.86099994	200	0	0
-18.2709999	6.65090084	2.72099996	200	0	0
-18.2549992	6.65080023	2.72099996	200	0	0
-18.2439995	6.6500001	2.88000011	200	0	0
-18.2390003	6.65070009	2.78399992	200	0	0
-18.2679996	6.65039968	2.81699991	200	0	0
-18.2350006	6.65020037	2.84800005	200	0	0
-18.2709999	6.64949989	2.94400001	200	0	0
-18.257	6.65010023	2.88000011	200	0	0
-18.2439995	6.65030098	2.84800005	200	0	0
-18.2639999	6.65119982	2.65700006	200	0	0
-18.2639999	6.65119982	2.68899989	200	0	0
-18.2709999	6.65109968	2.72099996	200	0	0
-18.2560005	6.65109968	2.68899989	200	0	0
-18.2679996	6.65129995	2.65700006	200	0	0
-18.2439995	6.6515007	2.65700006	200	0	0
-18.2350006	6.65129995	2.68899989	200	0	0
-18.2350006	6.6515007	2.625	200	0	0
-18.2660007	6.65140009	2.65700006	200	0	0
-18.243	6.65270042	2.09100008	200	0	0
-18.2660007	6.65280104	2.09299994	200	0	0
-18.2789993	6.65260029	2.08699989	200	0	0
-18.2730007	6.65159988	1.82799995	200	0	0
-18.2679996	6.65219975	1.86000001	200	0	0
-18.2740002	6.65210009	1.86000001	200	0	0
-18.2469997	6.65219975	1.89300001	200	0	0
-18.2830009	6.65240002	1.92700005	200	0	0
-18.2889996	6.65229988	1.89499998	200	0	0
-18.2900009	6.65229988	1.92700005	200	0	0
-18.2560005	6.65210009	1.89300001	200	0	0
-18.2689991	6.65219975	1.92400002	200	0	0
-18.2849998	6.65210009	1.92400002	200	0	0
-18.2450008	6.65250015	1.99199998	200	0	0
-18.2849998	6.65159988	1.76400006	200	0	0
-18.2980003	6.65219975	1.82700002	200	0	0
-18.2730007	6.65210009	1.82799995	200	0	0
-18.3029995	6.65129995	1.66700006	200	0	0
-18.2539997	6.65210009	1.73300004	200	0	0
-18.2840004	6.65159988	1.70000005	200	0	0
-18.257	6.65159988	1.73300004	200	0	0
-18.2980003	6.65119982	1.28299999	200	0	0
-18.2859993	6.65099955	1.25199997	200	0	0
-18.2590008	6.6487999	3.0079999	200	0	0
-18.243	6.64869976	3.00699997	200	0	0
-18.2439995	6.64840078	3.03900003	200	0	0
-18.2779999	6.64859962	3.0079999	200	0	0
-18.2639999	6.64780092	3.0999999	200	0	0
-18.2590008	6.64719963	3.15700006	200	0	0
-18.2730007	6.64729977	3.12599993	200	0	0
-18.2609997	6.6493001	2.97600007	200	0	0
-18.2670002	6.64919996	2.97600007	200	0	0
-18.2689991	6.64890003	3.0079999	200	0	0
-18.2789993	6.64960003	2.94400001	200	0	0
-18.2789993	6.64690018	3.19000006	200	0	0
-18.2880001	6.64669991	3.19000006	200	0	0
-18.2600002	6.6473999	3.16000009	200	0	0
-18.2539997	6.64729977	3.15700006	200	0	0
-18.2600002	6.64750004	3.12899995	200	0	0
-18.2830009	6.6473999	3.12899995	200	0	0
-18.2560005	6.6480999	3.10299993	200	0	0
-18.2549992	6.64799976	3.10299993	200	0	0
-18.2609997	6.64789963	3.10299993	200	0	0
-18.2549992	6.64549971	3.27800012	200	0	0
-18.2549992	6.64599991	3.24900007	200	0	0
-18.2689991	6.64539957	3.27900004	200	0	0
-18.2609997	6.64530087	3.27800012	200	0	0
-18.2509995	6.64610004	3.24900007	200	0	0
-18.2660007	6.64559984	3.27800012	200	0	0
-18.2609997	6.64620018	3.25	200	0	0
-18.2649994	6.63960028	3.27800012	200	0	0
-18.2730007	6.6390996	3.27800012	200	0	0
-18.2800007	6.63940001	3.27800012	200	0	0
-18.2670002	6.63900089	3.30999994	200	0	0
-18.2810001	6.64169979	3.27900004	200	0	0
-18.2649994	6.64140034	3.30999994	200	0	0
-18.2600002	6.64120007	3.30999994	200	0	0
-18.2759991	6.6401	3.27800012	200	0	0
-18.2530003	6.64099979	3.30900002	200	0	0
-18.2789993	6.64140034	3.27800012	200	0	0
-18.2670002	6.64120007	3.27800012	200	0	0
-18.2870007	6.64109993	3.27900004	200	0	0
-18.2689991	6.64090109	3.27800012	200	0	0
-18.2779999	6.64069986	3.27800012	200	0	0
-18.2810001	6.64179993	3.27900004	200	0	0
-18.2329998	6.6390996	3.30800009	200	0	0
-18.2399998	6.6401	3.30900002	200	0	0
-18.2350006	6.63979959	3.30800009	200	0	0
-18.2590008	6.63989973	3.30900002	200	0	0
-18.2590008	6.63969994	3.30900002	200	0	0
-18.2639999	6.63950014	3.30999994	200	0	0
-18.2639999	6.64159966	3.30999994	200	0	0
-18.2779999	6.64179993	3.30999994	200	0	0
-18.2689991	6.64190006	3.30999994	200	0	0
-18.2859993	6.64219952	3.28600001	200	0	0
-18.2759991	6.64239979	3.28800011	200	0	0
-18.2889996	6.64249992	3.28900003	200	0	0
-18.2800007	6.64280081	3.29200006	200	0	0
-18.2849998	6.6427002	3.29200006	200	0	0
-18.2779999	6.64239979	3.31999993	200	0	0
-18.2779999	6.64260006	3.29200006	200	0	0
-18.2420006	6.64299965	3.32800007	200	0	0
-18.2520008	6.64280081	3.32200003	200	0	0
-18.2630005	6.64359999	3.3039999	200	0	0
-18.2800007	6.64349985	3.3039999	200	0	0
-18.2919998	6.64340067	3.30500007	200	0	0
-18.2759991	6.64330006	3.30100012	200	0	0
-18.2639999	6.64319992	3.29999995	200	0	0
-18.2670002	6.64309978	3.29699993	200	0	0
-18.2709999	6.64299965	3.2980001	200	0	0
-18.2539997	6.64380026	3.30299997	200	0	0
-18.2509995	6.64319992	3.33200002	200	0	0
-18.2719994	6.64389992	3.3039999	200	0	0
-18.2740002	6.64349985	3.33599997	200	0	0
-18.2460003	6.64340067	3.33500004	200	0	0
-18.2679996	6.64409971	3.3039999	200	0	0
-18.2660007	6.64400101	3.3039999	200	0	0
-18.2549992	6.64419985	3.30599999	200	0	0
-18.2670002	6.64370012	3.33599997	200	0	0
-18.2649994	6.64400101	3.33500004	200	0	0
-18.2810001	6.64389992	3.33599997	200	0	0
-18.2660007	6.64440012	3.30699992	200	0	0
-18.2789993	6.64429998	3.30800009	200	0	0
-18.2789993	6.64429998	3.33899999	200	0	0
-18.2660007	6.64419985	3.33899999	200	0	0
-18.2530003	6.64469957	3.30999994	200	0	0
-18.2819996	6.64460039	3.31100011	200	0	0
-18.2479992	6.64450026	3.30900002	200	0	0
-18.2539997	6.64489985	3.30999994	200	0	0
-18.2469997	6.64479971	3.30900002	200	0	0
-18.2619991	6.64499998	3.30999994	200	0	0
-18.2530003	6.64510012	3.30999994	200	0	0
-18.2740002	6.64460039	3.34299994	200	0	0
-18.2649994	6.64469957	3.34200001	200	0	0
-18.2679996	6.64479971	3.34200001	200	0	0
-18.2689991	6.64520025	3.30999994	200	0	0
-18.2630005	6.64629984	3.25	200	0	0
-18.2649994	6.64580011	3.27800012	200	0	0
-18.2749996	6.64569998	3.27900004	200	0	0
-18.2670002	6.64700031	3.18899989	200	0	0
-18.2469997	6.64510012	3.34100008	200	0	0
-18.2700005	6.64499998	3.34200001	200	0	0
-18.2689991	6.64549971	3.30999994	200	0	0
-18.2530003	6.64539957	3.30999994	200	0	0
-18.25	6.64530087	3.30999994	200	0	0
-18.2660007	6.64710045	3.18899989	200	0	0
-18.2539997	6.64650106	3.24900007	200	0	0
-18.2390003	6.64639997	3.24900007	200	0	0
-18.2560005	6.64590073	3.27800012	200	0	0
-18.2579994	6.64760017	3.16400003	200	0	0
-18.2530003	6.64780092	3.13199997	200	0	0
-18.2539997	6.64750004	3.16000009	200	0	0
-18.2509995	6.64830017	3.10299993	200	0	0
-18.2479992	6.64820004	3.10299993	200	0	0
-18.2649994	6.64900064	3.03999996	200	0	0
-18.2730007	6.64890003	3.03999996	200	0	0
-18.2530003	6.64869976	3.03900003	200	0	0
-18.2590008	6.64620018	3.2809999	200	0	0
-18.2579994	6.64610004	3.2809999	200	0	0
-18.2579994	6.64599991	3.2809999	200	0	0
-18.2619991	6.64659977	3.25300002	200	0	0
-18.2460003	6.6473999	3.19199991	200	0	0
-18.2880001	6.64729977	3.19000006	200	0	0
-18.2479992	6.64780092	3.16300011	200	0	0
-18.2549992	6.64799976	3.13499999	200	0	0
-18.2439995	6.64770031	3.16300011	200	0	0
-18.2590008	6.64789963	3.13499999	200	0	0
-18.2639999	6.64520025	3.34200001	200	0	0
-18.25	6.64530087	3.34200001	200	0	0
-18.2630005	6.64580011	3.30999994	200	0	0
-18.2360001	6.64549971	3.34100008	200	0	0
-18.25	6.64599991	3.31299996	200	0	0
-18.2719994	6.6493001	3.0079999	200	0	0
-18.2700005	6.64940023	2.97600007	200	0	0
-18.2490005	6.64840078	3.10299993	200	0	0
-18.2600002	6.64859962	3.10299993	200	0	0
-18.2539997	6.65159988	1.38199997	200	0	0
-18.3509998	6.6420002	0.428000003	200	0	0
-18.3460007	6.64219952	0.432000011	200	0	0
-18.3589993	6.64289999	0.504999995	200	0	0
-18.3479996	6.64289999	0.537999988	200	0	0
-18.3649998	6.64280081	0.500999987	200	0	0
-18.3500004	6.6427002	0.503000021	200	0	0
-18.3579998	6.64249992	0.499000013	200	0	0
-18.3640003	6.64239979	0.497999996	200	0	0
-18.3390007	6.64179993	0.393999994	200	0	0
-18.3549995	6.64150095	0.39199999	200	0	0
-18.3519993	6.64169979	0.39199999	200	0	0
-18.3589993	6.64249992	0.433999985	200	0	0
-18.3619995	6.64109993	0.423000008	200	0	0
-18.3260002	6.64169979	0.426999986	200	0	0
-18.3449993	6.64150095	0.425000012	200	0	0
-18.3560009	6.64179993	0.423999995	200	0	0
-18.3269997	6.64159966	0.395000011	200	0	0
-18.3299999	6.64069986	0.395000011	200	0	0
-18.3479996	6.63999987	0.425000012	200	0	0
-18.3530006	6.6401	0.423999995	200	0	0
-18.3490009	6.64319992	0.54400003	200	0	0
-18.3199997	6.64309978	0.54400003	200	0	0
-18.3700008	6.64319992	0.574999988	200	0	0
-18.3449993	6.64299965	0.541999996	200	0	0
-18.3239994	6.64309978	0.575999975	200	0	0
-18.3549995	6.64340067	0.546999991	200	0	0
-18.3519993	6.64299965	0.509000003	200	0	0
-18.3309994	6.64489985	0.911000013	200	0	0
-18.3129997	6.64460039	0.879999995	200	0	0
-18.3470001	6.64469957	0.876999974	200	0	0
-18.3369999	6.64489985	0.943000019	200	0	0
-18.3330002	6.64469957	0.943000019	200	0	0
-18.3209991	6.64489985	0.879999995	200	0	0
-18.3519993	6.64520025	0.908999979	200	0	0
-18.3339996	6.64510012	0.943000019	200	0	0
-18.3330002	6.64510012	0.911000013	200	0	0
-18.3759995	6.6390996	0.421999991	200	0	0
-18.3349991	6.63960028	0.393999994	200	0	0
-18.3889999	6.63929987	0.419999987	200	0	0
-18.3910007	6.63989973	0.419999987	200	0	0
-18.3560009	6.63940001	0.423999995	200	0	0
-18.3649998	6.63890028	0.423000008	200	0	0
-18.3659992	6.63900089	0.423000008	200	0	0
-18.3349991	6.64239979	0.404000014	200	0	0
-18.3339996	6.6420002	0.397000015	200	0	0
-18.309	6.64299965	0.449000001	200	0	0
-18.3400002	6.63999987	0.393000007	200	0	0
-18.3710003	6.63940001	0.389999986	200	0	0
-18.3500004	6.63929987	0.39199999	200	0	0
-18.3530006	6.63890028	0.39199999	200	0	0
-18.3029995	6.6515007	1.21899998	200	0	0
-18.3050003	6.65140009	1.21899998	200	0	0
-18.2849998	6.65119982	1.22000003	200	0	0
-18.2670002	6.65159988	1.28499997	200	0	0
-18.2749996	6.6515007	1.28499997	200	0	0
-18.2900009	6.65240002	1.60699999	200	0	0
-18.2830009	6.65240002	1.54299998	200	0	0
-18.2700005	6.65219975	1.50899994	200	0	0
-18.2719994	6.65240002	1.57599998	200	0	0
-18.2880001	6.65229988	1.54299998	200	0	0
-18.2590008	6.65240002	1.51300001	200	0	0
-18.2770004	6.65240002	1.41600001	200	0	0
-18.2840004	6.65229988	1.41499996	200	0	0
-18.2759991	6.65229988	1.352	200	0	0
-18.2719994	6.65229988	1.38399994	200	0	0
-18.2810001	6.65219975	1.41199994	200	0	0
-18.2700005	6.65219975	1.38100004	200	0	0
-18.2709999	6.65229988	1.44799995	200	0	0
-18.2870007	6.65219975	1.28400004	200	0	0
-18.2679996	6.6515007	1.25300002	200	0	0
-18.2919998	6.65140009	1.25199997	200	0	0
-18.2579994	6.65240002	1.449	200	0	0
-18.2770004	6.65229988	1.28799999	200	0	0
-18.2819996	6.65250015	1.60800004	200	0	0
-18.2999992	6.65250015	1.54299998	200	0	0
-18.2600002	6.64650106	3.2809999	200	0	0
-18.2670002	6.64639997	3.28200006	200	0	0
-18.2719994	6.64629984	3.28200006	200	0	0
-18.2600002	6.64690018	3.25300002	200	0	0
-18.2450008	6.64680004	3.25200009	200	0	0
-18.2509995	6.64710045	3.25200009	200	0	0
-18.2689991	6.64770031	3.1960001	200	0	0
-18.2789993	6.64760017	3.1960001	200	0	0
-18.2530003	6.64849997	3.13499999	200	0	0
-18.2530003	6.64820004	3.16700006	200	0	0
-18.2549992	6.64840078	3.13499999	200	0	0
-18.2380009	6.64830017	3.13400006	200	0	0
-18.2290001	6.64559984	3.34100008	200	0	0
-18.2619991	6.64580011	3.34200001	200	0	0
-18.2619991	6.64569998	3.34200001	200	0	0
-18.243	6.64620018	3.31299996	200	0	0
-18.2579994	6.64610004	3.31299996	200	0	0
-18.2450008	6.64590073	3.34100008	200	0	0
-18.2460003	6.64639997	3.31299996	200	0	0
-18.243	6.64840078	3.16700006	200	0	0
-18.2530003	6.64859962	3.13499999	200	0	0
-18.2460003	6.6493001	3.03900003	200	0	0
-18.2539997	6.64949989	3.0079999	200	0	0
-18.2649994	6.64919996	3.03999996	200	0	0
-18.257	6.6500001	2.97600007	200	0	0
-18.2609997	6.6500001	2.94400001	200	0	0
-18.2479992	6.64989996	2.97600007	200	0	0
-18.2779999	6.64969969	3.0079999	200	0	0
-18.2399998	6.64979982	2.94300008	200	0	0
-18.2660007	6.64979982	2.97600007	200	0	0
-18.2520008	6.64960003	2.97600007	200	0	0
-18.2399998	6.65020037	2.88000011	200	0	0
-18.2530003	6.64940023	3.03900003	200	0	0
-18.2450008	6.65030098	2.88000011	200	0	0
-18.2630005	6.65039968	2.84800005	200	0	0
-18.2380009	6.64900064	3.10299993	200	0	0
-18.2409992	6.64890003	3.10299993	200	0	0
-18.243	6.6487999	3.10299993	200	0	0
-18.2840004	6.65210009	2.52999997	200	0	0
-18.2420006	6.65140009	2.68899989	200	0	0
-18.2639999	6.65159988	2.68899989	200	0	0
