3.671	6.81739998	0.0399999991	200	0	0
3.67499995	6.81750011	0.0179999992	200	0	0
3.648	6.81739998	0.0729999989	200	0	0
3.67400002	6.81750011	-0.0179999992	200	0	0
3.67400002	6.81750011	-0.00899999961	200	0	0
3.671	6.81750011	0.0399999991	200	0	0
3.67799997	6.81750011	0.00700000022	200	0	0
3.66499996	6.81750011	0.0350000001	200	0	0
3.67400002	6.81750011	-0.0270000007	200	0	0
3.64700007	6.81739998	0.0930000022	200	0	0
3.65300012	6.81739998	0.0970000029	200	0	0
3.64499998	6.81750011	0.0850000009	200	0	0
3.66199994	6.81750011	0.0649999976	200	0	0
3.67000008	6.81760025	-0.0149999997	200	0	0
3.67499995	6.81760025	-0.00899999961	200	0	0
3.67400002	6.81760025	0.0379999988	200	0	0
3.67400002	6.81760025	0.00999999978	200	0	0
3.671	6.81760025	0.0299999993	200	0	0
3.67799997	6.81760025	0.0170000009	200	0	0
3.66300011	6.81750011	0.108999997	200	0	0
3.64599991	6.81750011	0.0930000022	200	0	0
3.65700006	6.81750011	0.130999997	200	0	0
3.66700006	6.81760025	-0.0320000015	200	0	0
3.6500001	6.81760025	0.0719999969	200	0	0
3.65199995	6.81760025	0.0799999982	200	0	0
3.65499997	6.81760025	0.114	200	0	0
3.65100002	6.81760025	0.0989999995	200	0	0
3.67600012	6.8178997	0.0179999992	200	0	0
3.65300012	6.81770039	0.0700000003	200	0	0
3.67499995	6.817801	-0.0179999992	200	0	0
3.66700006	6.81770039	-0.0320000015	200	0	0
3.67400002	6.817801	-0.00899999961	200	0	0
3.671	6.817801	0.0399999991	200	0	0
3.6730001	6.81770039	-0.0270000007	200	0	0
3.67700005	6.817801	0.0270000007	200	0	0
3.67600012	6.817801	0.00899999961	200	0	0
3.67700005	6.817801	0.0170000009	200	0	0
3.67000008	6.81770039	-0.0160000008	200	0	0
3.67499995	6.81770039	-0.00899999961	200	0	0
3.67000008	6.81770039	0.0410000011	200	0	0
3.67799997	6.81770039	0.00700000022	200	0	0
3.6730001	6.81770039	0.0289999992	200	0	0
3.67400002	6.81770039	0.0199999996	200	0	0
3.67199993	6.817801	-0.0260000005	200	0	0
3.66100001	6.81770039	0.109999999	200	0	0
3.65400004	6.81770039	0.0970000029	200	0	0
3.64899993	6.81770039	0.0909999982	200	0	0
3.648	6.81770039	0.0820000023	200	0	0
3.66499996	6.81760025	0.116999999	200	0	0
3.64899993	6.817801	0.0729999989	200	0	0
3.64599991	6.817801	0.0930000022	200	0	0
3.648	6.817801	0.0820000023	200	0	0
3.65100002	6.817801	0.116999999	200	0	0
3.67199993	6.8178997	-0.00700000022	200	0	0
3.67799997	6.8178997	0.00800000038	200	0	0
3.67700005	6.8178997	0.0359999985	200	0	0
3.66799998	6.8178997	0.0329999998	200	0	0
3.66100001	6.8178997	0.109999999	200	0	0
3.6730001	6.8178997	0.057	200	0	0
3.65100002	6.8178997	0.0799999982	200	0	0
3.67000008	6.8178997	-0.0340000018	200	0	0
3.67199993	6.8178997	-0.0170000009	200	0	0
3.6730001	6.8178997	-0.0270000007	200	0	0
3.67400002	6.81799984	0.0390000008	200	0	0
3.6730001	6.81799984	0.0299999993	200	0	0
3.66599989	6.81799984	-0.0299999993	200	0	0
3.67400002	6.81799984	-0.0270000007	200	0	0
3.67199993	6.81799984	0.0209999997	200	0	0
3.67499995	6.81799984	-0.0179999992	200	0	0
3.6789999	6.81799984	0.00700000022	200	0	0
3.67799997	6.81799984	-0.0109999999	200	0	0
3.65199995	6.81799984	0.0989999995	200	0	0
3.64899993	6.81799984	0.0920000002	200	0	0
3.6559999	6.81799984	0.0689999983	200	0	0
3.67799997	6.81809998	0.00800000038	200	0	0
3.66300011	6.81809998	0.109999999	200	0	0
3.65899992	6.81799984	0.112000003	200	0	0
3.65300012	6.8178997	0.143000007	200	0	0
3.67600012	6.81809998	0.0280000009	200	0	0
3.67600012	6.81809998	0.0189999994	200	0	0
3.67199993	6.81809998	-0.0250000004	200	0	0
3.67600012	6.81809998	-0.00999999978	200	0	0
3.66400003	6.81809998	-0.00999999978	200	0	0
3.65100002	6.81809998	0.0900000036	200	0	0
3.65499997	6.81809998	0.0700000003	200	0	0
3.65300012	6.81809998	0.0799999982	200	0	0
3.67499995	6.81809998	0.0379999988	200	0	0
3.65700006	6.81809998	0.123000003	200	0	0
3.65100002	6.81820011	0.0820000023	200	0	0
3.68000007	6.81820011	0.0529999994	200	0	0
3.67600012	6.81820011	-0.0280000009	200	0	0
3.67499995	6.81820011	0.0379999988	200	0	0
3.67000008	6.81820011	-0.0149999997	200	0	0
3.67400002	6.81820011	-0.00800000038	200	0	0
3.67600012	6.81820011	0.0280000009	200	0	0
3.67400002	6.81820011	0.0199999996	200	0	0
3.67700005	6.81820011	0.00899999961	200	0	0
3.64899993	6.81830025	0.101000004	200	0	0
3.65300012	6.81830025	0.0710000023	200	0	0
3.65400004	6.81830025	0.0790000036	200	0	0
3.67400002	6.81830025	0.0289999992	200	0	0
3.68000007	6.81830025	0.0160000008	200	0	0
3.66899991	6.81830025	-0.0240000002	200	0	0
3.6730001	6.81830025	0.0109999999	200	0	0
3.66700006	6.81830025	-0.0130000003	200	0	0
3.67199993	6.81830025	-0.00700000022	200	0	0
3.671	6.81830025	0.0399999991	200	0	0
3.67199993	6.81840086	0.0579999983	200	0	0
3.6789999	6.81840086	-0.0209999997	200	0	0
3.6789999	6.81840086	-0.0109999999	200	0	0
3.67000008	6.81840086	0.0410000011	200	0	0
3.6789999	6.81840086	0.0260000005	200	0	0
3.68099999	6.81840086	0.0149999997	200	0	0
3.67199993	6.81840086	0.0120000001	200	0	0
3.671	6.81840086	0.0680000037	200	0	0
3.67799997	6.81849957	0.00800000038	200	0	0
3.66400003	6.81840086	0.118000001	200	0	0
3.66000009	6.81840086	0.112000003	200	0	0
3.65199995	6.81840086	0.0989999995	200	0	0
3.65199995	6.81840086	0.0890000015	200	0	0
3.67700005	6.81849957	0.0270000007	200	0	0
3.6789999	6.81849957	0.0160000008	200	0	0
3.67199993	6.81849957	-0.00700000022	200	0	0
3.67700005	6.81849957	-0.0189999994	200	0	0
3.67499995	6.8185997	0.0379999988	200	0	0
3.6559999	6.81849957	0.0689999983	200	0	0
3.67700005	6.81849957	0.0359999985	200	0	0
3.65400004	6.81849957	0.0790000036	200	0	0
3.65300012	6.8185997	0.0799999982	200	0	0
3.67600012	6.81879997	0.0560000017	200	0	0
3.67400002	6.81879997	-0.0170000009	200	0	0
3.6789999	6.81879997	-0.0109999999	200	0	0
3.67499995	6.81879997	0.0379999988	200	0	0
3.67499995	6.81869984	-0.0270000007	200	0	0
3.68000007	6.81879997	0.00700000022	200	0	0
3.68000007	6.81879997	0.0250000004	200	0	0
3.67799997	6.81879997	0.0170000009	200	0	0
3.6559999	6.8185997	0.0680000037	200	0	0
3.67199993	6.81869984	-0.0149999997	200	0	0
3.68600011	6.81869984	0.0489999987	200	0	0
3.67400002	6.81869984	-0.00700000022	200	0	0
3.67199993	6.81869984	0.0399999991	200	0	0
3.6789999	6.81869984	0.0270000007	200	0	0
3.6730001	6.81869984	0.0120000001	200	0	0
3.68199992	6.81869984	0.0149999997	200	0	0
3.67499995	6.8185997	-0.0179999992	200	0	0
3.66799998	6.8185997	-0.00400000019	200	0	0
3.67600012	6.8185997	0.0280000009	200	0	0
3.67199993	6.8185997	0.0120000001	200	0	0
3.68199992	6.8185997	0.0149999997	200	0	0
3.6559999	6.81869984	0.0780000016	200	0	0
3.65700006	6.81869984	0.114	200	0	0
3.66799998	6.81869984	0.115999997	200	0	0
3.6559999	6.81879997	0.0790000036	200	0	0
3.66000009	6.81890011	0.0759999976	200	0	0
3.6789999	6.81890011	0.00800000038	200	0	0
3.68300009	6.81890011	0.0149999997	200	0	0
3.68199992	6.81890011	0.0520000011	200	0	0
3.6789999	6.81890011	0.0270000007	200	0	0
3.6789999	6.81890011	0.0359999985	200	0	0
3.67499995	6.81890011	-0.00700000022	200	0	0
3.68000007	6.81890011	-0.0209999997	200	0	0
3.67499995	6.81900072	0.0390000008	200	0	0
3.67400002	6.81900072	-0.0160000008	200	0	0
3.67799997	6.81900072	0.0280000009	200	0	0
3.67799997	6.81900072	-0.00999999978	200	0	0
3.67799997	6.81900072	0.0189999994	200	0	0
3.68000007	6.81900072	0.00800000038	200	0	0
3.65199995	6.81900072	0.0810000002	200	0	0
3.66100001	6.81900072	0.112000003	200	0	0
3.67700005	6.8190999	0.0280000009	200	0	0
3.67199993	6.81900072	0.0590000004	200	0	0
3.68199992	6.8190999	0.0520000011	200	0	0
3.66300011	6.8190999	0.119999997	200	0	0
3.65899992	6.8190999	0.112999998	200	0	0
3.68199992	6.8190999	0.0160000008	200	0	0
3.68000007	6.8190999	0.0350000001	200	0	0
3.68199992	6.8190999	0.00600000005	200	0	0
3.68000007	6.8190999	-0.0109999999	200	0	0
3.67700005	6.8190999	-0.0179999992	200	0	0
3.67499995	6.81920004	0.0379999988	200	0	0
3.67799997	6.81920004	0.0280000009	200	0	0
3.67600012	6.81920004	0.00999999978	200	0	0
3.66899991	6.81920004	0.0700000003	200	0	0
3.6559999	6.81920004	0.115000002	200	0	0
3.68199992	6.81920004	0.0520000011	200	0	0
3.6559999	6.8192997	0.0790000036	200	0	0
3.67199993	6.81920004	-0.00600000005	200	0	0
3.68300009	6.81920004	0.0149999997	200	0	0
3.68199992	6.8192997	0.0160000008	200	0	0
3.67499995	6.81920004	-0.0170000009	200	0	0
3.67000008	6.8192997	0.0329999998	200	0	0
3.67600012	6.8192997	0.0379999988	200	0	0
3.68000007	6.8192997	0.0529999994	200	0	0
3.67799997	6.81939983	-0.0189999994	200	0	0
3.68199992	6.8192997	0.00600000005	200	0	0
3.67700005	6.8192997	-0.00899999961	200	0	0
3.67799997	6.8192997	-0.0189999994	200	0	0
3.6789999	6.81939983	-0.00999999978	200	0	0
3.6789999	6.81939983	0.0270000007	200	0	0
3.67700005	6.81939983	0.0379999988	200	0	0
3.67700005	6.81939983	0.0189999994	200	0	0
3.68300009	6.81939983	0.00600000005	200	0	0
3.6789999	6.81939983	0.0549999997	200	0	0
3.65899992	6.81949997	0.0769999996	200	0	0
3.68400002	6.81949997	0.00499999989	200	0	0
3.6789999	6.81949997	0.0179999992	200	0	0
3.6789999	6.81949997	0.0549999997	200	0	0
3.65799999	6.81939983	0.0780000016	200	0	0
3.68099999	6.81949997	0.0260000005	200	0	0
3.6789999	6.81949997	0.0359999985	200	0	0
3.66000009	6.81939983	0.122000001	200	0	0
3.66300011	6.81949997	0.111000001	200	0	0
3.66599989	6.81960011	-0.00100000005	200	0	0
3.67700005	6.81969976	0.0189999994	200	0	0
3.6789999	6.81949997	-0.00999999978	200	0	0
3.68199992	6.81969976	0.0250000004	200	0	0
3.68400002	6.81960011	0.00499999989	200	0	0
3.65300012	6.81960011	0.100000001	200	0	0
3.68300009	6.81969976	0.0340000018	200	0	0
3.671	6.81969976	0.0689999983	200	0	0
3.68199992	6.81969976	0.0529999994	200	0	0
3.68199992	6.81960011	0.0160000008	200	0	0
3.67799997	6.81960011	0.0280000009	200	0	0
3.67499995	6.81960011	0.0390000008	200	0	0
3.66799998	6.81960011	0.0710000023	200	0	0
3.68499994	6.81960011	0.050999999	200	0	0
3.68300009	6.81969976	0.00600000005	200	0	0
3.67199993	6.81969976	-0.00499999989	200	0	0
3.67600012	6.81969976	-0.0170000009	200	0	0
3.67000008	6.81960011	-0.0130000003	200	0	0
3.67799997	6.81949997	-0.0189999994	200	0	0
3.67799997	6.8197999	-0.00999999978	200	0	0
3.68000007	6.8197999	0.0270000007	200	0	0
3.66700006	6.81969976	0.118000001	200	0	0
3.65799999	6.8197999	0.114	200	0	0
3.68499994	6.8197999	0.050999999	200	0	0
3.65799999	6.8197999	0.0780000016	200	0	0
3.68000007	6.8197999	0.0359999985	200	0	0
3.67199993	6.8197999	-0.0149999997	200	0	0
3.68400002	6.8197999	0.0149999997	200	0	0
3.68600011	6.8197999	0.00400000019	200	0	0
3.68300009	6.81990004	0.0520000011	200	0	0
3.6789999	6.81990004	0.0359999985	200	0	0
3.64700007	6.81939983	-0.101000004	200	0	0
3.68799996	6.81990004	0.00300000003	200	0	0
3.6730001	6.81990004	0.0680000037	200	0	0
3.68099999	6.81990004	0.0160000008	200	0	0
3.68400002	6.81990004	0.0240000002	200	0	0
3.68199992	6.81990004	-0.0120000001	200	0	0
3.67700005	6.81990004	-0.0179999992	200	0	0
3.6789999	6.82000017	0.0280000009	200	0	0
3.68199992	6.82000017	-0.0109999999	200	0	0
3.671	6.81990004	0.115000002	200	0	0
3.66199994	6.81990004	0.112000003	200	0	0
3.65799999	6.81990004	0.0960000008	200	0	0
3.66100001	6.8197999	0.120999999	200	0	0
3.68700004	6.82000017	0.0500000007	200	0	0
3.68400002	6.82000017	0.00499999989	200	0	0
3.68499994	6.82000017	0.0140000004	200	0	0
3.6789999	6.82000017	0.0370000005	200	0	0
3.66199994	6.82000017	0.0759999976	200	0	0
3.65199995	6.82000017	0.0909999982	200	0	0
3.68000007	6.82000017	-0.0189999994	200	0	0
3.671	6.82010031	-0.00400000019	200	0	0
3.66199994	6.82010031	0.075000003	200	0	0
3.68400002	6.82010031	0.00499999989	200	0	0
3.67799997	6.82010031	0.0189999994	200	0	0
3.68700004	6.82010031	0.0500000007	200	0	0
3.67400002	6.82010031	0.0309999995	200	0	0
3.68000007	6.82010031	0.0359999985	200	0	0
3.67600012	6.82010031	-0.0170000009	200	0	0
3.68799996	6.82019997	0.0500000007	200	0	0
3.6559999	6.82019997	0.0900000036	200	0	0
3.66400003	6.82019997	0.075000003	200	0	0
3.68000007	6.82019997	-0.0189999994	200	0	0
3.68099999	6.82019997	-0.00999999978	200	0	0
3.68000007	6.82019997	0.0370000005	200	0	0
3.68600011	6.82019997	0.00499999989	200	0	0
3.68099999	6.82019997	0.0270000007	200	0	0
3.68700004	6.82019997	0.0140000004	200	0	0
3.67799997	6.82039976	-0.0179999992	200	0	0
3.68199992	6.82030106	0.0170000009	200	0	0
3.68199992	6.82030106	0.00800000038	200	0	0
3.68000007	6.82030106	-0.00999999978	200	0	0
3.6789999	6.82039976	-0.00999999978	200	0	0
3.68099999	6.82030106	0.0270000007	200	0	0
3.68199992	6.82030106	0.063000001	200	0	0
3.68400002	6.82030106	0.0529999994	200	0	0
3.68000007	6.82030106	0.0370000005	200	0	0
3.67700005	6.82039976	0.0379999988	200	0	0
3.68400002	6.82039976	0.00499999989	200	0	0
3.67199993	6.82030106	0.133000001	200	0	0
3.68700004	6.82039976	0.0500000007	200	0	0
3.68400002	6.82039976	0.0610000007	200	0	0
3.65499997	6.82039976	0.0900000036	200	0	0
3.67799997	6.82039976	-0.0270000007	200	0	0
3.68400002	6.82039976	0.0240000002	200	0	0
3.69099998	6.82039976	0.00999999978	200	0	0
3.68600011	6.8204999	0.0329999998	200	0	0
3.68600011	6.8204999	0.023	200	0	0
3.69000006	6.8204999	0.0109999999	200	0	0
3.6730001	6.8204999	-0.0149999997	200	0	0
3.67400002	6.8204999	0.0120000001	200	0	0
3.67700005	6.8204999	-0.00800000038	200	0	0
3.68300009	6.82060003	0.061999999	200	0	0
3.67799997	6.82060003	-0.0179999992	200	0	0
3.69099998	6.82060003	0.0480000004	200	0	0
3.67700005	6.82060003	0.0379999988	200	0	0
3.68600011	6.82060003	0.00400000019	200	0	0
3.68799996	6.82060003	0.0120000001	200	0	0
3.67600012	6.82060003	0.0289999992	200	0	0
3.68400002	6.8204999	0.0520000011	200	0	0
3.65700006	6.8204999	0.0790000036	200	0	0
3.67700005	6.82070017	0.0289999992	200	0	0
3.68400002	6.82070017	0.0149999997	200	0	0
3.68300009	6.82070017	0.00600000005	200	0	0
3.67700005	6.82070017	-0.00899999961	200	0	0
3.68799996	6.82070017	0.0489999987	200	0	0
3.68300009	6.82070017	0.0340000018	200	0	0
3.66700006	6.82070017	0.0729999989	200	0	0
3.65799999	6.82070017	0.0960000008	200	0	0
3.68499994	6.8208003	0.0140000004	200	0	0
3.6789999	6.8208003	0.0280000009	200	0	0
3.68600011	6.8208003	0.0320000015	200	0	0
3.68899989	6.8208003	0.0579999983	200	0	0
3.68400002	6.8208003	0.0520000011	200	0	0
3.69000006	6.8208003	0.00100000005	200	0	0
3.6789999	6.8208003	-0.0189999994	200	0	0
3.6789999	6.8208003	-0.00999999978	200	0	0
3.65899992	6.8208003	0.0960000008	200	0	0
3.68400002	6.82090092	-0.0130000003	200	0	0
3.68799996	6.82090092	0.0579999983	200	0	0
3.69300008	6.82090092	0	200	0	0
3.68700004	6.82090092	0.0500000007	200	0	0
3.68899989	6.82090092	0.0109999999	200	0	0
3.68000007	6.82090092	0.0359999985	200	0	0
3.68499994	6.82090092	0.0240000002	200	0	0
3.67799997	6.82099962	0.0370000005	200	0	0
3.65899992	6.82090092	0.0869999975	200	0	0
3.68899989	6.82099962	0.0209999997	200	0	0
3.69000006	6.82099962	0.0109999999	200	0	0
3.68799996	6.82099962	0.00200000009	200	0	0
3.68400002	6.82099962	-0.0130000003	200	0	0
3.69000006	6.82099962	0.0480000004	200	0	0
3.65700006	6.82099962	0.0879999995	200	0	0
3.66700006	6.82099962	0.0729999989	200	0	0
3.67799997	6.82109976	0.0189999994	200	0	0
3.67799997	6.82109976	0.0280000009	200	0	0
3.68300009	6.82109976	0.0340000018	200	0	0
3.68799996	6.82109976	0.0579999983	200	0	0
3.69000006	6.82109976	0.0480000004	200	0	0
3.65899992	6.82109976	0.0960000008	200	0	0
3.65700006	6.82109976	0.0879999995	200	0	0
3.69300008	6.82109976	-0.00100000005	200	0	0
3.68199992	6.82109976	-0.0120000001	200	0	0
3.68400002	6.82130003	0.0240000002	200	0	0
3.69099998	6.82130003	0.00999999978	200	0	0
3.68400002	6.82119989	0.0329999998	200	0	0
3.68899989	6.82130003	0.00200000009	200	0	0
3.68400002	6.82119989	0.0240000002	200	0	0
3.68199992	6.82130003	-0.0120000001	200	0	0
3.68899989	6.82119989	0.0120000001	200	0	0
3.69099998	6.82119989	0.00100000005	200	0	0
3.68600011	6.82119989	0.0599999987	200	0	0
3.69000006	6.82119989	0.0480000004	200	0	0
3.65899992	6.82119989	0.0960000008	200	0	0
3.65700006	6.82119989	0.0879999995	200	0	0
3.68300009	6.82130003	0.0529999994	200	0	0
3.6789999	6.82130003	0.0370000005	200	0	0
3.68700004	6.82130003	0.0590000004	200	0	0
3.66899991	6.82130003	0.134000003	200	0	0
3.66499996	6.82119989	0.109999999	200	0	0
3.66700006	6.82119989	0.118000001	200	0	0
3.66100001	6.82130003	0.0850000009	200	0	0
3.67700005	6.82140017	-0.00800000038	200	0	0
3.68600011	6.82140017	0.00400000019	200	0	0
3.69499993	6.82140017	0.00800000038	200	0	0
3.69099998	6.82140017	0.057	200	0	0
3.69199991	6.82140017	0.0469999984	200	0	0
3.68300009	6.82140017	0.0250000004	200	0	0
3.68600011	6.82140017	0.0329999998	200	0	0
3.66599989	6.82140017	0.119000003	200	0	0
3.68300009	6.82150078	0.0240000002	200	0	0
3.68400002	6.82150078	0.0329999998	200	0	0
3.69199991	6.82150078	0.0460000001	200	0	0
3.68300009	6.82150078	0.0610000007	200	0	0
3.66000009	6.82140017	0.0949999988	200	0	0
3.69099998	6.82150078	0.00999999978	200	0	0
3.69199991	6.82150078	0	200	0	0
3.68700004	6.82150078	-0.0149999997	200	0	0
3.68499994	6.82159996	0.00400000019	200	0	0
3.68700004	6.82159996	0.0120000001	200	0	0
3.68700004	6.82159996	0.0579999983	200	0	0
3.68600011	6.82159996	0.0500000007	200	0	0
3.68400002	6.82159996	0.023	200	0	0
3.68499994	6.82159996	0.0320000015	200	0	0
3.68600011	6.82159996	-0.0149999997	200	0	0
3.68700004	6.82169962	0.0489999987	200	0	0
3.66799998	6.82159996	0.107000001	200	0	0
3.66100001	6.82159996	0.0939999968	200	0	0
3.66799998	6.82150078	0.116999999	200	0	0
3.65899992	6.82169962	0.0949999988	200	0	0
3.68400002	6.82169962	-0.0140000004	200	0	0
3.68499994	6.82169962	0.0320000015	200	0	0
3.68700004	6.82169962	0.00300000003	200	0	0
3.68600011	6.82169962	0.0219999999	200	0	0
3.67799997	6.82169962	0.0179999992	200	0	0
3.68700004	6.82169962	0.0579999983	200	0	0
3.68799996	6.82179976	0.0579999983	200	0	0
3.69099998	6.82179976	0	200	0	0
3.63499999	6.82119989	-0.0920000002	200	0	0
3.65899992	6.82179976	0.0949999988	200	0	0
3.68600011	6.82189989	-0.0160000008	200	0	0
3.68799996	6.82179976	0.0299999993	200	0	0
3.69000006	6.82179976	0.0189999994	200	0	0
3.69000006	6.82179976	0.00999999978	200	0	0
3.68600011	6.82179976	-0.0149999997	200	0	0
3.66000009	6.82179976	0.0850000009	200	0	0
3.69000006	6.82179976	0.0469999984	200	0	0
3.69300008	6.82189989	-0.00200000009	200	0	0
3.69099998	6.82189989	0.00899999961	200	0	0
3.68099999	6.82189989	0.0250000004	200	0	0
3.69199991	6.82189989	0.0549999997	200	0	0
3.69400001	6.82189989	0.0439999998	200	0	0
3.68799996	6.82189989	0.0299999993	200	0	0
3.66599989	6.82179976	0.118000001	200	0	0
3.66499996	6.82179976	0.108999997	200	0	0
3.68499994	6.82200003	0.0590000004	200	0	0
3.68600011	6.82200003	-0.0160000008	200	0	0
3.6960001	6.82200003	0.0430000015	200	0	0
3.69300008	6.82200003	-0.00200000009	200	0	0
3.69199991	6.82200003	0.00800000038	200	0	0
3.68799996	6.82200003	0.0289999992	200	0	0
3.68799996	6.82200003	0.0199999996	200	0	0
3.66300011	6.82200003	0.0920000002	200	0	0
3.66300011	6.82200003	0.0829999968	200	0	0
3.66700006	6.82210016	0.0799999982	200	0	0
3.68600011	6.82219982	-0.0160000008	200	0	0
3.68499994	6.82219982	0.0590000004	200	0	0
3.69199991	6.82219982	0.0450000018	200	0	0
3.68700004	6.82219982	0.00200000009	200	0	0
3.69400001	6.82219982	0.00700000022	200	0	0
3.69199991	6.82219982	0.0170000009	200	0	0
3.68700004	6.82219982	0.0299999993	200	0	0
3.68400002	6.82210016	-0.0140000004	200	0	0
3.69300008	6.82210016	0.0540000014	200	0	0
3.68899989	6.82210016	0.00100000005	200	0	0
3.69099998	6.82210016	0.0460000001	200	0	0
3.68899989	6.82210016	0.00999999978	200	0	0
3.68499994	6.82210016	0.0320000015	200	0	0
3.68600011	6.82210016	0.0219999999	200	0	0
3.66000009	6.82210016	0.0939999968	200	0	0
3.66700006	6.82219982	0.0799999982	200	0	0
3.66799998	6.82219982	0.107000001	200	0	0
3.66100001	6.82219982	0.119999997	200	0	0
3.66000009	6.82229996	0.0839999989	200	0	0
3.68799996	6.82229996	0.0289999992	200	0	0
3.68600011	6.82229996	0.0209999997	200	0	0
3.68799996	6.82229996	0.00999999978	200	0	0
3.69499993	6.82229996	-0.00400000019	200	0	0
3.68600011	6.82229996	-0.0170000009	200	0	0
3.69099998	6.82229996	0.0460000001	200	0	0
3.69400001	6.82229996	0.0529999994	200	0	0
3.66300011	6.82229996	0.0909999982	200	0	0
3.67199993	6.82229996	0.112000003	200	0	0
3.68799996	6.82240009	-0.0179999992	200	0	0
3.69199991	6.82240009	0.0540000014	200	0	0
3.68799996	6.82240009	0.00100000005	200	0	0
3.6960001	6.82240009	0.0419999994	200	0	0
3.69300008	6.82240009	0.00700000022	200	0	0
3.69000006	6.82240009	0.0179999992	200	0	0
3.68899989	6.82240009	0.0280000009	200	0	0
3.66499996	6.82240009	0.0799999982	200	0	0
3.66000009	6.82240009	0.0930000022	200	0	0
3.68799996	6.82250023	0.00999999978	200	0	0
3.69000006	6.82250023	-0.00100000005	200	0	0
3.68600011	6.82250023	-0.0170000009	200	0	0
3.6960001	6.82250023	0.0419999994	200	0	0
3.68899989	6.82250023	0.0280000009	200	0	0
3.69199991	6.82250023	0.0170000009	200	0	0
3.6960001	6.82250023	0.050999999	200	0	0
3.66300011	6.82250023	0.0909999982	200	0	0
3.66799998	6.82240009	0.105999999	200	0	0
3.66300011	6.82259989	0.0820000023	200	0	0
3.69000006	6.82259989	0.00899999961	200	0	0
3.68799996	6.82259989	0.0189999994	200	0	0
3.69099998	6.82259989	0.0270000007	200	0	0
3.69499993	6.82259989	0.050999999	200	0	0
3.68899989	6.82259989	0.0460000001	200	0	0
3.68000007	6.82250023	0.115999997	200	0	0
3.671	6.82250023	0.112999998	200	0	0
3.66199994	6.82250023	0.109999999	200	0	0
3.66499996	6.82240009	0.116999999	200	0	0
3.67199993	6.82259989	0.112000003	200	0	0
3.66599989	6.82259989	0.107000001	200	0	0
3.66400003	6.82259989	0.0909999982	200	0	0
3.68600011	6.82259989	-0.0170000009	200	0	0
3.69300008	6.82270002	0.0160000008	200	0	0
3.66300011	6.82270002	0.0909999982	200	0	0
3.66199994	6.82270002	0.0820000023	200	0	0
3.68799996	6.82270002	0.0280000009	200	0	0
3.69099998	6.82270002	0.0450000018	200	0	0
3.69099998	6.82270002	0.0540000014	200	0	0
3.68000007	6.82270002	-0.0219999999	200	0	0
3.69000006	6.82270002	-0.0199999996	200	0	0
3.69300008	6.82270002	0.00600000005	200	0	0
3.69000006	6.82270002	-0.00100000005	200	0	0
3.67199993	6.82270002	0.122000001	200	0	0
3.65899992	6.82270002	0.120999999	200	0	0
3.66799998	6.82270002	0.105999999	200	0	0
3.69099998	6.82280111	0.0260000005	200	0	0
3.69400001	6.82280111	0.0149999997	200	0	0
3.68499994	6.82280111	0.0109999999	200	0	0
3.68899989	6.82280111	0	200	0	0
3.68099999	6.82280111	-0.0130000003	200	0	0
3.69199991	6.82289982	0.00800000038	200	0	0
3.69000006	6.82280111	0.0460000001	200	0	0
3.69000006	6.82280111	0.0549999997	200	0	0
3.66899991	6.82280111	0.0780000016	200	0	0
3.67700005	6.82280111	0.118000001	200	0	0
3.68799996	6.82289982	0.0199999996	200	0	0
3.66300011	6.82289982	0.0909999982	200	0	0
3.67199993	6.82280111	0.112000003	200	0	0
3.66199994	6.82289982	0.0829999968	200	0	0
3.69000006	6.82289982	0.0280000009	200	0	0
3.66700006	6.82280111	0.107000001	200	0	0
3.6960001	6.82289982	0.0419999994	200	0	0
3.69400001	6.82289982	0.0529999994	200	0	0
3.66300011	6.82280111	0.0909999982	200	0	0
3.68499994	6.82299995	-0.0160000008	200	0	0
3.63800001	6.82270002	-0.0590000004	200	0	0
3.69000006	6.82289982	-0.00100000005	200	0	0
3.69000006	6.82289982	-0.0189999994	200	0	0
3.69199991	6.82299995	-0.00200000009	200	0	0
3.66300011	6.82299995	0.0909999982	200	0	0
3.67499995	6.82289982	0.128999993	200	0	0
3.66799998	6.82289982	0.115000002	200	0	0
3.66599989	6.82289982	0.107000001	200	0	0
3.66599989	6.82310009	0.0799999982	200	0	0
3.69700003	6.82299995	0.050999999	200	0	0
3.69000006	6.82299995	0.0460000001	200	0	0
3.66499996	6.82299995	0.116999999	200	0	0
3.6730001	6.82299995	0.103	200	0	0
3.66499996	6.82299995	0.0810000002	200	0	0
3.69400001	6.82310009	0.0250000004	200	0	0
3.69300008	6.82310009	0.0160000008	200	0	0
3.69499993	6.82310009	0.00499999989	200	0	0
3.69000006	6.82299995	0.0280000009	200	0	0
3.69300008	6.82310009	-0.00300000003	200	0	0
3.68300009	6.82310009	-0.0149999997	200	0	0
3.69300008	6.82299995	0.0160000008	200	0	0
3.69499993	6.82299995	0.00499999989	200	0	0
3.66599989	6.82310009	0.0890000015	200	0	0
3.69199991	6.82310009	0.0439999998	200	0	0
3.69700003	6.82310009	0.0500000007	200	0	0
3.66799998	6.82310009	0.115000002	200	0	0
3.66899991	6.82310009	0.104999997	200	0	0
3.67799997	6.82320023	0.116999999	200	0	0
3.66799998	6.82320023	0.115000002	200	0	0
3.66899991	6.82320023	0.104999997	200	0	0
3.66300011	6.82320023	0.0909999982	200	0	0
3.66400003	6.82320023	0.0810000002	200	0	0
3.69499993	6.82320023	-0.00400000019	200	0	0
3.6960001	6.82320023	0.050999999	200	0	0
3.69199991	6.82320023	0.00800000038	200	0	0
3.6960001	6.82320023	0.0419999994	200	0	0
3.69199991	6.82320023	0.0170000009	200	0	0
3.68199992	6.82320023	0.0329999998	200	0	0
3.68799996	6.82330036	0.0189999994	200	0	0
3.6960001	6.82330036	0.00400000019	200	0	0
3.69499993	6.82330036	-0.00400000019	200	0	0
3.68600011	6.82330036	0.0299999993	200	0	0
3.67700005	6.82330036	0.0729999989	200	0	0
3.69899988	6.82330036	0.0399999991	200	0	0
3.69700003	6.82330036	0.0500000007	200	0	0
3.6730001	6.82330036	0.112000003	200	0	0
3.69499993	6.82340097	0.050999999	200	0	0
3.69700003	6.82340097	0.0410000011	200	0	0
3.68799996	6.82340097	-0.0179999992	200	0	0
3.69700003	6.82340097	-0.00600000005	200	0	0
3.69099998	6.82340097	0.0270000007	200	0	0
3.68300009	6.82340097	0.0219999999	200	0	0
3.69700003	6.82340097	0.00400000019	200	0	0
3.68899989	6.82349968	-0.00100000005	200	0	0
3.6960001	6.82349968	0.0419999994	200	0	0
3.66300011	6.82349968	0.0909999982	200	0	0
3.68499994	6.82340097	0.122000001	200	0	0
3.67199993	6.82340097	0.120999999	200	0	0
3.66599989	6.82340097	0.115999997	200	0	0
3.66899991	6.82340097	0.104999997	200	0	0
3.66400003	6.82340097	0.0810000002	200	0	0
3.66400003	6.82340097	0.0900000036	200	0	0
3.69000006	6.82349968	0.0549999997	200	0	0
3.671	6.82349968	0.112999998	200	0	0
3.66599989	6.82349968	0.107000001	200	0	0
3.6730001	6.82349968	0.075000003	200	0	0
3.69000006	6.82359982	0.00800000038	200	0	0
3.68400002	6.82349968	-0.0160000008	200	0	0
3.69400001	6.82349968	0.0240000002	200	0	0
3.69499993	6.82349968	0.0149999997	200	0	0
3.69499993	6.82349968	0.00499999989	200	0	0
3.67199993	6.82359982	0.112000003	200	0	0
3.69199991	6.82369995	0.0160000008	200	0	0
3.69899988	6.82359982	0.0489999987	200	0	0
3.69499993	6.82359982	0.0419999994	200	0	0
3.69199991	6.82359982	0.0250000004	200	0	0
3.69000006	6.82359982	0.0179999992	200	0	0
3.66599989	6.82359982	0.134000003	200	0	0
3.68700004	6.82359982	0.0659999996	200	0	0
3.67199993	6.82359982	0.103	200	0	0
3.671	6.82359982	0.0860000029	200	0	0
3.67199993	6.82369995	0.120999999	200	0	0
3.69400001	6.82380009	0.0240000002	200	0	0
3.69400001	6.82369995	-0.00400000019	200	0	0
3.69899988	6.82369995	0.00200000009	200	0	0
3.70000005	6.82369995	0.0480000004	200	0	0
3.69400001	6.82369995	0.0430000015	200	0	0
3.6960001	6.82369995	0.023	200	0	0
3.69700003	6.82380009	0.0130000003	200	0	0
3.69799995	6.82380009	0.0399999991	200	0	0
3.6960001	6.82380009	-0.00499999989	200	0	0
3.68899989	6.82380009	0.00899999961	200	0	0
3.671	6.82369995	0.0759999976	200	0	0
3.69099998	6.82380009	0.0540000014	200	0	0
3.67600012	6.82369995	0.108999997	200	0	0
3.68000007	6.82380009	0.125	200	0	0
3.68700004	6.82380009	0.0659999996	200	0	0
3.67199993	6.82380009	0.120999999	200	0	0
3.671	6.82380009	0.112000003	200	0	0
3.6730001	6.82380009	0.101999998	200	0	0
3.69499993	6.82390022	0.0140000004	200	0	0
3.69499993	6.82390022	0.00499999989	200	0	0
3.69499993	6.82390022	-0.00400000019	200	0	0
3.68499994	6.82390022	0.0299999993	200	0	0
3.69000006	6.82390022	0.064000003	200	0	0
3.67000008	6.82390022	0.104000002	200	0	0
3.671	6.82390022	0.0860000029	200	0	0
3.67499995	6.82400084	0.119000003	200	0	0
3.671	6.82400084	0.112000003	200	0	0
3.69099998	6.82400084	0.063000001	200	0	0
3.6960001	6.82390022	0.0419999994	200	0	0
3.69899988	6.82390022	0.0489999987	200	0	0
3.67000008	6.82400084	0.0860000029	200	0	0
3.69300008	6.82400084	-0.00300000003	200	0	0
3.70099998	6.82400084	0.00100000005	200	0	0
3.70300007	6.82400084	0.0460000001	200	0	0
3.69799995	6.82400084	0.0399999991	200	0	0
3.69700003	6.82400084	0.0130000003	200	0	0
3.69700003	6.82400084	0.0219999999	200	0	0
3.69199991	6.82409954	0.0170000009	200	0	0
3.69499993	6.82409954	0.00499999989	200	0	0
3.671	6.82409954	0.0860000029	200	0	0
3.6730001	6.82409954	0.103	200	0	0
3.6730001	6.82409954	0.128999993	200	0	0
3.69000006	6.82409954	0.064000003	200	0	0
3.69099998	6.82409954	0.0260000005	200	0	0
3.69700003	6.82409954	-0.00600000005	200	0	0
3.69899988	6.82409954	0.0399999991	200	0	0
3.704	6.82409954	0.0460000001	200	0	0
3.69099998	6.82419968	0.00800000038	200	0	0
3.7019999	6.82419968	0.0469999984	200	0	0
3.69700003	6.82419968	-0.00499999989	200	0	0
3.69899988	6.82419968	0.0399999991	200	0	0
3.69300008	6.82419968	0.0260000005	200	0	0
3.69499993	6.82419968	0.0149999997	200	0	0
3.69700003	6.82429981	0.00400000019	200	0	0
3.6730001	6.82419968	0.112000003	200	0	0
3.6730001	6.82419968	0.103	200	0	0
3.6730001	6.82429981	0.112000003	200	0	0
3.6730001	6.82419968	0.120999999	200	0	0
3.67199993	6.82429981	0.0850000009	200	0	0
3.69000006	6.82429981	0.0179999992	200	0	0
3.69700003	6.82429981	0.023	200	0	0
3.70099998	6.82429981	0.0390000008	200	0	0
3.6960001	6.82429981	0.0599999987	200	0	0
3.70000005	6.82429981	0.0480000004	200	0	0
3.69799995	6.82439995	0.0410000011	200	0	0
3.69099998	6.82439995	0.0270000007	200	0	0
3.70000005	6.82439995	0.00200000009	200	0	0
3.69199991	6.82439995	0.0170000009	200	0	0
3.69400001	6.82439995	-0.00300000003	200	0	0
3.69300008	6.82439995	0.063000001	200	0	0
3.70000005	6.82439995	0.0489999987	200	0	0
3.671	6.82439995	0.104999997	200	0	0
3.66799998	6.82439995	0.0890000015	200	0	0
3.67000008	6.82429981	0.104999997	200	0	0
3.70000005	6.82450008	0.0480000004	200	0	0
3.70600009	6.82450008	0.0350000001	200	0	0
3.70099998	6.82450008	-0.00899999961	200	0	0
3.6960001	6.82450008	0.0219999999	200	0	0
3.70000005	6.82450008	0.00100000005	200	0	0
3.6960001	6.82450008	0.0130000003	200	0	0
3.6730001	6.82450008	0.0839999989	200	0	0
3.67499995	6.82450008	0.101000004	200	0	0
3.67199993	6.82450008	0.112000003	200	0	0
3.69700003	6.82460022	0.0579999983	200	0	0
3.6960001	6.82460022	0.0500000007	200	0	0
3.7019999	6.82460022	0.0370000005	200	0	0
3.69400001	6.82460022	-0.00499999989	200	0	0
3.69300008	6.82450008	0.061999999	200	0	0
3.69700003	6.82460022	0.00200000009	200	0	0
3.69700003	6.82460022	0.0209999997	200	0	0
3.69300008	6.82460022	0.0140000004	200	0	0
3.671	6.82460022	0.0839999989	200	0	0
3.68799996	6.82469988	0.063000001	200	0	0
3.6960001	6.82469988	-0.00700000022	200	0	0
3.69899988	6.82469988	0	200	0	0
3.70000005	6.82469988	0.0460000001	200	0	0
3.70300007	6.82469988	0.0340000018	200	0	0
3.69499993	6.82469988	0.0120000001	200	0	0
3.69300008	6.82469988	0.023	200	0	0
3.67000008	6.82469988	0.101999998	200	0	0
3.68400002	6.82480001	-0.0280000009	200	0	0
3.69700003	6.82480001	0.0460000001	200	0	0
3.69700003	6.82480001	-0.00899999961	200	0	0
3.70300007	6.82480001	0.0329999998	200	0	0
3.69799995	6.82480001	0	200	0	0
3.6960001	6.82480001	0.0199999996	200	0	0
3.69700003	6.82480001	0.00999999978	200	0	0
3.69300008	6.82480001	0.0579999983	200	0	0
3.68000007	6.82480001	0.104000002	200	0	0
3.67000008	6.82480001	0.0829999968	200	0	0
3.67499995	6.82480001	0.125	200	0	0
3.66899991	6.82489967	0.0839999989	200	0	0
3.67499995	6.82489967	0.0979999974	200	0	0
3.67600012	6.82489967	0.107000001	200	0	0
3.68799996	6.82499981	0.061999999	200	0	0
3.69799995	6.82489967	0.0370000005	200	0	0
3.69899988	6.82489967	0.0460000001	200	0	0
3.69799995	6.82489967	0.0560000017	200	0	0
3.671	6.82499981	0.0829999968	200	0	0
3.69300008	6.82499981	-0.00600000005	200	0	0
3.69700003	6.82489967	0.0189999994	200	0	0
3.6960001	6.82489967	0.0109999999	200	0	0
3.70000005	6.82489967	-0.00100000005	200	0	0
3.704	6.82499981	0.0419999994	200	0	0
3.6960001	6.82499981	0.0390000008	200	0	0
3.69700003	6.82499981	0.0189999994	200	0	0
3.70300007	6.82499981	-0.00300000003	200	0	0
3.69199991	6.82499981	0.0130000003	200	0	0
3.67700005	6.82499981	0.115000002	200	0	0
3.67600012	6.82499981	0.107000001	200	0	0
3.67700005	6.82499981	0.0970000029	200	0	0
3.69799995	6.82509995	0.0469999984	200	0	0
3.7019999	6.82509995	0.0359999985	200	0	0
3.68499994	6.82509995	0.0280000009	200	0	0
3.704	6.82509995	0.00600000005	200	0	0
3.6960001	6.82509995	0.0579999983	200	0	0
3.70600009	6.82520008	0.0419999994	200	0	0
3.70600009	6.82520008	0.0329999998	200	0	0
3.69700003	6.82520008	0.0199999996	200	0	0
3.70000005	6.82520008	-0.00999999978	200	0	0
3.69300008	6.82520008	0.0140000004	200	0	0
3.69899988	6.82520008	0	200	0	0
3.68899989	6.82509995	0.118000001	200	0	0
3.68000007	6.82509995	0.114	200	0	0
3.6730001	6.82509995	0.109999999	200	0	0
3.69799995	6.82520008	0.129999995	200	0	0
3.68000007	6.82520008	0.0960000008	200	0	0
3.671	6.82520008	0.119999997	200	0	0
3.67799997	6.82520008	0.105999999	200	0	0
3.69199991	6.82520008	0.0599999987	200	0	0
3.69799995	6.82530069	0.00100000005	200	0	0
3.68099999	6.82530069	0.0769999996	200	0	0
3.68400002	6.82530069	0.0199999996	200	0	0
3.69199991	6.82530069	0.0610000007	200	0	0
3.69400001	6.82530069	0.0219999999	200	0	0
3.70499992	6.82530069	0.0340000018	200	0	0
3.70099998	6.82530069	0.0460000001	200	0	0
3.69499993	6.82530069	0.131999999	200	0	0
3.67499995	6.82530069	0.127000004	200	0	0
3.67700005	6.82530069	0.115999997	200	0	0
3.6789999	6.82530069	0.105999999	200	0	0
3.66599989	6.82530069	0.104999997	200	0	0
3.67600012	6.82539988	0.0810000002	200	0	0
3.69499993	6.82539988	0.0130000003	200	0	0
3.69700003	6.82539988	0.0209999997	200	0	0
3.70499992	6.82539988	0.0340000018	200	0	0
3.69799995	6.82539988	0.0579999983	200	0	0
3.704	6.82539988	0.0450000018	200	0	0
3.70499992	6.82550001	0.0350000001	200	0	0
3.704	6.82539988	-0.00200000009	200	0	0
3.68899989	6.82539988	0.119000003	200	0	0
3.67400002	6.82539988	0.119000003	200	0	0
3.67400002	6.82539988	0.109999999	200	0	0
3.67600012	6.82539988	0.0989999995	200	0	0
3.68400002	6.82530069	0.148000002	200	0	0
3.71399999	6.82539988	0.120999999	200	0	0
3.69799995	6.82560015	0.0590000004	200	0	0
3.69400001	6.82550001	0.023	200	0	0
3.704	6.82550001	0.0450000018	200	0	0
3.7019999	6.82550001	0.0549999997	200	0	0
3.7019999	6.82550001	0.00899999961	200	0	0
3.7019999	6.82550001	-0.00100000005	200	0	0
3.69799995	6.82560015	0.00300000003	200	0	0
3.68400002	6.82550001	0.122000001	200	0	0
3.67499995	6.82550001	0.108999997	200	0	0
3.6960001	6.82560015	0.023	200	0	0
3.67799997	6.82560015	0.0989999995	200	0	0
3.69899988	6.82560015	0.0390000008	200	0	0
3.70600009	6.82560015	0.0439999998	200	0	0
3.6960001	6.82560015	0.0689999983	200	0	0
3.69700003	6.82560015	0.0120000001	200	0	0
3.68199992	6.82560015	0.123999998	200	0	0
3.70000005	6.82570028	0.0109999999	200	0	0
3.70000005	6.82570028	0.00200000009	200	0	0
3.6960001	6.82570028	-0.00499999989	200	0	0
3.68300009	6.82570028	0.0769999996	200	0	0
3.70300007	6.82570028	0.0179999992	200	0	0
3.69899988	6.82570028	0.0579999983	200	0	0
3.70300007	6.82570028	0.0370000005	200	0	0
3.70600009	6.82570028	0.0439999998	200	0	0
3.67499995	6.82570028	0.109999999	200	0	0
3.68199992	6.82579994	0.123999998	200	0	0
3.69400001	6.82579994	0.061999999	200	0	0
3.67700005	6.82579994	0.108999997	200	0	0
3.67799997	6.82579994	0.100000001	200	0	0
3.671	6.82579994	0.0860000029	200	0	0
3.69799995	6.82579994	0.00400000019	200	0	0
3.69400001	6.82590103	0.0250000004	200	0	0
3.70300007	6.82579994	0.00999999978	200	0	0
3.68300009	6.82590103	0.0960000008	200	0	0
3.70600009	6.82590103	0.0450000018	200	0	0
3.69899988	6.82590103	0.0399999991	200	0	0
3.68099999	6.82590103	0.0799999982	200	0	0
3.70099998	6.82590103	0.057	200	0	0
3.69799995	6.82579994	0.0219999999	200	0	0
3.7019999	6.82579994	0.0379999988	200	0	0
3.704	6.82579994	0.0469999984	200	0	0
3.68099999	6.82590103	0.125	200	0	0
3.67400002	6.82590103	0.111000001	200	0	0
3.70099998	6.82590103	0.0109999999	200	0	0
3.69000006	6.82590103	0.137999997	200	0	0
3.69499993	6.82599974	0.0149999997	200	0	0
3.70099998	6.82599974	0.0209999997	200	0	0
3.704	6.82599974	0.0649999976	200	0	0
3.69799995	6.82599974	0.0599999987	200	0	0
3.7019999	6.82599974	0.0379999988	200	0	0
3.70099998	6.82599974	0.0489999987	200	0	0
3.69799995	6.82599974	-0.00499999989	200	0	0
3.70300007	6.82599974	0.00100000005	200	0	0
3.69799995	6.82609987	0.00499999989	200	0	0
3.69099998	6.82609987	0.074000001	200	0	0
3.70099998	6.82609987	0.0120000001	200	0	0
3.69199991	6.82609987	0.0270000007	200	0	0
3.69899988	6.82609987	0.0599999987	200	0	0
3.704	6.82609987	0.0469999984	200	0	0
3.70499992	6.82609987	0.0370000005	200	0	0
3.67400002	6.82599974	0.103	200	0	0
3.68000007	6.82599974	0.116999999	200	0	0
3.67799997	6.82609987	0.101000004	200	0	0
3.67799997	6.82609987	0.109999999	200	0	0
3.68300009	6.82609987	0.125	200	0	0
3.70099998	6.82620001	0.0399999991	200	0	0
3.70099998	6.82620001	0.0209999997	200	0	0
3.69799995	6.82620001	0.0140000004	200	0	0
3.70300007	6.82620001	0.00100000005	200	0	0
3.68000007	6.82620001	0.118000001	200	0	0
3.70499992	6.82620001	0.0469999984	200	0	0
3.70499992	6.82620001	0.0560000017	200	0	0
3.68199992	6.82620001	0.107000001	200	0	0
3.67700005	6.82620001	0.101000004	200	0	0
3.70000005	6.82620001	0.0680000037	200	0	0
3.70600009	6.82630014	0.0370000005	200	0	0
3.68400002	6.82620001	0.123999998	200	0	0
3.69899988	6.82630014	0.0599999987	200	0	0
3.67600012	6.82630014	0.111000001	200	0	0
3.671	6.82630014	0.104999997	200	0	0
3.67400002	6.82630014	0.0850000009	200	0	0
3.70600009	6.82630014	0.0460000001	200	0	0
3.70000005	6.82630014	0.0219999999	200	0	0
3.70099998	6.82630014	0.0120000001	200	0	0
3.70099998	6.82640028	0.00300000003	200	0	0
3.70300007	6.82640028	0.057	200	0	0
3.69499993	6.82640028	0.0160000008	200	0	0
3.70099998	6.82640028	0.0489999987	200	0	0
3.69799995	6.82640028	0.023	200	0	0
3.7019999	6.82640028	0.0390000008	200	0	0
3.67799997	6.82640028	0.109999999	200	0	0
3.70099998	6.82650089	0.0399999991	200	0	0
3.69199991	6.82650089	0.0729999989	200	0	0
3.70300007	6.82650089	0.0480000004	200	0	0
3.69700003	6.82650089	0.0610000007	200	0	0
3.68600011	6.82640028	0.0949999988	200	0	0
3.68400002	6.82640028	0.0790000036	200	0	0
3.70900011	6.82650089	0.0160000008	200	0	0
3.69899988	6.82650089	0.0130000003	200	0	0
3.69700003	6.82650089	0.00499999989	200	0	0
3.69700003	6.82640028	0.143000007	200	0	0
3.69300008	6.82640028	0.136000007	200	0	0
3.6789999	6.82640028	0.118000001	200	0	0
3.68199992	6.82640028	0.125	200	0	0
3.67799997	6.82650089	0.127000004	200	0	0
3.67600012	6.82650089	0.101999998	200	0	0
3.70600009	6.8265996	0.0460000001	200	0	0
3.68199992	6.8265996	0.125	200	0	0
3.70600009	6.8265996	0.0370000005	200	0	0
3.70300007	6.8265996	0.00100000005	200	0	0
3.70499992	6.8265996	0.0179999992	200	0	0
3.69700003	6.8265996	0.0149999997	200	0	0
3.70099998	6.8265996	0.0579999983	200	0	0
3.67600012	6.8265996	0.101999998	200	0	0
3.67799997	6.8265996	0.0820000023	200	0	0
3.70300007	6.82669973	0.0199999996	200	0	0
3.70600009	6.82669973	0.0460000001	200	0	0
3.68899989	6.82669973	0.0939999968	200	0	0
3.68400002	6.82669973	0.123999998	200	0	0
3.70600009	6.82669973	0.0370000005	200	0	0
3.69899988	6.82669973	0.0689999983	200	0	0
3.6960001	6.82669973	0.0610000007	200	0	0
3.704	6.82669973	0.00999999978	200	0	0
3.704	6.82669973	0	200	0	0
3.70099998	6.82679987	0.0579999983	200	0	0
3.70700002	6.82679987	-0.00100000005	200	0	0
3.70600009	6.82679987	0.0450000018	200	0	0
3.71000004	6.82679987	0.0329999998	200	0	0
3.70099998	6.82679987	0.0120000001	200	0	0
3.704	6.82679987	0.0189999994	200	0	0
3.68300009	6.82690001	0.0970000029	200	0	0
3.69000006	6.82679987	0.137999997	200	0	0
3.68099999	6.82679987	0.126000002	200	0	0
3.68099999	6.82679987	0.0799999982	200	0	0
3.67600012	6.82679987	0.101999998	200	0	0
3.70700002	6.82690001	0.0450000018	200	0	0
3.70099998	6.82690001	0.0579999983	200	0	0
3.70900011	6.82690001	0.0350000001	200	0	0
3.70499992	6.82690001	0	200	0	0
3.704	6.82690001	0.0189999994	200	0	0
3.69700003	6.82690001	0.0149999997	200	0	0
3.69899988	6.82690001	0.0689999983	200	0	0
3.71000004	6.82700014	0.0430000015	200	0	0
3.70600009	6.82700014	0.0359999985	200	0	0
3.70600009	6.82700014	0.0179999992	200	0	0
3.70099998	6.82700014	0.0120000001	200	0	0
3.7019999	6.82700014	0.00100000005	200	0	0
3.68400002	6.82700014	0.104999997	200	0	0
3.6789999	6.82700014	0.100000001	200	0	0
3.69499993	6.82700014	0.061999999	200	0	0
3.70000005	6.82700014	0.0680000037	200	0	0
3.6789999	6.82690001	0.108999997	200	0	0
3.704	6.82710028	0	200	0	0
3.70700002	6.82710028	0.00700000022	200	0	0
3.69799995	6.82710028	0.0689999983	200	0	0
3.70000005	6.82710028	0.0579999983	200	0	0
3.70000005	6.82710028	0.0219999999	200	0	0
3.71499991	6.82710028	0.0390000008	200	0	0
3.704	6.82710028	0.0379999988	200	0	0
3.7019999	6.82719994	0.0199999996	200	0	0
3.69700003	6.82710028	-0.023	200	0	0
3.68499994	6.82710028	0.0960000008	200	0	0
3.68000007	6.82710028	0.108000003	200	0	0
3.704	6.82719994	0.0560000017	200	0	0
3.70000005	6.82719994	0.00300000003	200	0	0
3.70700002	6.82719994	0.00700000022	200	0	0
3.70600009	6.82719994	0.064000003	200	0	0
3.69899988	6.82719994	0.0500000007	200	0	0
3.70600009	6.82719994	0.0359999985	200	0	0
3.68099999	6.82719994	0.0979999974	200	0	0
3.704	6.82719994	-0.00899999961	200	0	0
3.70099998	6.82729959	0.0109999999	200	0	0
3.71300006	6.82729959	0.0320000015	200	0	0
3.7019999	6.82729959	0.0199999996	200	0	0
3.69300008	6.82729959	-0.00200000009	200	0	0
3.704	6.82729959	0	200	0	0
3.70300007	6.82739973	0.0560000017	200	0	0
3.70300007	6.82729959	0.0480000004	200	0	0
3.70600009	6.82729959	0.064000003	200	0	0
3.70300007	6.82729959	0.0560000017	200	0	0
3.70300007	6.82739973	0.0379999988	200	0	0
3.68000007	6.82729959	0.126000002	200	0	0
3.68199992	6.82729959	0.0970000029	200	0	0
3.68000007	6.82729959	0.108000003	200	0	0
3.704	6.82739973	0	200	0	0
3.70300007	6.82739973	0.00999999978	200	0	0
3.70300007	6.82739973	0.0649999976	200	0	0
3.704	6.82739973	0.0189999994	200	0	0
3.70700002	6.82739973	0.0450000018	200	0	0
3.69199991	6.82749987	0.0729999989	200	0	0
3.68300009	6.82739973	0.105999999	200	0	0
3.67600012	6.82739973	0.101000004	200	0	0
3.69899988	6.82749987	0.0130000003	200	0	0
3.70000005	6.82749987	0.0219999999	200	0	0
3.71700001	6.82749987	0.0289999992	200	0	0
3.7019999	6.82749987	0.057	200	0	0
3.71099997	6.82749987	0.0419999994	200	0	0
3.68000007	6.82749987	0.0979999974	200	0	0
3.68099999	6.82749987	0.107000001	200	0	0
3.6789999	6.82749987	0.116999999	200	0	0
3.70300007	6.82749987	0	200	0	0
3.69400001	6.8276	0.061999999	200	0	0
3.71099997	6.8276	0.0419999994	200	0	0
3.70499992	6.8276	-0.00100000005	200	0	0
3.70499992	6.8276	0.0370000005	200	0	0
3.70499992	6.8276	0.00899999961	200	0	0
3.70499992	6.8276	0.0179999992	200	0	0
3.70300007	6.8276	0.0649999976	200	0	0
3.69199991	6.8276	0.136999995	200	0	0
3.68700004	6.8276	0.122000001	200	0	0
3.68199992	6.8276	0.107000001	200	0	0
3.68000007	6.8276	0.0979999974	200	0	0
3.69700003	6.8276	0.143000007	200	0	0
3.68400002	6.82770014	0.0960000008	200	0	0
3.71000004	6.82770014	0.0329999998	200	0	0
3.71499991	6.82770014	0.0390000008	200	0	0
3.69099998	6.82770014	0.0729999989	200	0	0
3.69700003	6.82770014	0.0599999987	200	0	0
3.71000004	6.82770014	0.0140000004	200	0	0
3.7019999	6.82770014	0.0109999999	200	0	0
3.70799994	6.82780075	0.061999999	200	0	0
3.68300009	6.82780075	0.123999998	200	0	0
3.68400002	6.82780075	0.104999997	200	0	0
3.68400002	6.82780075	0.0960000008	200	0	0
3.68499994	6.82770014	0.123000003	200	0	0
3.6789999	6.82770014	0.116999999	200	0	0
3.68400002	6.82770014	0.104999997	200	0	0
3.70799994	6.82780075	0.00600000005	200	0	0
3.70499992	6.82780075	0.0179999992	200	0	0
3.71600008	6.82780075	0.0289999992	200	0	0
3.70799994	6.82780075	0.0529999994	200	0	0
3.704	6.82780075	0.0460000001	200	0	0
3.71099997	6.82780075	-0.00499999989	200	0	0
3.71000004	6.82800007	0.0419999994	200	0	0
3.70600009	6.82789993	0.00800000038	200	0	0
3.70799994	6.82789993	0.0160000008	200	0	0
3.7019999	6.82789993	0.0659999996	200	0	0
3.71099997	6.82789993	0.0320000015	200	0	0
3.70900011	6.82789993	0.0520000011	200	0	0
3.71000004	6.82789993	0.0419999994	200	0	0
3.70700002	6.82800007	0.0170000009	200	0	0
3.70099998	6.82800007	0.0109999999	200	0	0
3.68700004	6.82789993	0.122000001	200	0	0
3.68700004	6.82789993	0.0939999968	200	0	0
3.68799996	6.82789993	0.103	200	0	0
3.71099997	6.82800007	0.0320000015	200	0	0
3.68799996	6.82800007	0.101999998	200	0	0
3.68000007	6.82800007	0.0979999974	200	0	0
3.70799994	6.82800007	0.0529999994	200	0	0
3.70700002	6.82800007	0.063000001	200	0	0
3.71000004	6.8281002	0.050999999	200	0	0
3.70799994	6.8281002	0.0430000015	200	0	0
3.70900011	6.8281002	0.00600000005	200	0	0
3.71099997	6.8281002	0.0320000015	200	0	0
3.70700002	6.8281002	0.0160000008	200	0	0
3.68400002	6.8281002	0.0960000008	200	0	0
3.68000007	6.82800007	0.126000002	200	0	0
3.704	6.8281002	0.0649999976	200	0	0
3.68400002	6.8281002	0.123000003	200	0	0
3.68400002	6.8281002	0.104999997	200	0	0
3.70700002	6.82819986	0.0540000014	200	0	0
3.70799994	6.82819986	0.0430000015	200	0	0
3.70000005	6.82819986	0.0390000008	200	0	0
3.69899988	6.82819986	0.0219999999	200	0	0
3.70099998	6.82819986	0.0109999999	200	0	0
3.70499992	6.82819986	0.064000003	200	0	0
3.71000004	6.8283	0.0140000004	200	0	0
3.69300008	6.8283	0.0900000036	200	0	0
3.68300009	6.82819986	0.104999997	200	0	0
3.70700002	6.8283	0.0350000001	200	0	0
3.71399999	6.8283	0.0390000008	200	0	0
3.7019999	6.8283	0.0649999976	200	0	0
3.70700002	6.8283	0.0529999994	200	0	0
3.69000006	6.82819986	0.0920000002	200	0	0
3.71000004	6.8283	0.00499999989	200	0	0
3.68499994	6.82819986	0.123000003	200	0	0
3.69400001	6.8281002	0.152999997	200	0	0
3.71300006	6.82840109	0.0399999991	200	0	0
3.68199992	6.8283	0.123999998	200	0	0
3.68099999	6.82840109	0.0979999974	200	0	0
3.70700002	6.82840109	0.061999999	200	0	0
3.69899988	6.82840109	0.0579999983	200	0	0
3.68300009	6.8283	0.104999997	200	0	0
3.71700001	6.82840109	0.0289999992	200	0	0
3.71000004	6.82840109	0.0140000004	200	0	0
3.70700002	6.82840109	0.00700000022	200	0	0
3.71000004	6.82849979	0.0419999994	200	0	0
3.69499993	6.82840109	0.134000003	200	0	0
3.68600011	6.82849979	0.103	200	0	0
3.71099997	6.82849979	0.0320000015	200	0	0
3.69000006	6.82849979	0.0920000002	200	0	0
3.71199989	6.82849979	0.0590000004	200	0	0
3.70600009	6.82849979	0.0540000014	200	0	0
3.70700002	6.82849979	0.00700000022	200	0	0
3.70499992	6.82849979	0.0179999992	200	0	0
3.68300009	6.82870007	0.0960000008	200	0	0
3.69700003	6.82859993	0.0689999983	200	0	0
3.68300009	6.82859993	0.0960000008	200	0	0
3.70700002	6.82859993	-0.00200000009	200	0	0
3.70900011	6.82859993	0.00499999989	200	0	0
3.71099997	6.82859993	0.0130000003	200	0	0
3.71199989	6.82859993	0.0500000007	200	0	0
3.71399999	6.82859993	0.0390000008	200	0	0
3.71399999	6.82859993	0.0299999993	200	0	0
3.70900011	6.8288002	0.0610000007	200	0	0
3.71199989	6.82870007	0.0309999995	200	0	0
3.71300006	6.82870007	0.0399999991	200	0	0
3.70700002	6.82870007	0.0529999994	200	0	0
3.70799994	6.82870007	0.061999999	200	0	0
3.69799995	6.82870007	0.131999999	200	0	0
3.70499992	6.8288002	0.00800000038	200	0	0
3.70499992	6.82870007	0.0170000009	200	0	0
3.70600009	6.82870007	0.00700000022	200	0	0
3.70900011	6.8288002	-0.00400000019	200	0	0
3.70700002	6.82890034	0.00700000022	200	0	0
3.71300006	6.82890034	0.0120000001	200	0	0
3.70499992	6.82890034	0.064000003	200	0	0
3.70700002	6.82890034	0.0529999994	200	0	0
3.71300006	6.82890034	0.0309999995	200	0	0
3.7019999	6.8288002	0.0839999989	200	0	0
3.7190001	6.82890034	0.0359999985	200	0	0
3.71000004	6.8288002	0.0140000004	200	0	0
3.71000004	6.8288002	0.0320000015	200	0	0
3.71300006	6.8288002	0.0489999987	200	0	0
3.71499991	6.8288002	0.0390000008	200	0	0
3.68799996	6.8288002	0.101999998	200	0	0
3.6960001	6.82890034	0.133000001	200	0	0
3.68400002	6.82890034	0.0960000008	200	0	0
3.69300008	6.82890034	0.0989999995	200	0	0
3.70900011	6.82909966	0.0520000011	200	0	0
3.71000004	6.82900095	0.0140000004	200	0	0
3.71499991	6.82900095	0.0289999992	200	0	0
3.71300006	6.82900095	0.0399999991	200	0	0
3.71399999	6.82900095	0.0579999983	200	0	0
3.71199989	6.82900095	0.0500000007	200	0	0
3.70700002	6.82900095	0.00700000022	200	0	0
3.71199989	6.82909966	0.0309999995	200	0	0
3.68300009	6.82909966	0.0960000008	200	0	0
3.68899989	6.82890034	0.155000001	200	0	0
3.68400002	6.82900095	0.104000002	200	0	0
3.68700004	6.82900095	0.0939999968	200	0	0
3.70700002	6.82919979	0.0529999994	200	0	0
3.70499992	6.82909966	0.0170000009	200	0	0
3.7190001	6.82909966	0.0359999985	200	0	0
3.70900011	6.82909966	0.0610000007	200	0	0
