9.40600014	6.6928997	0.99000001	200	0	0
9.39400005	6.692801	0.991999984	200	0	0
9.38700008	6.69219971	1.00999999	200	0	0
9.3920002	6.69210005	1.00899994	200	0	0
9.4090004	6.69270039	0.99000001	200	0	0
9.40699959	6.69150066	1.023	200	0	0
9.40200043	6.69169998	1.02400005	200	0	0
9.39799976	6.69129992	1.02499998	200	0	0
9.38599968	6.69109964	1.028	200	0	0
9.39900017	6.69180012	1.02499998	200	0	0
9.40299988	6.69119978	1.02600002	200	0	0
9.39599991	6.69159985	1.02499998	200	0	0
9.40600014	6.69140005	1.02400005	200	0	0
9.3920002	6.69080019	1.02699995	200	0	0
9.39500046	6.69449997	0.924000025	200	0	0
9.38899994	6.69439983	0.925000012	200	0	0
9.37800026	6.6940999	0.944000006	200	0	0
9.38500023	6.69420004	0.943000019	200	0	0
9.38000011	6.69439983	0.944000006	200	0	0
9.38199997	6.6942997	0.943000019	200	0	0
9.39000034	6.69449997	0.941999972	200	0	0
9.39500046	6.69400072	0.958000004	200	0	0
9.39000034	6.6942997	0.958999991	200	0	0
9.38099957	6.69420004	0.959999979	200	0	0
9.375	6.6940999	0.961000025	200	0	0
9.39099979	6.69390011	0.958999991	200	0	0
9.39900017	6.69449997	0.958000004	200	0	0
9.39099979	6.69439983	0.958999991	200	0	0
9.40100002	6.69330025	0.990999997	200	0	0
9.40699959	6.69320011	0.99000001	200	0	0
9.41100025	6.69309998	0.989000022	200	0	0
9.40299988	6.69299984	0.990999997	200	0	0
9.39500046	6.69420004	0.991999984	200	0	0
9.40600014	6.6940999	0.99000001	200	0	0
9.40100002	6.69400072	0.990999997	200	0	0
9.40499973	6.69340086	0.99000001	200	0	0
9.39599991	6.69390011	0.991999984	200	0	0
9.40299988	6.69349957	0.990999997	200	0	0
9.39599991	6.6935997	0.991999984	200	0	0
9.39799976	6.69379997	0.990999997	200	0	0
9.39799976	6.69369984	0.990999997	200	0	0
9.39099979	6.69330025	1.00899994	200	0	0
9.40499973	6.69320011	1.00699997	200	0	0
9.40100002	6.69309998	1.00800002	200	0	0
9.39700031	6.69299984	1.00800002	200	0	0
9.39900017	6.6928997	1.00800002	200	0	0
9.40499973	6.692801	1.00699997	200	0	0
9.40400028	6.69270039	1.02400005	200	0	0
9.40799999	6.69239998	1.023	200	0	0
9.39099979	6.68989992	1.028	200	0	0
9.40400028	6.69030094	1.04200006	200	0	0
9.39400005	6.69070005	1.02699995	200	0	0
9.39299965	6.69059992	1.02699995	200	0	0
9.39999962	6.69099998	1.04299998	200	0	0
9.3920002	6.6909008	1.04400003	200	0	0
9.39999962	6.69369984	1.00800002	200	0	0
9.39299965	6.6935997	1.00899994	200	0	0
9.39700031	6.69349957	1.00800002	200	0	0
9.39700031	6.69340086	1.00800002	200	0	0
9.40200043	6.69309998	1.02400005	200	0	0
9.39700031	6.6928997	1.02499998	200	0	0
9.39299965	6.69229984	1.02600002	200	0	0
9.41300011	6.69219971	1.023	200	0	0
9.40299988	6.69210005	1.02400005	200	0	0
9.39999962	6.69159985	1.04100001	200	0	0
9.40400028	6.69150066	1.04100001	200	0	0
9.40400028	6.69000006	1.04200006	200	0	0
9.39999962	6.69049978	1.04299998	200	0	0
9.39900017	6.69039965	1.04299998	200	0	0
9.40200043	6.69020033	1.04299998	200	0	0
9.39700031	6.69010019	1.04400003	200	0	0
9.39700031	6.68989992	1.04400003	200	0	0
9.39999962	6.69059992	1.04299998	200	0	0
9.40999985	6.69109964	1.04200006	200	0	0
9.40299988	6.69080019	1.04299998	200	0	0
9.40200043	6.69070005	1.04299998	200	0	0
9.41499996	6.69219971	1.03900003	200	0	0
9.40400028	6.69140005	1.04100001	200	0	0
9.39799976	6.69129992	1.04200006	200	0	0
9.40200043	6.69119978	1.04299998	200	0	0
9.39299965	6.69180012	1.04200006	200	0	0
9.40400028	6.69169998	1.04100001	200	0	0
9.35299969	6.69369984	-0.68599999	200	0	0
9.3409996	6.69460011	-0.646000028	200	0	0
9.34700012	6.69439983	-0.648000002	200	0	0
9.3409996	6.6940999	-0.681999981	200	0	0
9.34899998	6.69400072	-0.685000002	200	0	0
9.35099983	6.69390011	-0.685000002	200	0	0
9.35200024	6.69379997	-0.68599999	200	0	0
9.35299969	6.69349957	-0.703999996	200	0	0
9.33699989	6.69340086	-0.699000001	200	0	0
9.34500027	6.6928997	-0.702000022	200	0	0
9.34399986	6.69320011	-0.700999975	200	0	0
9.34000015	6.69299984	-0.699999988	200	0	0
9.33899975	6.69309998	-0.699000001	200	0	0
9.34399986	6.69400072	-0.700999975	200	0	0
9.35000038	6.69420004	-0.685000002	200	0	0
9.34500027	6.69379997	-0.702000022	200	0	0
9.34700012	6.6935997	-0.702000022	200	0	0
9.3380003	6.69369984	-0.699000001	200	0	0
9.35400009	6.6942997	-0.686999977	200	0	0
9.32600021	6.69460011	-0.676999986	200	0	0
9.34200001	6.69420004	-0.700999975	200	0	0
9.34200001	6.6940999	-0.700999975	200	0	0
9.33899975	6.69129992	-0.717999995	200	0	0
9.34000015	6.69229984	-0.717999995	200	0	0
9.34300041	6.69140005	-0.718999982	200	0	0
9.32499981	6.69150066	-0.713	200	0	0
9.33699989	6.69159985	-0.717000008	200	0	0
9.32999992	6.69169998	-0.714999974	200	0	0
9.32900047	6.69180012	-0.713999987	200	0	0
9.33100033	6.69099998	-0.713	200	0	0
9.34000015	6.69109964	-0.716000021	200	0	0
9.33300018	6.69119978	-0.713999987	200	0	0
9.34200001	6.69070005	-0.717000008	200	0	0
9.33199978	6.69049978	-0.713999987	200	0	0
9.32199955	6.69039965	-0.709999979	200	0	0
9.33899975	6.69109964	-0.734000027	200	0	0
9.34399986	6.69119978	-0.736000001	200	0	0
9.34300041	6.69129992	-0.736999989	200	0	0
9.34399986	6.69180012	-0.737999976	200	0	0
9.32999992	6.69140005	-0.73299998	200	0	0
9.33500004	6.69169998	-0.735000014	200	0	0
9.33899975	6.69150066	-0.736000001	200	0	0
9.33500004	6.69159985	-0.735000014	200	0	0
9.33399963	6.69099998	-0.731999993	200	0	0
9.32299995	6.69049978	-0.728999972	200	0	0
9.33199978	6.69239998	-0.714999974	200	0	0
9.33699989	6.69219971	-0.735000014	200	0	0
9.3380003	6.6928997	-0.717000008	200	0	0
9.33699989	6.692801	-0.717000008	200	0	0
9.33100033	6.69270039	-0.714999974	200	0	0
9.32800007	6.69330025	-0.713999987	200	0	0
9.32600021	6.69320011	-0.713	200	0	0
9.33399963	6.69309998	-0.716000021	200	0	0
9.32699966	6.69299984	-0.713999987	200	0	0
9.33500004	6.69250011	-0.735000014	200	0	0
9.33199978	6.69239998	-0.734000027	200	0	0
9.34399986	6.69229984	-0.737999976	200	0	0
9.33500004	6.6928997	-0.734000027	200	0	0
9.32499981	6.692801	-0.731000006	200	0	0
9.33399963	6.69270039	-0.734000027	200	0	0
9.32999992	6.6935997	-0.714999974	200	0	0
9.33199978	6.69349957	-0.714999974	200	0	0
9.32299995	6.69340086	-0.712000012	200	0	0
9.33600044	6.69379997	-0.717000008	200	0	0
9.32900047	6.69309998	-0.73299998	200	0	0
9.32999992	6.69299984	-0.73299998	200	0	0
9.32199955	6.69390011	-0.712000012	200	0	0
9.32400036	6.6935997	-0.731000006	200	0	0
9.33300018	6.69349957	-0.734000027	200	0	0
9.32800007	6.69340086	-0.731999993	200	0	0
9.32400036	6.69330025	-0.731000006	200	0	0
9.32999992	6.69320011	-0.73299998	200	0	0
9.32600021	6.69379997	-0.731999993	200	0	0
9.33100033	6.69369984	-0.73299998	200	0	0
9.32800007	6.69159985	-0.768000007	200	0	0
9.33699989	6.69150066	-0.772000015	200	0	0
9.31499958	6.6909008	-0.762000024	200	0	0
9.34000015	6.69140005	-0.773000002	200	0	0
9.33600044	6.69129992	-0.771000028	200	0	0
9.33100033	6.69109964	-0.768000007	200	0	0
9.33300018	6.69119978	-0.768999994	200	0	0
9.31799984	6.69049978	-0.763000011	200	0	0
9.32400036	6.69229984	-0.76700002	200	0	0
9.33199978	6.69219971	-0.769999981	200	0	0
9.33100033	6.69169998	-0.769999981	200	0	0
9.32499981	6.69180012	-0.76700002	200	0	0
9.32699966	6.69270039	-0.768000007	200	0	0
9.32999992	6.69239998	-0.768999994	200	0	0
9.31099987	6.68979979	-0.759000003	200	0	0
9.32999992	6.692801	-0.768999994	200	0	0
9.34000015	6.69400072	-0.736000001	200	0	0
9.31799984	6.6940999	-0.728999972	200	0	0
9.32299995	6.6935997	-0.76700002	200	0	0
9.31900024	6.69349957	-0.764999986	200	0	0
9.31200027	6.69340086	-0.763000011	200	0	0
9.31999969	6.69330025	-0.765999973	200	0	0
9.31799984	6.6928997	-0.764999986	200	0	0
9.33600044	6.69299984	-0.771000028	200	0	0
9.33100033	6.69309998	-0.769999981	200	0	0
9.32400036	6.69320011	-0.76700002	200	0	0
9.30900002	6.69400072	-0.762000024	200	0	0
9.31900024	6.69369984	-0.764999986	200	0	0
9.33699989	6.69140005	-0.790000021	200	0	0
9.32699966	6.69129992	-0.786000013	200	0	0
9.32400036	6.69119978	-0.783999979	200	0	0
9.32699966	6.69099998	-0.785000026	200	0	0
9.3210001	6.69109964	-0.782999992	200	0	0
9.32699966	6.69180012	-0.787	200	0	0
9.33300018	6.69169998	-0.788999975	200	0	0
9.33100033	6.69150066	-0.787999988	200	0	0
9.32600021	6.69159985	-0.786000013	200	0	0
9.32299995	6.69219971	-0.785000026	200	0	0
9.32900047	6.69270039	-0.787	200	0	0
9.32600021	6.69239998	-0.786000013	200	0	0
9.33600044	6.69229984	-0.790000021	200	0	0
9.33100033	6.692801	-0.787999988	200	0	0
9.32499981	6.69309998	-0.786000013	200	0	0
9.32999992	6.69299984	-0.787999988	200	0	0
9.32800007	6.6928997	-0.787	200	0	0
9.3210001	6.69330025	-0.783999979	200	0	0
9.32499981	6.69320011	-0.786000013	200	0	0
9.38599968	6.69229984	1.04400003	200	0	0
9.38300037	6.69210005	1.04400003	200	0	0
9.38700008	6.69320011	1.04299998	200	0	0
9.38799953	6.69340086	1.02600002	200	0	0
9.39999962	6.69309998	1.04100001	200	0	0
9.40200043	6.69299984	1.04100001	200	0	0
9.40600014	6.69239998	1.03999996	200	0	0
9.39999962	6.6928997	1.04100001	200	0	0
9.3920002	6.69320011	1.02600002	200	0	0
9.40799999	6.692801	1.03999996	200	0	0
9.40400028	6.69270039	1.04100001	200	0	0
9.39599991	6.69299984	1.02499998	200	0	0
9.39599991	6.692801	1.02499998	200	0	0
9.40600014	6.69020033	1.07599998	200	0	0
9.38399982	6.69080019	1.079	200	0	0
9.40699959	6.69099998	1.07500005	200	0	0
9.40400028	6.6909008	1.07599998	200	0	0
9.40799999	6.69030094	1.07500005	200	0	0
9.39700031	6.69049978	1.07700002	200	0	0
9.40600014	6.69039965	1.07599998	200	0	0
9.39500046	6.69059992	1.07700002	200	0	0
9.40200043	6.69070005	1.07599998	200	0	0
9.39599991	6.69109964	1.07700002	200	0	0
9.40400028	6.69210005	1.074	200	0	0
9.40499973	6.69119978	1.07599998	200	0	0
9.40999985	6.69129992	1.07299995	200	0	0
9.40799999	6.69140005	1.074	200	0	0
9.40499973	6.69180012	1.074	200	0	0
9.40200043	6.69150066	1.07500005	200	0	0
9.40499973	6.69169998	1.074	200	0	0
9.40799999	6.69159985	1.074	200	0	0
9.40299988	6.69140005	1.09099996	200	0	0
9.39900017	6.6909008	1.09300005	200	0	0
9.39900017	6.69070005	1.09300005	200	0	0
9.39999962	6.69080019	1.09300005	200	0	0
9.41100025	6.69099998	1.09200001	200	0	0
9.40299988	6.68979979	1.09500003	200	0	0
9.41300011	6.69059992	1.09099996	200	0	0
9.40400028	6.69049978	1.09300005	200	0	0
9.40499973	6.69000006	1.09300005	200	0	0
9.40200043	6.69039965	1.09300005	200	0	0
9.40299988	6.69010019	1.09300005	200	0	0
9.40200043	6.69020033	1.09300005	200	0	0
9.40600014	6.69030094	1.09200001	200	0	0
9.40299988	6.68979979	1.07799995	200	0	0
9.40100002	6.68989992	1.07700002	200	0	0
9.39400005	6.69000006	1.07799995	200	0	0
9.39500046	6.69010019	1.07700002	200	0	0
9.39400005	6.69109964	1.09399998	200	0	0
9.3920002	6.69340086	1.04299998	200	0	0
9.39500046	6.6935997	1.02499998	200	0	0
9.3920002	6.69330025	1.04299998	200	0	0
9.3920002	6.69349957	1.02600002	200	0	0
9.38799953	6.69379997	1.00999999	200	0	0
9.39799976	6.69180012	1.09200001	200	0	0
9.40400028	6.69169998	1.09099996	200	0	0
9.39400005	6.69150066	1.09300005	200	0	0
9.40799999	6.69159985	1.09099996	200	0	0
9.40499973	6.69119978	1.09300005	200	0	0
9.39999962	6.69129992	1.09200001	200	0	0
9.4119997	6.69219971	1.07299995	200	0	0
9.40499973	6.69229984	1.074	200	0	0
9.41100025	6.69270039	1.07299995	200	0	0
9.41100025	6.69210005	1.09000003	200	0	0
9.40400028	6.69129992	1.10800004	200	0	0
9.40799999	6.69229984	1.09099996	200	0	0
9.40600014	6.69150066	1.10800004	200	0	0
9.40400028	6.6909008	1.10899997	200	0	0
9.40600014	6.69020033	1.10899997	200	0	0
9.40600014	6.69010019	1.10899997	200	0	0
9.38099957	6.68969965	1.09800005	200	0	0
9.40600014	6.69030094	1.10899997	200	0	0
9.40200043	6.69099998	1.11000001	200	0	0
9.40400028	6.69080019	1.11000001	200	0	0
9.39500046	6.69070005	1.11099994	200	0	0
9.40200043	6.69059992	1.11000001	200	0	0
9.39900017	6.69039965	1.11000001	200	0	0
9.39999962	6.69049978	1.11000001	200	0	0
9.4090004	6.69039965	1.12600005	200	0	0
9.40999985	6.68989992	1.10899997	200	0	0
9.38899994	6.69000006	1.11199999	200	0	0
9.40100002	6.68979979	1.11199999	200	0	0
9.40400028	6.69119978	1.11000001	200	0	0
9.40499973	6.69109964	1.10899997	200	0	0
9.3920002	6.69390011	1.00899994	200	0	0
9.38700008	6.69400072	1.00999999	200	0	0
9.39000034	6.6940999	1.00899994	200	0	0
9.38700008	6.69420004	1.00999999	200	0	0
9.39999962	6.69439983	1.00800002	200	0	0
9.3920002	6.6942997	1.00899994	200	0	0
9.38099957	6.69449997	0.994000018	200	0	0
9.3920002	6.69439983	0.991999984	200	0	0
9.39599991	6.6942997	0.991999984	200	0	0
9.39700031	6.69439983	1.02499998	200	0	0
9.38899994	6.6942997	1.02600002	200	0	0
9.39700031	6.69369984	1.02499998	200	0	0
9.38199997	6.69420004	1.02699995	200	0	0
9.39700031	6.69379997	1.02499998	200	0	0
9.3920002	6.69390011	1.02600002	200	0	0
9.3920002	6.69400072	1.02600002	200	0	0
9.39799976	6.6940999	1.02499998	200	0	0
9.39400005	6.69400072	1.04200006	200	0	0
9.40200043	6.6935997	1.04100001	200	0	0
9.3920002	6.6942997	1.04299998	200	0	0
9.39400005	6.69420004	1.04200006	200	0	0
9.39900017	6.69349957	1.04200006	200	0	0
9.39400005	6.6940999	1.04200006	200	0	0
9.38199997	6.69379997	1.04400003	200	0	0
9.39000034	6.69369984	1.04299998	200	0	0
9.38899994	6.69390011	1.04299998	200	0	0
9.39700031	6.69320011	1.09200001	200	0	0
9.40600014	6.69340086	1.074	200	0	0
9.39799976	6.69309998	1.09200001	200	0	0
9.39599991	6.69330025	1.07599998	200	0	0
9.40799999	6.69299984	1.09099996	200	0	0
9.39400005	6.692801	1.09300005	200	0	0
9.40200043	6.6928997	1.09099996	200	0	0
9.40100002	6.69320011	1.07500005	200	0	0
9.41399956	6.69270039	1.09000003	200	0	0
9.38799953	6.69309998	1.07700002	200	0	0
9.40200043	6.69299984	1.07500005	200	0	0
9.40299988	6.6928997	1.07500005	200	0	0
9.39799976	6.692801	1.07500005	200	0	0
9.40699959	6.69210005	1.10699999	200	0	0
9.4090004	6.69219971	1.10699999	200	0	0
9.40299988	6.69180012	1.10800004	200	0	0
9.40200043	6.69169998	1.10800004	200	0	0
9.40600014	6.69159985	1.10800004	200	0	0
9.40699959	6.69169998	1.12399995	200	0	0
9.40799999	6.69180012	1.12399995	200	0	0
9.39799976	6.69229984	1.10899997	200	0	0
9.40400028	6.69129992	1.125	200	0	0
9.40499973	6.69150066	1.12399995	200	0	0
9.40499973	6.69159985	1.12399995	200	0	0
9.40100002	6.69439983	1.04100001	200	0	0
9.39900017	6.69449997	1.04200006	200	0	0
9.40400028	6.69369984	1.074	200	0	0
9.39999962	6.6935997	1.07500005	200	0	0
9.3920002	6.69349957	1.07599998	200	0	0
9.38700008	6.69379997	1.07700002	200	0	0
9.40200043	6.69449997	1.07500005	200	0	0
9.39700031	6.69390011	1.07500005	200	0	0
9.39299965	6.69439983	1.07599998	200	0	0
9.39299965	6.69400072	1.07599998	200	0	0
9.40299988	6.6942997	1.07500005	200	0	0
9.39999962	6.6940999	1.07500005	200	0	0
9.39999962	6.69420004	1.07500005	200	0	0
9.41300011	6.69340086	1.09000003	200	0	0
9.40200043	6.69330025	1.10800004	200	0	0
9.39599991	6.69379997	1.09200001	200	0	0
9.38799953	6.69369984	1.09399998	200	0	0
9.39599991	6.6935997	1.09200001	200	0	0
9.40100002	6.69349957	1.09200001	200	0	0
9.39700031	6.69330025	1.09200001	200	0	0
9.39999962	6.69320011	1.10899997	200	0	0
9.39900017	6.69309998	1.10899997	200	0	0
9.40200043	6.69299984	1.10800004	200	0	0
9.38899994	6.692801	1.11000001	200	0	0
9.40100002	6.6928997	1.10800004	200	0	0
9.39700031	6.69270039	1.10899997	200	0	0
9.40999985	6.68989992	1.12600005	200	0	0
9.39799976	6.69000006	1.12699997	200	0	0
9.4119997	6.69080019	1.125	200	0	0
9.39700031	6.69070005	1.12699997	200	0	0
9.39400005	6.69059992	1.12800002	200	0	0
9.39599991	6.69049978	1.12699997	200	0	0
9.4090004	6.69010019	1.12600005	200	0	0
9.39900017	6.69020033	1.12699997	200	0	0
9.40100002	6.69030094	1.12699997	200	0	0
9.40100002	6.69140005	1.125	200	0	0
9.39400005	6.69119978	1.12800002	200	0	0
9.40100002	6.69109964	1.12699997	200	0	0
9.39799976	6.69099998	1.12699997	200	0	0
9.40499973	6.6909008	1.12600005	200	0	0
9.39299965	6.69420004	1.09300005	200	0	0
9.39299965	6.6940999	1.09300005	200	0	0
9.40100002	6.69400072	1.09200001	200	0	0
9.39900017	6.69390011	1.09200001	200	0	0
9.41100025	6.69340086	1.10699999	200	0	0
9.39599991	6.6935997	1.10899997	200	0	0
9.39299965	6.69349957	1.11000001	200	0	0
9.40100002	6.69210005	1.125	200	0	0
9.38099957	6.68969965	1.13199997	200	0	0
9.40499973	6.69270039	1.12399995	200	0	0
9.38700008	6.69229984	1.12699997	200	0	0
9.40400028	6.69219971	1.125	200	0	0
9.32600021	6.69390011	-0.786000013	200	0	0
9.31599998	6.69369984	-0.782999992	200	0	0
9.33100033	6.6935997	-0.787999988	200	0	0
9.32699966	6.69349957	-0.787	200	0	0
9.32600021	6.69340086	-0.786000013	200	0	0
9.33100033	6.6942997	-0.787999988	200	0	0
9.30200005	6.69420004	-0.777999997	200	0	0
9.33100033	6.69169998	-0.805999994	200	0	0
9.33500004	6.69159985	-0.808000028	200	0	0
9.34200001	6.69150066	-0.810000002	200	0	0
9.33199978	6.69129992	-0.806999981	200	0	0
9.33100033	6.69140005	-0.805999994	200	0	0
9.32900047	6.69109964	-0.80400002	200	0	0
9.33500004	6.69270039	-0.808000028	200	0	0
9.34399986	6.69239998	-0.81099999	200	0	0
9.34000015	6.69229984	-0.809000015	200	0	0
9.33199978	6.69180012	-0.806999981	200	0	0
9.34200001	6.69140005	-0.828999996	200	0	0
9.33199978	6.69109964	-0.823000014	200	0	0
9.32900047	6.69119978	-0.822000027	200	0	0
9.32800007	6.69159985	-0.824000001	200	0	0
9.3409996	6.69150066	-0.828000009	200	0	0
9.33500004	6.69169998	-0.825999975	200	0	0
9.33600044	6.69180012	-0.825999975	200	0	0
9.34700012	6.69020033	-0.810000002	200	0	0
9.34000015	6.692801	-0.809000015	200	0	0
9.33699989	6.69229984	-0.827000022	200	0	0
9.33300018	6.69239998	-0.824999988	200	0	0
9.33300018	6.69330025	-0.806999981	200	0	0
9.32900047	6.69320011	-0.805999994	200	0	0
9.3409996	6.69299984	-0.810000002	200	0	0
9.33199978	6.69309998	-0.806999981	200	0	0
9.33600044	6.6928997	-0.808000028	200	0	0
9.32499981	6.6935997	-0.80400002	200	0	0
9.33199978	6.692801	-0.824999988	200	0	0
9.33199978	6.69270039	-0.824999988	200	0	0
9.33100033	6.69330025	-0.824999988	200	0	0
9.33300018	6.69320011	-0.824999988	200	0	0
9.32499981	6.69309998	-0.823000014	200	0	0
9.33100033	6.69299984	-0.824999988	200	0	0
9.32699966	6.69400072	-0.805000007	200	0	0
9.33699989	6.6940999	-0.809000015	200	0	0
9.31000042	6.69420004	-0.799000025	200	0	0
9.31400013	6.69340086	-0.818000019	200	0	0
9.34000015	6.69439983	-0.810000002	200	0	0
9.33300018	6.69180012	-0.861999989	200	0	0
9.33199978	6.69140005	-0.861999989	200	0	0
9.33300018	6.69150066	-0.861999989	200	0	0
9.32900047	6.69159985	-0.861000001	200	0	0
9.32299995	6.69169998	-0.859000027	200	0	0
9.32699966	6.69129992	-0.842000008	200	0	0
9.32999992	6.6928997	-0.842000008	200	0	0
9.32499981	6.69210005	-0.859000027	200	0	0
9.32900047	6.69229984	-0.861000001	200	0	0
9.31999969	6.69309998	-0.856999993	200	0	0
9.32600021	6.69299984	-0.859000027	200	0	0
9.32900047	6.6928997	-0.860000014	200	0	0
9.33100033	6.69270039	-0.861000001	200	0	0
9.31999969	6.692801	-0.856999993	200	0	0
9.34599972	6.69239998	-0.866999984	200	0	0
9.33699989	6.68969965	-0.822000027	200	0	0
9.32400036	6.69320011	-0.859000027	200	0	0
9.34700012	6.6940999	-0.829999983	200	0	0
9.33100033	6.69420004	-0.824999988	200	0	0
9.34799957	6.69460011	-0.79400003	200	0	0
9.28299999	6.69449997	-0.806999981	200	0	0
9.31900024	6.69330025	-0.856999993	200	0	0
9.30000019	6.69420004	-0.850000024	200	0	0
9.3039999	6.6909008	-0.867999971	200	0	0
9.32900047	6.69180012	-0.879000008	200	0	0
9.32699966	6.69169998	-0.878000021	200	0	0
9.33399963	6.69150066	-0.880999982	200	0	0
9.33199978	6.69140005	-0.879999995	200	0	0
9.32499981	6.69159985	-0.876999974	200	0	0
9.32699966	6.69129992	-0.878000021	200	0	0
9.34300041	6.69099998	-0.882000029	200	0	0
9.32600021	6.69210005	-0.878000021	200	0	0
9.33199978	6.69239998	-0.879999995	200	0	0
9.32699966	6.69229984	-0.878000021	200	0	0
9.31999969	6.69309998	-0.875999987	200	0	0
9.33300018	6.692801	-0.880999982	200	0	0
9.32999992	6.6928997	-0.879000008	200	0	0
9.31599998	6.69299984	-0.874000013	200	0	0
9.32400036	6.69270039	-0.876999974	200	0	0
9.31900024	6.69320011	-0.875	200	0	0
9.32600021	6.69340086	-0.878000021	200	0	0
9.32299995	6.69330025	-0.876999974	200	0	0
9.39299965	6.692801	1.12600005	200	0	0
9.39700031	6.69369984	1.12600005	200	0	0
9.39700031	6.69390011	1.10899997	200	0	0
9.39400005	6.6935997	1.12600005	200	0	0
9.40100002	6.69379997	1.10800004	200	0	0
9.39400005	6.69349957	1.12600005	200	0	0
9.39900017	6.6928997	1.125	200	0	0
9.38599968	6.69340086	1.12699997	200	0	0
9.39799976	6.69299984	1.12600005	200	0	0
9.39500046	6.69330025	1.12600005	200	0	0
9.40200043	6.69309998	1.125	200	0	0
9.39599991	6.69320011	1.12600005	200	0	0
9.39500046	6.69369984	1.10899997	200	0	0
9.38700008	6.68979979	1.16400003	200	0	0
9.41300011	6.69070005	1.15900004	200	0	0
9.39999962	6.69059992	1.15999997	200	0	0
9.38899994	6.69039965	1.16199994	200	0	0
9.40799999	6.68989992	1.15900004	200	0	0
9.40799999	6.69049978	1.15900004	200	0	0
9.39999962	6.69000006	1.16100001	200	0	0
9.39799976	6.69010019	1.16100001	200	0	0
9.40400028	6.69020033	1.15999997	200	0	0
9.40999985	6.69030094	1.15900004	200	0	0
9.39999962	6.69080019	1.17700005	200	0	0
9.39999962	6.69129992	1.15900004	200	0	0
9.41100025	6.69119978	1.15900004	200	0	0
9.39099979	6.69109964	1.16199994	200	0	0
9.40799999	6.69099998	1.15900004	200	0	0
9.40600014	6.6909008	1.15999997	200	0	0
9.40699959	6.69080019	1.15900004	200	0	0
9.40600014	6.69150066	1.15799999	200	0	0
9.40100002	6.69140005	1.15900004	200	0	0
9.40600014	6.69059992	1.176	200	0	0
9.40799999	6.69049978	1.176	200	0	0
9.41600037	6.69070005	1.17499995	200	0	0
9.40699959	6.69109964	1.176	200	0	0
9.39500046	6.69159985	1.15900004	200	0	0
9.40100002	6.69169998	1.15900004	200	0	0
9.39500046	6.69239998	1.15900004	200	0	0
9.40699959	6.69180012	1.15799999	200	0	0
9.39900017	6.69229984	1.15900004	200	0	0
9.39999962	6.69219971	1.15900004	200	0	0
9.40200043	6.69210005	1.15799999	200	0	0
9.40999985	6.69129992	1.17400002	200	0	0
9.40799999	6.69140005	1.17400002	200	0	0
9.40200043	6.6909008	1.17700005	200	0	0
9.40600014	6.69099998	1.176	200	0	0
9.40499973	6.69180012	1.17499995	200	0	0
9.40400028	6.69169998	1.17499995	200	0	0
9.40200043	6.69119978	1.17700005	200	0	0
9.40600014	6.69159985	1.17499995	200	0	0
9.40600014	6.69150066	1.17499995	200	0	0
9.41100025	6.69039965	1.176	200	0	0
9.40499973	6.69020033	1.176	200	0	0
9.40999985	6.69030094	1.176	200	0	0
9.41399956	6.68979979	1.19400001	200	0	0
9.39900017	6.68989992	1.19400001	200	0	0
9.41600037	6.69010019	1.17499995	200	0	0
9.40299988	6.69000006	1.17700005	200	0	0
9.40699959	6.68979979	1.17799997	200	0	0
9.40600014	6.68989992	1.176	200	0	0
9.41100025	6.69099998	1.19200003	200	0	0
9.38799953	6.69390011	1.12699997	200	0	0
9.39999962	6.6940999	1.10899997	200	0	0
9.39400005	6.69379997	1.12600005	200	0	0
9.39799976	6.69400072	1.10899997	200	0	0
9.39299965	6.6942997	1.09300005	200	0	0
9.39500046	6.69229984	1.176	200	0	0
9.40600014	6.69219971	1.17499995	200	0	0
9.39799976	6.69210005	1.176	200	0	0
9.40299988	6.69159985	1.19200003	200	0	0
9.40299988	6.69150066	1.19200003	200	0	0
9.4090004	6.69129992	1.19099998	200	0	0
9.39999962	6.69270039	1.15900004	200	0	0
9.39900017	6.69309998	1.15900004	200	0	0
9.39999962	6.69299984	1.15900004	200	0	0
9.39400005	6.692801	1.15999997	200	0	0
9.4119997	6.6928997	1.15699995	200	0	0
9.4090004	6.69239998	1.17400002	200	0	0
9.39700031	6.69180012	1.19299996	200	0	0
9.40200043	6.69080019	1.19299996	200	0	0
9.39400005	6.6909008	1.19500005	200	0	0
9.40299988	6.69169998	1.19200003	200	0	0
9.39599991	6.69109964	1.19400001	200	0	0
9.40400028	6.69140005	1.19200003	200	0	0
9.39299965	6.692801	1.176	200	0	0
9.39400005	6.69270039	1.176	200	0	0
9.40400028	6.69039965	1.19299996	200	0	0
9.40600014	6.69049978	1.19299996	200	0	0
9.40699959	6.69059992	1.19299996	200	0	0
9.40299988	6.69070005	1.19299996	200	0	0
9.39700031	6.69000006	1.19400001	200	0	0
9.40699959	6.69030094	1.19299996	200	0	0
9.40499973	6.69010019	1.19299996	200	0	0
9.40299988	6.69020033	1.19299996	200	0	0
9.41100025	6.69070005	1.20899999	200	0	0
9.40699959	6.69080019	1.20899999	200	0	0
9.40799999	6.69049978	1.20899999	200	0	0
9.39900017	6.6909008	1.21099997	200	0	0
9.40600014	6.68989992	1.21000004	200	0	0
9.39299965	6.69000006	1.21099997	200	0	0
9.39299965	6.69010019	1.21099997	200	0	0
9.39999962	6.69059992	1.21099997	200	0	0
9.40799999	6.69020033	1.20899999	200	0	0
9.40499973	6.69030094	1.21000004	200	0	0
9.40200043	6.69039965	1.21000004	200	0	0
9.40799999	6.69129992	1.20799994	200	0	0
9.40499973	6.69439983	1.09099996	200	0	0
9.38700008	6.69449997	1.09399998	200	0	0
9.39500046	6.69420004	1.10899997	200	0	0
9.38500023	6.69449997	1.11099994	200	0	0
9.39000034	6.69439983	1.11000001	200	0	0
9.39700031	6.6942997	1.10899997	200	0	0
9.39700031	6.69449997	1.12600005	200	0	0
9.38700008	6.69439983	1.12699997	200	0	0
9.39299965	6.6942997	1.12600005	200	0	0
9.39099979	6.69420004	1.12699997	200	0	0
9.39099979	6.6940999	1.12699997	200	0	0
9.39799976	6.69400072	1.12600005	200	0	0
9.39299965	6.69369984	1.176	200	0	0
9.39500046	6.69390011	1.15900004	200	0	0
9.40299988	6.6935997	1.17499995	200	0	0
9.39799976	6.69379997	1.15900004	200	0	0
9.39299965	6.69349957	1.176	200	0	0
9.40100002	6.6928997	1.17499995	200	0	0
9.39299965	6.69299984	1.176	200	0	0
9.39799976	6.69340086	1.176	200	0	0
9.39900017	6.69320011	1.176	200	0	0
9.40299988	6.69309998	1.17499995	200	0	0
9.40200043	6.69330025	1.17499995	200	0	0
9.39999962	6.69369984	1.15900004	200	0	0
9.40400028	6.6935997	1.15799999	200	0	0
9.40200043	6.69349957	1.15900004	200	0	0
9.40400028	6.69340086	1.15799999	200	0	0
9.39999962	6.69330025	1.15900004	200	0	0
9.39900017	6.69320011	1.15900004	200	0	0
9.40699959	6.69309998	1.19099998	200	0	0
9.40100002	6.6928997	1.19200003	200	0	0
9.39799976	6.692801	1.19200003	200	0	0
9.39900017	6.69239998	1.19200003	200	0	0
9.39099979	6.69229984	1.19299996	200	0	0
9.39000034	6.69210005	1.19400001	200	0	0
9.40600014	6.69219971	1.19099998	200	0	0
9.40499973	6.69219971	1.20799994	200	0	0
9.3920002	6.69210005	1.21000004	200	0	0
9.40999985	6.69140005	1.20799994	200	0	0
9.39900017	6.69150066	1.20899999	200	0	0
9.39900017	6.69169998	1.20899999	200	0	0
9.40400028	6.69180012	1.20799994	200	0	0
9.40400028	6.69159985	1.20799994	200	0	0
9.40499973	6.69229984	1.20799994	200	0	0
9.39700031	6.69270039	1.19299996	200	0	0
9.40499973	6.69099998	1.21000004	200	0	0
9.39700031	6.69109964	1.21099997	200	0	0
9.39700031	6.69119978	1.21099997	200	0	0
9.39500046	6.69420004	1.15900004	200	0	0
9.39999962	6.6940999	1.15900004	200	0	0
9.39799976	6.69400072	1.15900004	200	0	0
9.39400005	6.69390011	1.176	200	0	0
9.40200043	6.69379997	1.17499995	200	0	0
9.39500046	6.69439983	1.15900004	200	0	0
9.39999962	6.69449997	1.17499995	200	0	0
9.39400005	6.69379997	1.19299996	200	0	0
9.39700031	6.69400072	1.176	200	0	0
9.39999962	6.69369984	1.19200003	200	0	0
9.39599991	6.69299984	1.19299996	200	0	0
9.40100002	6.6935997	1.19200003	200	0	0
9.40100002	6.69349957	1.19200003	200	0	0
9.39799976	6.69320011	1.19299996	200	0	0
9.39400005	6.69330025	1.19299996	200	0	0
9.40400028	6.69340086	1.19200003	200	0	0
9.38799953	6.6942997	1.17700005	200	0	0
9.37899971	6.69420004	1.17799997	200	0	0
9.39799976	6.6940999	1.176	200	0	0
9.39999962	6.692801	1.20899999	200	0	0
9.40400028	6.68979979	1.21200001	200	0	0
9.39900017	6.6942997	1.19200003	200	0	0
9.39999962	6.69420004	1.19200003	200	0	0
9.38300037	6.69460011	1.17799997	200	0	0
9.39299965	6.69439983	1.176	200	0	0
9.38899994	6.6940999	1.19400001	200	0	0
9.39500046	6.69400072	1.19299996	200	0	0
9.39700031	6.69390011	1.19299996	200	0	0
9.39999962	6.6935997	1.20899999	200	0	0
9.39900017	6.69340086	1.20899999	200	0	0
9.40100002	6.69349957	1.20899999	200	0	0
9.39500046	6.69239998	1.21000004	200	0	0
9.40200043	6.69320011	1.20899999	200	0	0
9.40100002	6.69309998	1.20899999	200	0	0
9.39299965	6.69299984	1.21000004	200	0	0
9.40799999	6.6928997	1.20799994	200	0	0
9.40100002	6.69270039	1.20899999	200	0	0
9.32800007	6.69210005	-0.897000015	200	0	0
9.32800007	6.69140005	-0.897000015	200	0	0
9.3380003	6.69180012	-0.901000023	200	0	0
9.3380003	6.69169998	-0.901000023	200	0	0
9.33199978	6.69150066	-0.898999989	200	0	0
9.33699989	6.69159985	-0.899999976	200	0	0
9.34200001	6.69129992	-0.90200001	200	0	0
9.31799984	6.69119978	-0.89200002	200	0	0
9.32900047	6.69229984	-0.898000002	200	0	0
9.32800007	6.69309998	-0.897000015	200	0	0
9.32999992	6.69239998	-0.898000002	200	0	0
9.32999992	6.69299984	-0.898000002	200	0	0
9.32999992	6.6928997	-0.898000002	200	0	0
9.33399963	6.69270039	-0.898999989	200	0	0
9.33100033	6.692801	-0.898000002	200	0	0
9.33500004	6.69180012	-0.917999983	200	0	0
9.34000015	6.69169998	-0.920000017	200	0	0
9.33899975	6.69159985	-0.920000017	200	0	0
9.3409996	6.69140005	-0.920000017	200	0	0
9.32400036	6.69150066	-0.913999975	200	0	0
9.32299995	6.69129992	-0.912999988	200	0	0
9.33199978	6.69210005	-0.916999996	200	0	0
9.32400036	6.69320011	-0.896000028	200	0	0
9.31900024	6.69270039	-0.912	200	0	0
9.33399963	6.69239998	-0.917999983	200	0	0
9.32800007	6.69229984	-0.915000021	200	0	0
9.32400036	6.692801	-0.913999975	200	0	0
9.31900024	6.69330025	-0.893999994	200	0	0
9.32800007	6.69309998	-0.915000021	200	0	0
9.33199978	6.6928997	-0.916999996	200	0	0
9.32299995	6.69299984	-0.913999975	200	0	0
9.33600044	6.69320011	-0.917999983	200	0	0
9.32999992	6.69330025	-0.916000009	200	0	0
9.32800007	6.69150066	-0.953000009	200	0	0
9.32299995	6.69210005	-0.949999988	200	0	0
9.32999992	6.69159985	-0.953000009	200	0	0
9.32800007	6.69169998	-0.953000009	200	0	0
9.32999992	6.69180012	-0.953000009	200	0	0
9.32900047	6.69129992	-0.953000009	200	0	0
9.32800007	6.69239998	-0.952000022	200	0	0
9.32499981	6.69229984	-0.950999975	200	0	0
9.32400036	6.69270039	-0.950999975	200	0	0
9.31900024	6.692801	-0.949000001	200	0	0
9.32499981	6.6928997	-0.950999975	200	0	0
9.32199955	6.69299984	-0.949999988	200	0	0
9.32299995	6.69309998	-0.949999988	200	0	0
9.30500031	6.69320011	-0.944000006	200	0	0
9.32299995	6.69140005	-0.968999982	200	0	0
9.32999992	6.69210005	-0.972000003	200	0	0
9.32800007	6.69159985	-0.971000016	200	0	0
9.32199955	6.69150066	-0.967999995	200	0	0
9.32499981	6.69180012	-0.970000029	200	0	0
9.32400036	6.69169998	-0.968999982	200	0	0
9.32499981	6.69239998	-0.970000029	200	0	0
9.31599998	6.692801	-0.966000021	200	0	0
9.31999969	6.69270039	-0.967999995	200	0	0
9.32600021	6.6928997	-0.970000029	200	0	0
9.32199955	6.69320011	-0.968999982	200	0	0
9.31599998	6.69299984	-0.966000021	200	0	0
9.30799961	6.69309998	-0.963	200	0	0
9.3920002	6.69330025	1.21000004	200	0	0
9.38300037	6.69420004	1.21099997	200	0	0
9.37800026	6.6940999	1.21200001	200	0	0
9.39799976	6.69439983	1.19200003	200	0	0
9.38700008	6.69400072	1.21099997	200	0	0
9.39900017	6.69390011	1.20899999	200	0	0
9.39400005	6.69379997	1.21000004	200	0	0
9.40100002	6.69369984	1.20899999	200	0	0
9.41100025	6.68979979	1.26100004	200	0	0
9.40600014	6.68989992	1.25999999	200	0	0
9.40200043	6.69030094	1.24399996	200	0	0
9.41499996	6.69020033	1.24199998	200	0	0
9.40499973	6.69010019	1.24300003	200	0	0
9.40799999	6.69000006	1.24300003	200	0	0
9.4090004	6.68989992	1.24300003	200	0	0
9.41100025	6.69119978	1.24199998	200	0	0
9.39599991	6.69109964	1.24399996	200	0	0
9.39999962	6.69039965	1.24399996	200	0	0
9.40799999	6.69099998	1.24300003	200	0	0
9.40200043	6.6909008	1.24399996	200	0	0
9.40799999	6.69049978	1.24300003	200	0	0
9.40799999	6.69059992	1.24300003	200	0	0
9.41300011	6.69080019	1.24199998	200	0	0
9.41100025	6.69070005	1.24199998	200	0	0
9.40600014	6.69049978	1.25999999	200	0	0
9.40400028	6.69030094	1.25999999	200	0	0
9.39500046	6.69039965	1.26100004	200	0	0
9.40699959	6.69000006	1.25999999	200	0	0
9.41100025	6.69020033	1.25899994	200	0	0
9.4090004	6.69070005	1.27600002	200	0	0
9.39799976	6.69129992	1.25899994	200	0	0
9.41399956	6.69150066	1.24000001	200	0	0
9.41499996	6.69119978	1.25899994	200	0	0
9.39999962	6.69109964	1.26100004	200	0	0
9.40100002	6.69140005	1.24199998	200	0	0
9.40400028	6.69059992	1.25999999	200	0	0
9.40999985	6.69099998	1.25899994	200	0	0
9.40200043	6.69070005	1.25999999	200	0	0
9.40600014	6.69080019	1.25999999	200	0	0
9.41600037	6.6909008	1.25800002	200	0	0
9.39500046	6.69129992	1.24300003	200	0	0
9.4090004	6.69140005	1.25800002	200	0	0
9.40499973	6.69180012	1.24199998	200	0	0
9.40400028	6.69169998	1.24199998	200	0	0
9.40699959	6.69159985	1.24100006	200	0	0
9.39400005	6.69010019	1.26100004	200	0	0
9.39999962	6.69159985	1.25899994	200	0	0
9.39599991	6.69150066	1.25999999	200	0	0
9.40400028	6.69210005	1.24199998	200	0	0
9.40799999	6.69169998	1.25800002	200	0	0
9.41399956	6.69219971	1.24000001	200	0	0
9.40600014	6.69239998	1.25800002	200	0	0
9.4090004	6.6928997	1.24100006	200	0	0
9.40499973	6.692801	1.24199998	200	0	0
9.39799976	6.69270039	1.24199998	200	0	0
9.41300011	6.69229984	1.24000001	200	0	0
9.40200043	6.69239998	1.24199998	200	0	0
9.40799999	6.69219971	1.25800002	200	0	0
9.40600014	6.69229984	1.25800002	200	0	0
9.4090004	6.69210005	1.25800002	200	0	0
9.40299988	6.69180012	1.25899994	200	0	0
9.40200043	6.69119978	1.27699995	200	0	0
9.40499973	6.68989992	1.29299998	200	0	0
9.39700031	6.69030094	1.278	200	0	0
9.40100002	6.69020033	1.27699995	200	0	0
9.38899994	6.69000006	1.27900004	200	0	0
9.39700031	6.69010019	1.278	200	0	0
9.39999962	6.68979979	1.27900004	200	0	0
9.40699959	6.68989992	1.27600002	200	0	0
9.40499973	6.69000006	1.29299998	200	0	0
9.39500046	6.69039965	1.278	200	0	0
9.40499973	6.69150066	1.27499998	200	0	0
9.40400028	6.69059992	1.27699995	200	0	0
9.40400028	6.69140005	1.27499998	200	0	0
9.39099979	6.69129992	1.27699995	200	0	0
9.38899994	6.69109964	1.27900004	200	0	0
9.39599991	6.69080019	1.278	200	0	0
9.39799976	6.6909008	1.27699995	200	0	0
9.39900017	6.69099998	1.27699995	200	0	0
9.38000011	6.69439983	1.21200001	200	0	0
9.39500046	6.6942997	1.21000004	200	0	0
9.39700031	6.69449997	1.19299996	200	0	0
9.39299965	6.692801	1.25999999	200	0	0
9.39799976	6.69299984	1.24300003	200	0	0
9.39999962	6.69270039	1.25899994	200	0	0
9.39900017	6.69210005	1.27600002	200	0	0
9.40600014	6.69180012	1.27499998	200	0	0
9.40699959	6.69169998	1.27499998	200	0	0
9.40499973	6.69159985	1.27499998	200	0	0
9.39400005	6.69320011	1.24300003	200	0	0
9.40600014	6.69309998	1.24199998	200	0	0
9.40600014	6.69299984	1.25800002	200	0	0
9.40799999	6.69309998	1.25800002	200	0	0
9.39799976	6.6935997	1.24300003	200	0	0
9.40400028	6.69349957	1.24199998	200	0	0
9.39500046	6.69340086	1.24300003	200	0	0
9.40100002	6.69330025	1.24199998	200	0	0
9.40799999	6.6928997	1.25800002	200	0	0
9.40100002	6.69180012	1.29200006	200	0	0
9.39400005	6.69229984	1.27600002	200	0	0
9.39000034	6.69219971	1.27699995	200	0	0
9.39500046	6.69049978	1.278	200	0	0
9.39900017	6.69080019	1.29400003	200	0	0
9.40600014	6.6909008	1.29299998	200	0	0
9.39799976	6.69330025	1.25899994	200	0	0
9.39700031	6.69320011	1.25899994	200	0	0
9.39599991	6.69119978	1.29400003	200	0	0
9.39799976	6.69020033	1.29400003	200	0	0
9.39799976	6.69030094	1.29400003	200	0	0
9.39999962	6.69109964	1.29400003	200	0	0
9.38899994	6.69099998	1.29499996	200	0	0
9.38899994	6.69049978	1.29499996	200	0	0
9.39999962	6.69039965	1.29400003	200	0	0
9.3920002	6.69059992	1.29499996	200	0	0
9.39299965	6.69070005	1.29499996	200	0	0
9.39400005	6.69129992	1.29299998	200	0	0
9.39999962	6.69010019	1.29400003	200	0	0
9.40299988	6.69140005	1.29200006	200	0	0
9.40100002	6.68979979	1.296	200	0	0
9.38799953	6.69169998	1.29400003	200	0	0
9.39299965	6.69159985	1.29299998	200	0	0
9.3920002	6.69150066	1.29299998	200	0	0
9.39500046	6.69420004	1.25999999	200	0	0
9.38899994	6.69439983	1.24399996	200	0	0
9.39700031	6.6940999	1.25899994	200	0	0
9.40100002	6.6942997	1.24199998	200	0	0
9.39900017	6.69340086	1.25899994	200	0	0
9.39700031	6.69400072	1.25899994	200	0	0
9.38599968	6.69349957	1.26100004	200	0	0
9.39500046	6.69390011	1.25999999	200	0	0
9.39500046	6.6935997	1.25999999	200	0	0
9.39500046	6.69369984	1.25999999	200	0	0
9.39900017	6.69379997	1.25899994	200	0	0
9.39700031	6.69420004	1.24300003	200	0	0
9.39700031	6.6940999	1.24300003	200	0	0
9.3920002	6.69400072	1.24300003	200	0	0
9.39999962	6.69390011	1.24199998	200	0	0
9.38599968	6.69369984	1.24399996	200	0	0
9.39700031	6.69379997	1.24300003	200	0	0
9.39500046	6.6935997	1.27600002	200	0	0
9.3920002	6.69349957	1.27699995	200	0	0
9.40100002	6.69270039	1.27600002	200	0	0
9.3920002	6.69340086	1.27699995	200	0	0
9.39400005	6.692801	1.27600002	200	0	0
9.3920002	6.6928997	1.27699995	200	0	0
9.39400005	6.69330025	1.27699995	200	0	0
9.39400005	6.69299984	1.27699995	200	0	0
9.39599991	6.69320011	1.27600002	200	0	0
9.39900017	6.69309998	1.27600002	200	0	0
9.40100002	6.69239998	1.27600002	200	0	0
9.40400028	6.69219971	1.29200006	200	0	0
9.39900017	6.69270039	1.29200006	200	0	0
9.39000034	6.69229984	1.29400003	200	0	0
9.40299988	6.69239998	1.29200006	200	0	0
9.40100002	6.692801	1.29200006	200	0	0
9.39700031	6.69439983	1.25899994	200	0	0
9.40299988	6.6942997	1.25899994	200	0	0
9.37800026	6.69460011	1.26199996	200	0	0
9.40100002	6.69369984	1.29200006	200	0	0
9.39000034	6.6942997	1.27699995	200	0	0
9.3920002	6.69420004	1.27699995	200	0	0
9.39599991	6.6940999	1.27600002	200	0	0
9.40100002	6.69400072	1.27600002	200	0	0
9.38700008	6.69390011	1.27699995	200	0	0
9.3920002	6.69369984	1.27699995	200	0	0
9.39799976	6.69379997	1.27600002	200	0	0
9.40100002	6.69340086	1.29200006	200	0	0
9.39299965	6.69330025	1.29299998	200	0	0
9.39400005	6.69309998	1.29299998	200	0	0
9.39099979	6.69299984	1.29400003	200	0	0
9.38899994	6.6928997	1.29400003	200	0	0
9.3920002	6.69439983	1.27699995	200	0	0
9.40200043	6.69400072	1.29200006	200	0	0
9.39000034	6.69390011	1.29400003	200	0	0
9.39900017	6.69379997	1.29299998	200	0	0
9.38899994	6.69349957	1.29400003	200	0	0
9.38899994	6.6935997	1.29400003	200	0	0
9.33300018	6.69180012	-0.990999997	200	0	0
9.32999992	6.69239998	-0.99000001	200	0	0
9.32299995	6.69219971	-0.987999976	200	0	0
9.32199955	6.69210005	-0.986999989	200	0	0
9.32900047	6.69169998	-0.99000001	200	0	0
9.32999992	6.69150066	-0.99000001	200	0	0
9.32999992	6.69129992	-0.99000001	200	0	0
9.31999969	6.69159985	-0.986000001	200	0	0
9.32600021	6.692801	-0.989000022	200	0	0
9.32699966	6.6928997	-0.989000022	200	0	0
9.32400036	6.69299984	-0.987999976	200	0	0
9.31200027	6.69330025	-0.984000027	200	0	0
9.31099987	6.69320011	-0.98299998	200	0	0
9.30099964	6.69309998	-0.978999972	200	0	0
9.32999992	6.69270039	-0.99000001	200	0	0
9.32999992	6.69219971	-1.00899994	200	0	0
9.32900047	6.69140005	-1.00800002	200	0	0
9.33600044	6.69150066	-1.01100004	200	0	0
9.32800007	6.69210005	-1.00800002	200	0	0
9.33399963	6.69169998	-1.00999999	200	0	0
9.32299995	6.69159985	-1.00600004	200	0	0
9.32699966	6.69180012	-1.00800002	200	0	0
9.32699966	6.69239998	-1.00800002	200	0	0
9.33100033	6.69250011	-1.00899994	200	0	0
9.32800007	6.6928997	-1.00800002	200	0	0
9.32299995	6.692801	-1.00600004	200	0	0
9.3210001	6.69270039	-1.00600004	200	0	0
9.33199978	6.69299984	-1.00899994	200	0	0
9.30799961	6.69320011	-1.00100005	200	0	0
9.33399963	6.69330025	-1.00999999	200	0	0
9.31999969	6.69180012	-1.04200006	200	0	0
9.32999992	6.69150066	-1.046	200	0	0
9.32199955	6.69169998	-1.04299998	200	0	0
9.32199955	6.69140005	-1.04299998	200	0	0
9.32400036	6.69239998	-1.04400003	200	0	0
9.32299995	6.69219971	-1.04299998	200	0	0
9.32199955	6.69210005	-1.04299998	200	0	0
9.32299995	6.692801	-1.04299998	200	0	0
9.32499981	6.69270039	-1.04400003	200	0	0
9.31700039	6.69299984	-1.04100001	200	0	0
9.31799984	6.6928997	-1.04100001	200	0	0
9.31999969	6.69169998	-1.06099999	200	0	0
9.32299995	6.69150066	-1.06200004	200	0	0
9.31000042	6.69140005	-1.05700004	200	0	0
9.29300022	6.69129992	-1.04999995	200	0	0
9.32299995	6.69180012	-1.06200004	200	0	0
9.31900024	6.69219971	-1.05999994	200	0	0
9.31799984	6.69210005	-1.05999994	200	0	0
9.31999969	6.692801	-1.06099999	200	0	0
9.3210001	6.69270039	-1.06099999	200	0	0
9.31700039	6.6928997	-1.05999994	200	0	0
9.31000042	6.69330025	-1.05700004	200	0	0
9.37699986	6.69460011	1.29499996	200	0	0
9.39299965	6.69449997	1.29299998	200	0	0
9.39099979	6.69439983	1.29400003	200	0	0
9.38000011	6.6940999	1.29499996	200	0	0
9.39799976	6.6942997	1.29299998	200	0	0
9.39099979	6.69420004	1.29400003	200	0	0
9.41499996	6.68989992	1.35899997	200	0	0
9.40200043	6.69049978	1.32700002	200	0	0
9.41399956	6.69030094	1.34200001	200	0	0
9.40999985	6.69020033	1.34300005	200	0	0
9.38700008	6.68969965	1.347	200	0	0
9.4119997	6.69039965	1.32599998	200	0	0
9.4119997	6.69010019	1.34200001	200	0	0
9.40100002	6.68979979	1.34599996	200	0	0
9.41100025	6.69000006	1.34300005	200	0	0
9.39999962	6.69030094	1.32700002	200	0	0
9.40999985	6.68989992	1.34300005	200	0	0
9.41600037	6.69020033	1.32500005	200	0	0
9.4090004	6.69010019	1.32599998	200	0	0
9.39400005	6.68979979	1.33000004	200	0	0
9.39900017	6.69000006	1.32700002	200	0	0
9.40299988	6.68989992	1.32700002	200	0	0
9.38899994	6.69059992	1.329	200	0	0
9.41300011	6.69000006	1.35899997	200	0	0
9.4090004	6.69039965	1.34300005	200	0	0
9.39400005	6.69080019	1.32799995	200	0	0
9.39000034	6.69070005	1.32799995	200	0	0
9.40799999	6.69129992	1.34099996	200	0	0
9.40299988	6.69169998	1.32500005	200	0	0
9.40600014	6.69159985	1.32500005	200	0	0
9.41100025	6.6909008	1.32599998	200	0	0
9.4090004	6.69150066	1.32500005	200	0	0
9.40299988	6.69099998	1.32700002	200	0	0
9.39900017	6.69140005	1.32599998	200	0	0
9.39799976	6.69129992	1.32599998	200	0	0
9.40799999	6.69109964	1.32599998	200	0	0
9.40699959	6.69119978	1.32599998	200	0	0
9.40999985	6.69109964	1.34300005	200	0	0
9.41300011	6.69049978	1.34200001	200	0	0
9.41100025	6.6909008	1.34200001	200	0	0
9.41600037	6.69099998	1.34200001	200	0	0
9.41499996	6.69080019	1.34200001	200	0	0
9.42300034	6.69059992	1.34099996	200	0	0
9.4090004	6.69039965	1.35899997	200	0	0
9.40999985	6.69049978	1.35899997	200	0	0
9.41100025	6.69070005	1.34300005	200	0	0
9.4090004	6.69020033	1.35899997	200	0	0
9.41399956	6.69119978	1.35899997	200	0	0
9.4119997	6.69140005	1.34099996	200	0	0
9.40699959	6.69030094	1.36000001	200	0	0
9.40999985	6.69109964	1.35899997	200	0	0
9.40600014	6.69099998	1.36000001	200	0	0
9.40100002	6.6909008	1.36000001	200	0	0
9.40100002	6.69059992	1.36000001	200	0	0
9.40600014	6.69070005	1.36000001	200	0	0
9.4119997	6.69080019	1.35899997	200	0	0
9.40799999	6.69119978	1.34300005	200	0	0
9.41300011	6.69180012	1.34099996	200	0	0
9.39900017	6.69169998	1.34200001	200	0	0
9.39700031	6.69159985	1.34300005	200	0	0
9.40600014	6.69150066	1.34200001	200	0	0
9.40100002	6.69180012	1.32500005	200	0	0
9.41300011	6.69150066	1.35699999	200	0	0
9.41100025	6.69229984	1.324	200	0	0
9.40799999	6.69219971	1.32500005	200	0	0
9.40499973	6.69010019	1.36000001	200	0	0
9.40400028	6.69159985	1.35800004	200	0	0
9.40999985	6.69140005	1.35800004	200	0	0
9.4119997	6.69219971	1.34099996	200	0	0
9.39299965	6.69239998	1.32599998	200	0	0
9.40499973	6.69270039	1.32500005	200	0	0
9.41300011	6.69239998	1.35699999	200	0	0
9.40799999	6.6928997	1.34099996	200	0	0
9.40600014	6.69309998	1.32500005	200	0	0
9.40400028	6.692801	1.34200001	200	0	0
9.39799976	6.69299984	1.32599998	200	0	0
9.40600014	6.69270039	1.34200001	200	0	0
9.40799999	6.69229984	1.34099996	200	0	0
9.4090004	6.69239998	1.34099996	200	0	0
9.40999985	6.6928997	1.324	200	0	0
9.40999985	6.692801	1.324	200	0	0
9.40400028	6.69340086	1.32500005	200	0	0
9.38700008	6.69330025	1.32700002	200	0	0
9.40699959	6.69320011	1.32500005	200	0	0
9.40499973	6.69180012	1.35800004	200	0	0
9.40600014	6.69119978	1.37600005	200	0	0
9.40999985	6.69129992	1.37399995	200	0	0
9.40299988	6.69169998	1.35899997	200	0	0
9.39700031	6.69129992	1.35899997	200	0	0
9.41499996	6.69039965	1.375	200	0	0
9.40999985	6.69030094	1.37600005	200	0	0
9.40799999	6.69020033	1.37600005	200	0	0
9.40200043	6.68979979	1.37899995	200	0	0
9.41300011	6.69010019	1.37600005	200	0	0
9.39799976	6.69000006	1.37699997	200	0	0
9.40999985	6.68989992	1.37600005	200	0	0
9.38399982	6.68969965	1.36399996	200	0	0
9.41300011	6.69049978	1.37600005	200	0	0
9.41100025	6.69159985	1.37399995	200	0	0
9.41100025	6.69059992	1.37600005	200	0	0
9.40400028	6.69140005	1.375	200	0	0
9.40999985	6.69099998	1.37600005	200	0	0
9.40400028	6.69109964	1.37699997	200	0	0
9.41499996	6.6909008	1.375	200	0	0
9.40999985	6.69080019	1.37600005	200	0	0
9.40200043	6.69270039	1.35899997	200	0	0
9.39599991	6.6928997	1.35899997	200	0	0
9.40799999	6.692801	1.35800004	200	0	0
9.39799976	6.69330025	1.34300005	200	0	0
9.39799976	6.69349957	1.32599998	200	0	0
9.40999985	6.69320011	1.34099996	200	0	0
9.39500046	6.69309998	1.34300005	200	0	0
9.40600014	6.69299984	1.34200001	200	0	0
9.41300011	6.69219971	1.37399995	200	0	0
9.40200043	6.69229984	1.35899997	200	0	0
9.4090004	6.69219971	1.35800004	200	0	0
9.41300011	6.69180012	1.37399995	200	0	0
9.40299988	6.69369984	1.32500005	200	0	0
9.40400028	6.6935997	1.32500005	200	0	0
9.40100002	6.69349957	1.34200001	200	0	0
9.40600014	6.69340086	1.34200001	200	0	0
9.39900017	6.6935997	1.34200001	200	0	0
9.39799976	6.69379997	1.32599998	200	0	0
9.40600014	6.69369984	1.34200001	200	0	0
9.39700031	6.6940999	1.32599998	200	0	0
9.38899994	6.69400072	1.32700002	200	0	0
9.39900017	6.69390011	1.32599998	200	0	0
9.40400028	6.69229984	1.375	200	0	0
9.39599991	6.69150066	1.37600005	200	0	0
9.40499973	6.69169998	1.375	200	0	0
9.39700031	6.69070005	1.37800002	200	0	0
9.40600014	6.69379997	1.34200001	200	0	0
9.40799999	6.69320011	1.35800004	200	0	0
9.39599991	6.6940999	1.35899997	200	0	0
9.40699959	6.69420004	1.35800004	200	0	0
9.39000034	6.69390011	1.34399998	200	0	0
9.38399982	6.6940999	1.34399998	200	0	0
9.40499973	6.69400072	1.34200001	200	0	0
9.39999962	6.69439983	1.34200001	200	0	0
9.39799976	6.6942997	1.34300005	200	0	0
9.4090004	6.69420004	1.34099996	200	0	0
9.39400005	6.69449997	1.32599998	200	0	0
9.39599991	6.69439983	1.32599998	200	0	0
9.3920002	6.69420004	1.32700002	200	0	0
9.40100002	6.6942997	1.32599998	200	0	0
9.40100002	6.6935997	1.35899997	200	0	0
9.40400028	6.69349957	1.35899997	200	0	0
9.40200043	6.69400072	1.35899997	200	0	0
9.39700031	6.69390011	1.35899997	200	0	0
9.39900017	6.69369984	1.35899997	200	0	0
9.39700031	6.69309998	1.35899997	200	0	0
9.40200043	6.69330025	1.35899997	200	0	0
9.39400005	6.69379997	1.36000001	200	0	0
9.40400028	6.69340086	1.35899997	200	0	0
9.39900017	6.6935997	1.37600005	200	0	0
9.39799976	6.69349957	1.37600005	200	0	0
9.40299988	6.69340086	1.375	200	0	0
9.40200043	6.69299984	1.35899997	200	0	0
9.40299988	6.69270039	1.375	200	0	0
9.40999985	6.692801	1.37399995	200	0	0
9.40999985	6.69330025	1.37399995	200	0	0
9.40600014	6.69299984	1.375	200	0	0
9.40499973	6.6928997	1.375	200	0	0
9.40299988	6.69320011	1.375	200	0	0
9.39700031	6.69309998	1.37600005	200	0	0
9.41800022	6.69239998	1.37300003	200	0	0
9.38799953	6.69439983	1.36000001	200	0	0
9.39900017	6.69420004	1.37600005	200	0	0
9.39999962	6.6940999	1.37600005	200	0	0
9.39099979	6.6942997	1.36000001	200	0	0
9.40799999	6.69400072	1.375	200	0	0
9.39400005	6.69390011	1.37600005	200	0	0
9.39299965	6.69379997	1.37600005	200	0	0
9.39999962	6.69369984	1.37600005	200	0	0
9.39799976	6.69439983	1.37600005	200	0	0
9.39400005	6.6942997	1.37600005	200	0	0
9.39500046	6.69449997	1.37600005	200	0	0
9.32499981	6.69210005	-1.08099997	200	0	0
9.30300045	6.69150066	-1.07299995	200	0	0
9.29699993	6.69159985	-1.07099998	200	0	0
9.31900024	6.69180012	-1.079	200	0	0
9.33600044	6.69219971	-1.08500004	200	0	0
9.32299995	6.69270039	-1.08000004	200	0	0
9.32499981	6.69250011	-1.08099997	200	0	0
9.33199978	6.69219971	-1.10300004	200	0	0
9.32699966	6.69210005	-1.10099995	200	0	0
9.32900047	6.69229984	-1.10099995	200	0	0
9.30099964	6.69159985	-1.09099996	200	0	0
9.30700016	6.69150066	-1.09300005	200	0	0
9.30500031	6.69140005	-1.09200001	200	0	0
9.32699966	6.69180012	-1.10099995	200	0	0
9.31799984	6.69299984	-1.097	200	0	0
9.31499958	6.69219971	-1.13300002	200	0	0
9.31099987	6.69210005	-1.13199997	200	0	0
9.3210001	6.69180012	-1.13600004	200	0	0
9.30599976	6.69150066	-1.13	200	0	0
9.30900002	6.692801	-1.13100004	200	0	0
9.32299995	6.69229984	-1.13600004	200	0	0
9.30500031	6.6928997	-1.13	200	0	0
9.30900002	6.69210005	-1.14999998	200	0	0
9.33399963	6.69150066	-1.15999997	200	0	0
9.30900002	6.69219971	-1.14999998	200	0	0
9.31799984	6.69229984	-1.153	200	0	0
9.3210001	6.692801	-1.15499997	200	0	0
9.37899971	6.69460011	1.37800002	200	0	0
9.40699959	6.69059992	1.426	200	0	0
9.41100025	6.69039965	1.44200003	200	0	0
9.41499996	6.69070005	1.40900004	200	0	0
9.38899994	6.68969965	1.44700003	200	0	0
9.41600037	6.69030094	1.44200003	200	0	0
9.40100002	6.69049978	1.42700005	200	0	0
9.41499996	6.69020033	1.44200003	200	0	0
9.40299988	6.68979979	1.44500005	200	0	0
9.40400028	6.69010019	1.44299996	200	0	0
9.41399956	6.69059992	1.40900004	200	0	0
