-6.33500004	6.62549973	0.319000006	200	0	0
-6.34700012	6.62510014	0.301999986	200	0	0
-6.34700012	6.625	0.301999986	200	0	0
-6.33599997	6.6257	0.354000002	200	0	0
-6.33699989	6.62520027	0.305999994	200	0	0
-6.34399986	6.62539959	0.316000015	200	0	0
-6.33199978	6.6257	0.368000001	200	0	0
-6.34200001	6.6257	0.375999987	200	0	0
-6.34200001	6.62549973	0.328999996	200	0	0
-6.35500002	6.62510014	0.312000006	200	0	0
-6.33799982	6.62530088	0.317999989	200	0	0
-6.34700012	6.62559986	0.351000011	200	0	0
-6.33900023	6.62539959	0.330000013	200	0	0
-6.329	6.62520027	0.32100001	200	0	0
-6.34299994	6.62559986	0.36500001	200	0	0
-6.33799982	6.62559986	0.379000008	200	0	0
-6.33099985	6.625	0.319999993	200	0	0
-6.32800007	6.62530088	0.333000004	200	0	0
-6.34000015	6.62549973	0.354000002	200	0	0
-6.35099983	6.62549973	0.361999989	200	0	0
-6.34200001	6.62520027	0.328999996	200	0	0
-6.33799982	6.62549973	0.379000008	200	0	0
-6.35200024	6.62539959	0.349999994	200	0	0
-6.32600021	6.62510014	0.333999991	200	0	0
-6.33900023	6.625	0.330000013	200	0	0
-6.33400011	6.62539959	0.393000007	200	0	0
-6.33699989	6.62539959	0.367000014	200	0	0
-6.34800005	6.62539959	0.375999987	200	0	0
-6.34800005	6.62530088	0.351000011	200	0	0
-6.32700014	6.62530088	0.370000005	200	0	0
-6.34399986	6.62520027	0.352999985	200	0	0
-6.34700012	6.62530088	0.375999987	200	0	0
-6.35099983	6.62520027	0.361999989	200	0	0
-6.33599997	6.62510014	0.354999989	200	0	0
-6.34200001	6.625	0.352999985	200	0	0
-6.33900023	6.62520027	0.379000008	200	0	0
-6.34499979	6.62510014	0.388999999	200	0	0
-6.34399986	6.62510014	0.36500001	200	0	0
-6.33500004	6.62510014	0.379999995	200	0	0
-6.34499979	6.625	0.363999993	200	0	0
-6.34000015	6.62580013	0.203999996	200	0	0
-6.34800005	6.62639999	0.360000014	200	0	0
-6.34299994	6.62650108	0.263000011	200	0	0
-6.34499979	6.62610006	0.38499999	200	0	0
-6.33799982	6.62539959	0.206	200	0	0
-6.33500004	6.62599993	0.388999999	200	0	0
-6.33799982	6.6257	0.204999998	200	0	0
-6.34399986	6.625	0.377000004	200	0	0
-6.35099983	6.62629986	0.234999999	200	0	0
-6.33900023	6.62559986	0.206	200	0	0
-6.33199978	6.62619972	0.229000002	200	0	0
-6.33799982	6.62639999	0.252000004	200	0	0
-6.34600019	6.62639999	0.34799999	200	0	0
-6.33900023	6.625	0.231000006	200	0	0
-6.34700012	6.62650108	0.323000014	200	0	0
-6.35099983	6.62619972	0.370999992	200	0	0
-6.34700012	6.62629986	0.360000014	200	0	0
-6.34899998	6.62650108	0.284999996	200	0	0
-6.34299994	6.62610006	0.224999994	200	0	0
-6.34600019	6.62650108	0.31099999	200	0	0
-6.35400009	6.62639999	0.259000003	200	0	0
-6.35200024	6.62650108	0.296999991	200	0	0
-6.34700012	6.62619972	0.236000001	200	0	0
-6.34800005	6.62610006	0.372000009	200	0	0
-6.34600019	6.62599993	0.224000007	200	0	0
-6.34499979	6.62629986	0.25	200	0	0
-6.33599997	6.62510014	0.231999993	200	0	0
-6.33900023	6.62639999	0.326000005	200	0	0
-6.3499999	6.62520027	0.226999998	200	0	0
-6.34899998	6.62629986	0.347000003	200	0	0
-6.33799982	6.625	0.244000003	200	0	0
-6.34499979	6.62599993	0.372999996	200	0	0
-6.35500002	6.62639999	0.282999992	200	0	0
-6.35500002	6.62510014	0.237000003	200	0	0
-6.34600019	6.62610006	0.237000003	200	0	0
-6.35099983	6.62629986	0.25999999	200	0	0
-6.34399986	6.62639999	0.312000006	200	0	0
-6.34200001	6.62639999	0.300000012	200	0	0
-6.34600019	6.62619972	0.248999998	200	0	0
-6.33500004	6.62590075	0.229000002	200	0	0
-6.34299994	6.62530088	0.229000002	200	0	0
-6.34800005	6.62580013	0.225999996	200	0	0
-6.3499999	6.62610006	0.358999997	200	0	0
-6.33699989	6.625	0.256000012	200	0	0
-6.33699989	6.62629986	0.326999992	200	0	0
-6.35200024	6.62549973	0.225999996	200	0	0
-6.35300016	6.62520027	0.238000005	200	0	0
-6.35400009	6.62619972	0.344999999	200	0	0
-6.34100008	6.62599993	0.238999993	200	0	0
-6.34100008	6.62539959	0.230000004	200	0	0
-6.34200001	6.6257	0.228	200	0	0
-6.34899998	6.62559986	0.226999998	200	0	0
-6.34299994	6.62599993	0.361999989	200	0	0
-6.3499999	6.62619972	0.25999999	200	0	0
-6.34700012	6.62610006	0.248999998	200	0	0
-6.35200024	6.62629986	0.284000009	200	0	0
-6.34700012	6.62629986	0.31099999	200	0	0
-6.35099983	6.62629986	0.296999991	200	0	0
-6.34499979	6.62590075	0.238000005	200	0	0
-6.34200001	6.625	0.26699999	200	0	0
-6.34100008	6.62510014	0.254999995	200	0	0
-6.33400011	6.62619972	0.328000009	200	0	0
-6.34399986	6.62530088	0.240999997	200	0	0
-6.3579998	6.62610006	0.344000012	200	0	0
-6.34600019	6.62580013	0.238999993	200	0	0
-6.34399986	6.62599993	0.25	200	0	0
-6.33199978	6.62619972	0.316000015	200	0	0
-6.34100008	6.62610006	0.263999999	200	0	0
-6.33699989	6.62619972	0.289999992	200	0	0
-6.33900023	6.62539959	0.243000001	200	0	0
-6.3499999	6.62510014	0.263999999	200	0	0
-6.34100008	6.62520027	0.254999995	200	0	0
-6.34899998	6.62599993	0.347000003	200	0	0
-6.33500004	6.6257	0.243000001	200	0	0
-6.35300016	6.62619972	0.296000004	200	0	0
-6.34100008	6.62559986	0.241999999	200	0	0
-6.34200001	6.62590075	0.252000004	200	0	0
-6.34600019	6.62530088	0.252999991	200	0	0
-6.33799982	6.62599993	0.264999986	200	0	0
-6.35200024	6.62580013	0.25	200	0	0
-6.34600019	6.62610006	0.323000014	200	0	0
-6.34700012	6.62520027	0.264999986	200	0	0
-6.34100008	6.62610006	0.287999988	200	0	0
-6.34100008	6.62610006	0.312999994	200	0	0
-6.33199978	6.62539959	0.257999986	200	0	0
-6.34600019	6.62610006	0.298999995	200	0	0
-6.33799982	6.62599993	0.326000005	200	0	0
-6.33799982	6.6257	0.254999995	200	0	0
-6.34100008	6.62590075	0.263999999	200	0	0
-6.34200001	6.62559986	0.254000008	200	0	0
-6.33799982	6.62549973	0.256000012	200	0	0
-6.34100008	6.62530088	0.26699999	200	0	0
-6.3499999	6.62599993	0.284999996	200	0	0
-6.33099985	6.62580013	0.268999994	200	0	0
-6.34299994	6.62599993	0.312000006	200	0	0
-6.34800005	6.62539959	0.264999986	200	0	0
-6.34499979	6.62599993	0.298999995	200	0	0
-6.34399986	6.62590075	0.326000005	200	0	0
-6.33699989	6.6257	0.26699999	200	0	0
-6.33900023	6.62549973	0.268000007	200	0	0
-6.33799982	6.62590075	0.314999998	200	0	0
-6.33500004	6.62590075	0.30399999	200	0	0
-6.34899998	6.62590075	0.287	200	0	0
-6.33300018	6.62580013	0.317999989	200	0	0
-6.32999992	6.62580013	0.294	200	0	0
-6.34899998	6.62580013	0.300000012	200	0	0
-6.35099983	6.6257	0.287	200	0	0
-6.34800005	6.62549973	0.289000005	200	0	0
-6.35200024	6.62559986	0.287999988	200	0	0
-6.35200024	6.6257	0.298999995	200	0	0
-6.34299994	6.62520027	0.192000002	200	0	0
-6.34100008	6.62549973	0.192000002	200	0	0
-6.34000015	6.62530088	0.193000004	200	0	0
-6.34000015	6.62539959	0.193000004	200	0	0
-6.34000015	6.625	0.204999998	200	0	0
-6.34899998	6.62510014	0.202000007	200	0	0
-6.34899998	6.62530088	0.202000007	200	0	0
-6.34899998	6.62639999	0.384000003	200	0	0
-6.34000015	6.62659979	0.349999994	200	0	0
-6.34700012	6.62659979	0.286000013	200	0	0
-6.34399986	6.62650108	0.361000001	200	0	0
-6.34399986	6.62639999	0.372999996	200	0	0
-6.34899998	6.62659979	0.298000008	200	0	0
-6.35400009	6.62629986	0.381999999	200	0	0
-6.34200001	6.62659979	0.324999988	200	0	0
-6.34100008	6.62659979	0.312999994	200	0	0
-6.34499979	6.62619972	0.38499999	200	0	0
-6.35099983	6.62650108	0.345999986	200	0	0
-6.34100008	6.62629986	0.374000013	200	0	0
-6.35200024	6.62659979	0.382999986	200	0	0
-6.34700012	6.62669992	0.360000014	200	0	0
-6.34700012	6.62629986	0.409000009	200	0	0
-6.34800005	6.62669992	0.298000008	200	0	0
-6.34499979	6.62669992	0.34799999	200	0	0
-6.35099983	6.62659979	0.370999992	200	0	0
-6.33900023	6.62669992	0.31400001	200	0	0
-6.34899998	6.62669992	0.321999997	200	0	0
-6.35300016	6.62650108	0.381999999	200	0	0
-6.33799982	6.62659979	0.363000005	200	0	0
-6.35900021	6.62610006	0.405000001	200	0	0
-6.34100008	6.62650108	0.374000013	200	0	0
-6.34800005	6.62680006	0.310000002	200	0	0
-6.35200024	6.62669992	0.407000005	200	0	0
-6.35200024	6.62680006	0.382999986	200	0	0
-6.35300016	6.62680006	0.32100001	200	0	0
-6.34700012	6.62680006	0.372000009	200	0	0
-6.34399986	6.62680006	0.361000001	200	0	0
-6.34899998	6.62659979	0.407999992	200	0	0
-6.34100008	6.62680006	0.349999994	200	0	0
-6.34100008	6.62669992	0.386999995	200	0	0
-6.34399986	6.62650108	0.409999996	200	0	0
-6.34499979	6.62669992	0.372999996	200	0	0
-6.34899998	6.62639999	0.407999992	200	0	0
-6.33900023	6.62510014	0.193000004	200	0	0
-6.34200001	6.625	0.192000002	200	0	0
-6.35599995	6.62599993	0.108000003	200	0	0
-6.35099983	6.62659979	0.25999999	200	0	0
-6.35500002	6.62510014	0.136999995	200	0	0
-6.33900023	6.62639999	0.127000004	200	0	0
-6.35400009	6.62549973	0.112999998	200	0	0
-6.35200024	6.62629986	0.122000001	200	0	0
-6.35300016	6.62669992	0.172000006	200	0	0
-6.34399986	6.62650108	0.137999997	200	0	0
-6.34800005	6.62669992	0.236000001	200	0	0
-6.34200001	6.62520027	0.129999995	200	0	0
-6.35400009	6.6257	0.111000001	200	0	0
-6.35300016	6.62559986	0.112999998	200	0	0
-6.3499999	6.62590075	0.111000001	200	0	0
-6.35400009	6.62580013	0.111000001	200	0	0
-6.35200024	6.62669992	0.222000003	200	0	0
-6.3499999	6.62669992	0.185000002	200	0	0
-6.34600019	6.62659979	0.248999998	200	0	0
-6.34600019	6.62530088	0.128000006	200	0	0
-6.34000015	6.62669992	0.201000005	200	0	0
-6.34200001	6.62659979	0.163000003	200	0	0
-6.34499979	6.62619972	0.123999998	200	0	0
-6.34800005	6.625	0.165000007	200	0	0
-6.35400009	6.62610006	0.120999999	200	0	0
-6.34000015	6.62639999	0.138999999	200	0	0
-6.35500002	6.62629986	0.133000001	200	0	0
-6.34100008	6.62659979	0.238999993	200	0	0
-6.3499999	6.62659979	0.172999993	200	0	0
-6.35300016	6.625	0.175999999	200	0	0
-6.35599995	6.62650108	0.158000007	200	0	0
-6.34299994	6.62539959	0.128999993	200	0	0
-6.33500004	6.62520027	0.144999996	200	0	0
-6.34899998	6.62599993	0.123000003	200	0	0
-6.34800005	6.62650108	0.248999998	200	0	0
-6.3499999	6.62659979	0.223000005	200	0	0
-6.35300016	6.62590075	0.123000003	200	0	0
-6.34899998	6.62659979	0.186000004	200	0	0
-6.34600019	6.62549973	0.128000006	200	0	0
-6.3499999	6.62510014	0.164000005	200	0	0
-6.34100008	6.62659979	0.201000005	200	0	0
-6.34700012	6.62559986	0.127000004	200	0	0
-6.35500002	6.62650108	0.171000004	200	0	0
-6.33799982	6.62530088	0.143000007	200	0	0
-6.34700012	6.62619972	0.136999995	200	0	0
-6.34499979	6.6257	0.127000004	200	0	0
-6.35099983	6.62650108	0.234999999	200	0	0
-6.34600019	6.62580013	0.127000004	200	0	0
-6.3499999	6.62539959	0.138999999	200	0	0
-6.35300016	6.62510014	0.175999999	200	0	0
-6.34700012	6.62639999	0.160999998	200	0	0
-6.35300016	6.62599993	0.134000003	200	0	0
-6.34700012	6.62610006	0.136999995	200	0	0
-6.34800005	6.62650108	0.223000005	200	0	0
-6.34600019	6.62650108	0.187000006	200	0	0
-6.34800005	6.62520027	0.165000007	200	0	0
-6.35400009	6.62559986	0.136999995	200	0	0
-6.34600019	6.62650108	0.199000001	200	0	0
-6.35500002	6.6257	0.136000007	200	0	0
-6.35200024	6.62639999	0.172000006	200	0	0
-6.34899998	6.62639999	0.236000001	200	0	0
-6.35400009	6.62520027	0.174999997	200	0	0
-6.34000015	6.62549973	0.143000007	200	0	0
-6.34600019	6.62590075	0.137999997	200	0	0
-6.35400009	6.62530088	0.163000003	200	0	0
-6.34700012	6.62580013	0.138999999	200	0	0
-6.34899998	6.62639999	0.223000005	200	0	0
-6.33799982	6.62629986	0.165000007	200	0	0
-6.33599997	6.62639999	0.189999998	200	0	0
-6.35699987	6.62530088	0.173999995	200	0	0
-6.34399986	6.62639999	0.200000003	200	0	0
-6.34899998	6.62619972	0.160999998	200	0	0
-6.34600019	6.62629986	0.174999997	200	0	0
-6.34200001	6.62629986	0.225999996	200	0	0
-6.34299994	6.62539959	0.166999996	200	0	0
-6.35699987	6.62599993	0.158000007	200	0	0
-6.34200001	6.62629986	0.187999994	200	0	0
-6.34499979	6.62610006	0.162	200	0	0
-6.33099985	6.62629986	0.204999998	200	0	0
-6.34700012	6.62619972	0.173999995	200	0	0
-6.34600019	6.62549973	0.165000007	200	0	0
-6.34700012	6.62539959	0.178000003	200	0	0
-6.35500002	6.62590075	0.159999996	200	0	0
-6.35699987	6.62619972	0.194999993	200	0	0
-6.34600019	6.62559986	0.165000007	200	0	0
-6.35400009	6.62549973	0.174999997	200	0	0
-6.34600019	6.62619972	0.187000006	200	0	0
-6.35099983	6.62580013	0.162	200	0	0
-6.34499979	6.62610006	0.174999997	200	0	0
-6.34600019	6.6257	0.164000005	200	0	0
-6.35400009	6.62599993	0.171000004	200	0	0
-6.34600019	6.62559986	0.178000003	200	0	0
-6.33599997	6.62610006	0.191	200	0	0
-6.35300016	6.62580013	0.173999995	200	0	0
-6.34800005	6.62590075	0.174999997	200	0	0
-6.34800005	6.6257	0.175999999	200	0	0
-6.34299994	6.62610006	0.200000003	200	0	0
-6.34499979	6.62599993	0.187000006	200	0	0
-6.34499979	6.62559986	0.191	200	0	0
-6.34399986	6.62599993	0.200000003	200	0	0
-6.34700012	6.6257	0.188999996	200	0	0
-6.33799982	6.62590075	0.191	200	0	0
-6.34299994	6.62580013	0.189999998	200	0	0
-6.34200001	6.62590075	0.202000007	200	0	0
-6.35400009	6.62719965	0.419	200	0	0
-6.34000015	6.62729979	0.324999988	200	0	0
-6.34899998	6.62700033	0.284999996	200	0	0
-6.34800005	6.62709999	0.298000008	200	0	0
-6.35200024	6.62719965	0.407000005	200	0	0
-6.35699987	6.62729979	0.381000012	200	0	0
-6.34499979	6.62729979	0.372999996	200	0	0
-6.34399986	6.62729979	0.349000007	200	0	0
-6.35099983	6.6269002	0.284999996	200	0	0
-6.35300016	6.62729979	0.35800001	200	0	0
-6.35699987	6.62680006	0.282000005	200	0	0
-6.33599997	6.62719965	0.326999992	200	0	0
-6.35099983	6.62709999	0.308999985	200	0	0
-6.34899998	6.62700033	0.298000008	200	0	0
-6.35699987	6.62709999	0.405999988	200	0	0
-6.35500002	6.62719965	0.381999999	200	0	0
-6.35300016	6.62669992	0.284000009	200	0	0
-6.34000015	6.62719965	0.349999994	200	0	0
-6.35500002	6.62719965	0.356999993	200	0	0
-6.34800005	6.6269002	0.298000008	200	0	0
-6.33500004	6.62709999	0.326999992	200	0	0
-6.35099983	6.62700033	0.407999992	200	0	0
-6.34100008	6.62700033	0.312999994	200	0	0
-6.35400009	6.62709999	0.381999999	200	0	0
-6.34399986	6.62680006	0.298999995	200	0	0
-6.34299994	6.62709999	0.374000013	200	0	0
-6.34200001	6.62709999	0.349000007	200	0	0
-6.34600019	6.62709999	0.360000014	200	0	0
-6.35300016	6.6269002	0.407000005	200	0	0
-6.33300018	6.6269002	0.316000015	200	0	0
-6.35300016	6.62700033	0.381999999	200	0	0
-6.33300018	6.62700033	0.36500001	200	0	0
-6.33699989	6.62700033	0.351000011	200	0	0
-6.34899998	6.62700033	0.372000009	200	0	0
-6.33400011	6.6269002	0.328000009	200	0	0
-6.34700012	6.6269002	0.38499999	200	0	0
-6.33400011	6.6269002	0.375999987	200	0	0
-6.35400009	6.6269002	0.344999999	200	0	0
-6.34899998	6.6269002	0.358999997	200	0	0
-6.34899998	6.6269002	0.172999993	200	0	0
-6.35400009	6.62739992	0.296000004	200	0	0
-6.35099983	6.62680006	0.172000006	200	0	0
-6.34299994	6.62709999	0.187999994	200	0	0
-6.35599995	6.62739992	0.232999995	200	0	0
-6.34600019	6.62719965	0.199000001	200	0	0
-6.35300016	6.62739992	0.284000009	200	0	0
-6.35500002	6.62729979	0.307999998	200	0	0
-6.35500002	6.62739992	0.246000007	200	0	0
-6.35599995	6.62729979	0.221000001	200	0	0
-6.34499979	6.62739992	0.261999995	200	0	0
-6.35300016	6.62709999	0.196999997	200	0	0
-6.3499999	6.6269002	0.185000002	200	0	0
-6.34399986	6.62729979	0.298999995	200	0	0
-6.35400009	6.62729979	0.233999997	200	0	0
-6.35300016	6.62700033	0.196999997	200	0	0
-6.35699987	6.62729979	0.282000005	200	0	0
-6.34499979	6.62680006	0.187000006	200	0	0
-6.34899998	6.62729979	0.247999996	200	0	0
-6.35099983	6.62729979	0.25999999	200	0	0
-6.34700012	6.62719965	0.224000007	200	0	0
-6.35500002	6.62719965	0.296000004	200	0	0
-6.34899998	6.62719965	0.234999999	200	0	0
-6.34000015	6.6269002	0.201000005	200	0	0
-6.35300016	6.62719965	0.284000009	200	0	0
-6.35099983	6.62709999	0.222000003	200	0	0
-6.34200001	6.62719965	0.250999987	200	0	0
-6.34100008	6.62719965	0.263000011	200	0	0
-6.34399986	6.62680006	0.200000003	200	0	0
-6.35400009	6.62709999	0.233999997	200	0	0
-6.35099983	6.62709999	0.284999996	200	0	0
-6.34499979	6.62700033	0.224000007	200	0	0
-6.35099983	6.62709999	0.246999994	200	0	0
-6.35099983	6.62709999	0.25999999	200	0	0
-6.3499999	6.6269002	0.223000005	200	0	0
-6.34700012	6.62700033	0.236000001	200	0	0
-6.35699987	6.6269002	0.232999995	200	0	0
-6.35200024	6.62680006	0.222000003	200	0	0
-6.33900023	6.62700033	0.252000004	200	0	0
-6.33500004	6.62700033	0.264999986	200	0	0
-6.35200024	6.62680006	0.233999997	200	0	0
-6.34499979	6.6269002	0.25	200	0	0
-6.34100008	6.6269002	0.263000011	200	0	0
-6.34700012	6.62680006	0.248999998	200	0	0
-6.35200024	6.62680006	0.25999999	200	0	0
-6.34399986	6.62669992	0.261999995	200	0	0
-6.35200024	6.62520027	0.112999998	200	0	0
-6.35400009	6.62539959	0.112000003	200	0	0
-6.35099983	6.62530088	0.114	200	0	0
-6.34700012	6.625	0.127000004	200	0	0
-6.34899998	6.62510014	0.127000004	200	0	0
-6.34700012	6.625	0.140000001	200	0	0
-6.33300018	6.62700033	0.166999996	200	0	0
-6.35900021	6.62700033	0.169	200	0	0
-6.35099983	6.6269002	0.159999996	200	0	0
-6.35599995	6.62680006	0.158000007	200	0	0
-6.35599995	6.62669992	0.158000007	200	0	0
-6.35200024	6.62739992	0.35800001	200	0	0
-6.35400009	6.62739992	0.344999999	200	0	0
-6.33900023	6.62739992	0.312999994	200	0	0
-6.33500004	6.62739992	0.326999992	200	0	0
-6.35099983	6.62750006	0.284999996	200	0	0
-6.3499999	6.62750006	0.296999991	200	0	0
-6.34200001	6.62559986	0.104000002	200	0	0
-6.34700012	6.62549973	0.101999998	200	0	0
-6.34499979	6.62530088	0.103	200	0	0
-6.35599995	6.625	0.112000003	200	0	0
-6.35500002	6.62510014	0.112000003	200	0	0
-6.34399986	6.6257	0.101999998	200	0	0
-6.3579998	6.62729979	0.405000001	200	0	0
-6.36499977	6.62739992	0.402999997	200	0	0
-6.34000015	6.62750006	0.312999994	200	0	0
-6.3579998	6.62750006	0.319000006	200	0	0
-6.35300016	6.62750006	0.381999999	200	0	0
-6.34399986	6.62750006	0.372999996	200	0	0
-6.3579998	6.62750006	0.344000012	200	0	0
-6.35500002	6.62750006	0.356999993	200	0	0
-6.35300016	6.62739992	0.381999999	200	0	0
-6.35200024	6.62739992	0.370999992	200	0	0
-6.35300016	6.62750006	0.246999994	200	0	0
-6.34800005	6.62750006	0.261000007	200	0	0
-6.35500002	6.62760019	0.319999993	200	0	0
-6.3499999	6.62760019	0.382999986	200	0	0
-6.3499999	6.62760019	0.370999992	200	0	0
-6.34600019	6.62760019	0.360000014	200	0	0
-6.35900021	6.62760019	0.256999999	200	0	0
-6.34800005	6.62760019	0.286000013	200	0	0
-6.35400009	6.62760019	0.307999998	200	0	0
-6.35699987	6.62760019	0.294999987	200	0	0
-6.33799982	6.62760019	0.252000004	200	0	0
-6.34000015	6.62770033	0.300999999	200	0	0
-6.35099983	6.6269002	0.135000005	200	0	0
-6.34499979	6.6269002	0.123999998	200	0	0
-6.35500002	6.6269002	0.108000003	200	0	0
-6.3499999	6.62680006	0.135000005	200	0	0
-6.34800005	6.62680006	0.123000003	200	0	0
-6.35200024	6.62680006	0.108999997	200	0	0
-6.35099983	6.62669992	0.135000005	200	0	0
-6.34399986	6.62669992	0.125	200	0	0
-6.35200024	6.62669992	0.108999997	200	0	0
-6.35500002	6.62659979	0.133000001	200	0	0
-6.34200001	6.62659979	0.112999998	200	0	0
-6.35500002	6.62659979	0.120999999	200	0	0
-6.35099983	6.62659979	0.0970000029	200	0	0
-6.34700012	6.62650108	0.123999998	200	0	0
-6.34299994	6.62650108	0.100000001	200	0	0
-6.35300016	6.62650108	0.108999997	200	0	0
-6.35200024	6.62639999	0.0970000029	200	0	0
-6.35400009	6.62639999	0.108000003	200	0	0
-6.35400009	6.62629986	0.108000003	200	0	0
-6.35599995	6.62619972	0.108000003	200	0	0
-6.34600019	6.62610006	0.0989999995	200	0	0
-6.34499979	6.62599993	0.100000001	200	0	0
-6.34100008	6.62739992	0.201000005	200	0	0
-6.35699987	6.62750006	0.219999999	200	0	0
-6.35200024	6.62729979	0.196999997	200	0	0
-6.35300016	6.62750006	0.233999997	200	0	0
-6.33599997	6.62719965	0.189999998	200	0	0
-6.35699987	6.62739992	0.219999999	200	0	0
-6.34800005	6.62729979	0.160999998	200	0	0
-6.35300016	6.62719965	0.172000006	200	0	0
-6.35900021	6.62729979	0.119000003	200	0	0
-6.35699987	6.62729979	0.133000001	200	0	0
-6.34899998	6.62719965	0.160999998	200	0	0
-6.3499999	6.62709999	0.172999993	200	0	0
-6.35400009	6.62719965	0.134000003	200	0	0
-6.35099983	6.62719965	0.122000001	200	0	0
-6.35300016	6.62709999	0.158999994	200	0	0
-6.35099983	6.62709999	0.109999999	200	0	0
-6.35599995	6.62709999	0.133000001	200	0	0
-6.35099983	6.62709999	0.122000001	200	0	0
-6.34800005	6.62700033	0.111000001	200	0	0
-6.33799982	6.62700033	0.140000001	200	0	0
-6.34299994	6.62700033	0.125	200	0	0
-6.34899998	6.62760019	0.135000005	200	0	0
-6.34100008	6.62760019	0.201000005	200	0	0
-6.35500002	6.62750006	0.120999999	200	0	0
-6.35400009	6.62739992	0.108000003	200	0	0
-6.35200024	6.62760019	0.185000002	200	0	0
-6.35599995	6.62760019	0.171000004	200	0	0
-6.35500002	6.62739992	0.120999999	200	0	0
-6.35599995	6.62750006	0.195999995	200	0	0
-6.3579998	6.62750006	0.157000005	200	0	0
-6.35400009	6.62750006	0.184	200	0	0
-6.35400009	6.62750006	0.171000004	200	0	0
-6.35099983	6.62739992	0.135000005	200	0	0
-6.35200024	6.62739992	0.185000002	200	0	0
-6.34800005	6.62739992	0.160999998	200	0	0
-6.34899998	6.62739992	0.172999993	200	0	0
-6.35099983	6.62729979	0.185000002	200	0	0
-6.35699987	6.62729979	0.170000002	200	0	0
-6.35900021	6.62760019	0.218999997	200	0	0
-6.33900023	6.62780094	0.349999994	200	0	0
-6.34499979	6.62789965	0.361000001	200	0	0
-6.35699987	6.62799978	0.381000012	200	0	0
-6.37799978	6.62799978	0.398999989	200	0	0
-6.35200024	6.62789965	0.382999986	200	0	0
-6.36399984	6.62789965	0.402999997	200	0	0
-6.35099983	6.62780094	0.407999992	200	0	0
-6.38000011	6.62820005	0.335999995	200	0	0
-6.36399984	6.62820005	0.291999996	200	0	0
-6.37099981	6.62809992	0.27700001	200	0	0
-6.3499999	6.62799978	0.25999999	200	0	0
-6.34000015	6.62789965	0.250999987	200	0	0
-6.37300014	6.62809992	0.363000005	200	0	0
-6.36000013	6.62820005	0.317999989	200	0	0
-6.33599997	6.62780094	0.252999991	200	0	0
-6.3670001	6.62809992	0.30399999	200	0	0
-6.36800003	6.62809992	0.340000004	200	0	0
-6.36899996	6.62809992	0.314999998	200	0	0
-6.35599995	6.62799978	0.282999992	200	0	0
-6.35699987	6.62799978	0.356000006	200	0	0
-6.35200024	6.62799978	0.296000004	200	0	0
-6.35500002	6.62799978	0.344999999	200	0	0
-6.35400009	6.62799978	0.307999998	200	0	0
-6.34800005	6.62789965	0.286000013	200	0	0
-6.3499999	6.62799978	0.321999997	200	0	0
-6.34399986	6.62789965	0.298999995	200	0	0
-6.34100008	6.62780094	0.287999988	200	0	0
-6.34299994	6.62789965	0.312000006	200	0	0
-6.34700012	6.62789965	0.323000014	200	0	0
-6.34000015	6.62780094	0.300999999	200	0	0
-6.33400011	6.62780094	0.314999998	200	0	0
-6.34100008	6.62780094	0.324999988	200	0	0
-6.33599997	6.62780094	0.228	200	0	0
-6.375	6.62809992	0.375	200	0	0
-6.37799978	6.62820005	0.349000007	200	0	0
-6.3829999	6.62820005	0.397000015	200	0	0
-6.375	6.62820005	0.363000005	200	0	0
-6.37799978	6.62820005	0.374000013	200	0	0
-6.34800005	6.62760019	0.123000003	200	0	0
-6.36000013	6.62830019	0.256000012	200	0	0
-6.36600018	6.62820005	0.241999999	200	0	0
-6.35099983	6.62799978	0.222000003	200	0	0
-6.37699986	6.62830019	0.275000006	200	0	0
-6.36800003	6.62830019	0.316000015	200	0	0
-6.35099983	6.62809992	0.234999999	200	0	0
-6.375	6.62830019	0.289000005	200	0	0
-6.36600018	6.62830019	0.30399999	200	0	0
-6.36499977	6.62820005	0.254999995	200	0	0
-6.36499977	6.62809992	0.241999999	200	0	0
-6.33799982	6.62789965	0.226999998	200	0	0
-6.34800005	6.62799978	0.236000001	200	0	0
-6.3670001	6.62820005	0.279000014	200	0	0
-6.34299994	6.62799978	0.25	200	0	0
-6.33900023	6.62799978	0.164000005	200	0	0
-6.34100008	6.62799978	0.175999999	200	0	0
-6.34000015	6.62799978	0.188999996	200	0	0
-6.33900023	6.62789965	0.164000005	200	0	0
-6.33799982	6.62789965	0.202000007	200	0	0
-6.33500004	6.62789965	0.178000003	200	0	0
-6.35500002	6.62830019	0.195999995	200	0	0
-6.36100006	6.62820005	0.180999994	200	0	0
-6.37200022	6.62830019	0.215000004	200	0	0
-6.36999989	6.62830019	0.228	200	0	0
-6.36399984	6.62830019	0.243000001	200	0	0
-6.35900021	6.62820005	0.194000006	200	0	0
-6.35400009	6.62809992	0.184	200	0	0
-6.36600018	6.62820005	0.216999993	200	0	0
-6.36299992	6.62809992	0.193000004	200	0	0
-6.3670001	6.62820005	0.229000002	200	0	0
-6.36399984	6.62809992	0.217999995	200	0	0
-6.37599993	6.62830019	0.337000012	200	0	0
-6.38100004	6.62830019	0.34799999	200	0	0
-6.37599993	6.62830019	0.375	200	0	0
-6.37300014	6.62830019	0.363000005	200	0	0
-6.36899996	6.6284008	0.252999991	200	0	0
-6.36999989	6.6284008	0.314999998	200	0	0
-6.37200022	6.6284008	0.301999986	200	0	0
-6.36999989	6.6284008	0.277999997	200	0	0
-6.3670001	6.6284008	0.291000009	200	0	0
-6.36199999	6.6284008	0.342000008	200	0	0
-6.35900021	6.62849998	0.317999989	200	0	0
-6.37300014	6.6284008	0.351000011	200	0	0
-6.37900019	6.6284008	0.361000001	200	0	0
-6.37400007	6.6284008	0.375	200	0	0
-6.37099981	6.6284008	0.226999998	200	0	0
-6.35200024	6.6284008	0.222000003	200	0	0
-6.36399984	6.6284008	0.243000001	200	0	0
-6.3670001	6.62849998	0.279000014	200	0	0
-6.36199999	6.62849998	0.354999989	200	0	0
-6.36199999	6.62849998	0.293000013	200	0	0
-6.36800003	6.62849998	0.340000004	200	0	0
-6.3670001	6.62849998	0.30399999	200	0	0
-6.38100004	6.62849998	0.397000015	200	0	0
-6.37599993	6.62849998	0.361999989	200	0	0
-6.37699986	6.62849998	0.374000013	200	0	0
-6.35900021	6.62859964	0.256999999	200	0	0
-6.36600018	6.62849998	0.216999993	200	0	0
-6.37200022	6.62849998	0.226999998	200	0	0
-6.35500002	6.62849998	0.246000007	200	0	0
-6.36299992	6.62849998	0.254999995	200	0	0
-6.37300014	6.62859964	0.275999993	200	0	0
-6.37099981	6.62859964	0.314999998	200	0	0
-6.36999989	6.62859964	0.289999992	200	0	0
-6.37099981	6.62859964	0.301999986	200	0	0
-6.35500002	6.62809992	0.133000001	200	0	0
-6.35900021	6.62830019	0.169	200	0	0
-6.36299992	6.62830019	0.180000007	200	0	0
-6.33599997	6.62799978	0.128000006	200	0	0
-6.36199999	6.62820005	0.156000003	200	0	0
-6.36199999	6.62820005	0.167999998	200	0	0
-6.33799982	6.62799978	0.138999999	200	0	0
-6.36399984	6.6284008	0.180000007	200	0	0
-6.36899996	6.6284008	0.191	200	0	0
-6.3499999	6.62820005	0.122000001	200	0	0
-6.35300016	6.62809992	0.108000003	200	0	0
-6.34800005	6.62820005	0.136000007	200	0	0
-6.34399986	6.62809992	0.123999998	200	0	0
-6.34200001	6.62799978	0.112999998	200	0	0
-6.36100006	6.62849998	0.167999998	200	0	0
-6.3579998	6.62849998	0.107000001	200	0	0
-6.37099981	6.62849998	0.151999995	200	0	0
-6.35699987	6.62849998	0.119999997	200	0	0
-6.35699987	6.62849998	0.131999999	200	0	0
-6.35500002	6.6284008	0.171000004	200	0	0
-6.36399984	6.6284008	0.155000001	200	0	0
-6.36000013	6.6284008	0.119000003	200	0	0
-6.35900021	6.6284008	0.131999999	200	0	0
-6.36000013	6.62830019	0.156000003	200	0	0
-6.35300016	6.62830019	0.120999999	200	0	0
-6.35599995	6.62830019	0.133000001	200	0	0
-6.35500002	6.62849998	0.182999998	200	0	0
-6.35900021	6.62849998	0.194000006	200	0	0
-6.36499977	6.62869978	0.314999998	200	0	0
-6.36999989	6.62869978	0.375	200	0	0
-6.37599993	6.62869978	0.361000001	200	0	0
-6.375	6.62869978	0.349000007	200	0	0
-6.36800003	6.62869978	0.338999987	200	0	0
-6.37400007	6.62859964	0.375	200	0	0
-6.37699986	6.62859964	0.337000012	200	0	0
-6.37200022	6.62859964	0.363000005	200	0	0
-6.37300014	6.62859964	0.351000011	200	0	0
-6.36999989	6.62879992	0.338	200	0	0
-6.375	6.62879992	0.374000013	200	0	0
-6.37200022	6.62879992	0.349999994	200	0	0
-6.37400007	6.62879992	0.361000001	200	0	0
-6.35699987	6.62890005	0.354000002	200	0	0
-6.37400007	6.62890005	0.397000015	200	0	0
-6.36999989	6.62890005	0.361999989	200	0	0
-6.36999989	6.62890005	0.374000013	200	0	0
-6.37099981	6.62879992	0.398999989	200	0	0
-6.3579998	6.62909985	0.30399999	200	0	0
-6.35900021	6.62869978	0.254999995	200	0	0
-6.37900019	6.62909985	0.370999992	200	0	0
-6.375	6.62890005	0.273000002	200	0	0
-6.36399984	6.62909985	0.31400001	200	0	0
-6.36399984	6.62900066	0.289999992	200	0	0
-6.37300014	6.62909985	0.361000001	200	0	0
-6.37400007	6.62909985	0.34799999	200	0	0
-6.36999989	6.62909985	0.337000012	200	0	0
-6.3670001	6.62900066	0.300999999	200	0	0
-6.38100004	6.62900066	0.370999992	200	0	0
-6.36299992	6.62900066	0.363999993	200	0	0
-6.37400007	6.62890005	0.286000013	200	0	0
-6.35500002	6.62900066	0.317000002	200	0	0
-6.37099981	6.62879992	0.275999993	200	0	0
-6.36800003	6.62900066	0.338	200	0	0
-6.37599993	6.62900066	0.347000003	200	0	0
-6.37099981	6.62890005	0.300000012	200	0	0
-6.37400007	6.62869978	0.275000006	200	0	0
-6.36000013	6.62879992	0.291999996	200	0	0
-6.36999989	6.62890005	0.337000012	200	0	0
-6.36100006	6.62879992	0.30399999	200	0	0
-6.36999989	6.62869978	0.289000005	200	0	0
-6.3670001	6.62869978	0.301999986	200	0	0
-6.3579998	6.62909985	0.254999995	200	0	0
-6.36100006	6.62879992	0.216999993	200	0	0
-6.36299992	6.62900066	0.239999995	200	0	0
-6.36299992	6.62890005	0.228	200	0	0
-6.37300014	6.62909985	0.273999989	200	0	0
-6.36800003	6.62909985	0.287999988	200	0	0
-6.36299992	6.62869978	0.216999993	200	0	0
-6.36499977	6.62900066	0.252000004	200	0	0
-6.36399984	6.62879992	0.228	200	0	0
-6.36399984	6.62859964	0.216999993	200	0	0
-6.36899996	6.62900066	0.275000006	200	0	0
-6.36000013	6.62890005	0.254000008	200	0	0
-6.3670001	6.62879992	0.239999995	200	0	0
-6.3579998	6.62869978	0.231000006	200	0	0
-6.36199999	6.62859964	0.230000004	200	0	0
-6.36499977	6.62869978	0.240999997	200	0	0
-6.36199999	6.62879992	0.254000008	200	0	0
-6.36899996	6.62859964	0.240999997	200	0	0
-6.3670001	6.62859964	0.191	200	0	0
-6.35699987	6.62859964	0.181999996	200	0	0
-6.35599995	6.62869978	0.194000006	200	0	0
-6.37900019	6.62900066	0.395999998	200	0	0
-6.37599993	6.62909985	0.397000015	200	0	0
-6.36600018	6.62869978	0.165000007	200	0	0
-6.36399984	6.62890005	0.177000001	200	0	0
-6.36499977	6.62919998	0.215000004	200	0	0
-6.36299992	6.62919998	0.289999992	200	0	0
-6.3579998	6.62919998	0.229000002	200	0	0
-6.3499999	6.62900066	0.194999993	200	0	0
-6.3579998	6.62919998	0.279000014	200	0	0
-6.3579998	6.62859964	0.169	200	0	0
-6.35699987	6.62919998	0.241999999	200	0	0
-6.36000013	6.62879992	0.180000007	200	0	0
-6.36000013	6.62919998	0.254000008	200	0	0
-6.35500002	6.62909985	0.217999995	200	0	0
-6.36000013	6.62890005	0.191	200	0	0
-6.3579998	6.62869978	0.180999994	200	0	0
-6.35599995	6.62909985	0.230000004	200	0	0
-6.37099981	6.62900066	0.213	200	0	0
-6.36100006	6.62909985	0.240999997	200	0	0
-6.36000013	6.62879992	0.193000004	200	0	0
-6.35900021	6.62900066	0.229000002	200	0	0
-6.36600018	6.62890005	0.214000002	200	0	0
-6.36399984	6.62879992	0.165999994	200	0	0
-6.34899998	6.62859964	0.159999996	200	0	0
-6.36299992	6.62869978	0.153999999	200	0	0
-6.36199999	6.62919998	0.314999998	200	0	0
-6.36000013	6.62919998	0.303000003	200	0	0
-6.3670001	6.62919998	0.349999994	200	0	0
-6.36199999	6.62919998	0.340000004	200	0	0
-6.3579998	6.62890005	0.128999993	200	0	0
-6.36399984	6.62890005	0.165000007	200	0	0
-6.35599995	6.62879992	0.119000003	200	0	0
-6.35500002	6.62890005	0.156000003	200	0	0
-6.35500002	6.62879992	0.131999999	200	0	0
-6.36299992	6.62879992	0.153999999	200	0	0
-6.36499977	6.62869978	0.128000006	200	0	0
-6.36000013	6.62859964	0.119000003	200	0	0
-6.35200024	6.62859964	0.134000003	200	0	0
-6.35500002	6.62890005	0.118000001	200	0	0
-6.35500002	6.62900066	0.129999995	200	0	0
-6.36499977	6.62919998	0.165000007	200	0	0
-6.36800003	6.62919998	0.187999994	200	0	0
-6.35099983	6.62919998	0.181999996	200	0	0
-6.36199999	6.62909985	0.152999997	200	0	0
-6.35400009	6.62909985	0.169	200	0	0
-6.36100006	6.62900066	0.152999997	200	0	0
-6.34700012	6.62909985	0.182999998	200	0	0
-6.36000013	6.62909985	0.191	200	0	0
-6.36000013	6.62900066	0.165999994	200	0	0
-6.36299992	6.62900066	0.178000003	200	0	0
-6.35900021	6.62879992	0.104999997	200	0	0
-6.37599993	6.62919998	0.372000009	200	0	0
-6.38199997	6.62919998	0.35800001	200	0	0
-6.37599993	6.62919998	0.409000009	200	0	0
-6.37699986	6.62919998	0.395999998	200	0	0
-6.36000013	6.62930012	0.291000009	200	0	0
-6.35200024	6.62930012	0.218999997	200	0	0
-6.35900021	6.62930012	0.229000002	200	0	0
-6.36399984	6.62930012	0.27700001	200	0	0
-6.35099983	6.62930012	0.244000003	200	0	0
-6.3579998	6.62930012	0.254999995	200	0	0
-6.36800003	6.62930012	0.349999994	200	0	0
-6.36600018	6.62930012	0.338999987	200	0	0
-6.35400009	6.62930012	0.305000007	200	0	0
-6.36000013	6.62930012	0.316000015	200	0	0
-6.36399984	6.62940025	0.338999987	200	0	0
-6.37300014	6.62930012	0.372999996	200	0	0
-6.37400007	6.62930012	0.360000014	200	0	0
-6.3670001	6.62940025	0.349999994	200	0	0
-6.3579998	6.62940025	0.291999996	200	0	0
-6.35400009	6.62940025	0.305000007	200	0	0
-6.36499977	6.62940025	0.31400001	200	0	0
-6.37799978	6.62930012	0.395999998	200	0	0
-6.35900021	6.62930012	0.192000002	200	0	0
-6.34600019	6.62930012	0.184	200	0	0
-6.3579998	6.62940025	0.241999999	200	0	0
-6.35599995	6.62940025	0.254999995	200	0	0
-6.36499977	6.62940025	0.375999987	200	0	0
-6.36499977	6.62940025	0.363000005	200	0	0
-6.36000013	6.62940025	0.414000005	200	0	0
-6.36999989	6.62940025	0.398999989	200	0	0
-6.36199999	6.62949991	0.216000006	200	0	0
-6.36999989	6.62949991	0.287	200	0	0
-6.36600018	6.62949991	0.226999998	200	0	0
-6.36299992	6.62949991	0.277999997	200	0	0
-6.36100006	6.62949991	0.240999997	200	0	0
-6.3670001	6.62949991	0.250999987	200	0	0
-6.36000013	6.62940025	0.216000006	200	0	0
-6.35500002	6.62940025	0.231000006	200	0	0
-6.35599995	6.62940025	0.180000007	200	0	0
-6.36399984	6.62919998	0.151999995	200	0	0
-6.36299992	6.62930012	0.165000007	200	0	0
-6.36000013	6.62940025	0.191	200	0	0
-6.36499977	6.62949991	0.300999999	200	0	0
-6.36999989	6.62949991	0.349000007	200	0	0
-6.36899996	6.62949991	0.337000012	200	0	0
-6.35400009	6.62949991	0.317999989	200	0	0
-6.35099983	6.62900066	0.119000003	200	0	0
-6.35300016	6.62890005	0.105999999	200	0	0
-6.36000013	6.62919998	0.128999993	200	0	0
-6.35699987	6.62909985	0.116999999	200	0	0
-6.3499999	6.62909985	0.131999999	200	0	0
-6.35900021	6.62930012	0.153999999	200	0	0
-6.3579998	6.62909985	0.104000002	200	0	0
-6.36000013	6.62940025	0.128999993	200	0	0
-6.3579998	6.62930012	0.116999999	200	0	0
-6.3579998	6.62940025	0.153999999	200	0	0
-6.36000013	6.62940025	0.165999994	200	0	0
-6.35500002	6.62930012	0.129999995	200	0	0
-6.35200024	6.62919998	0.119000003	200	0	0
-6.35900021	6.62940025	0.115999997	200	0	0
-6.3579998	6.62940025	0.104000002	200	0	0
-6.35699987	6.62930012	0.104000002	200	0	0
-6.37200022	6.62949991	0.372999996	200	0	0
-6.35400009	6.62960005	0.280999988	200	0	0
-6.3670001	6.62960005	0.349999994	200	0	0
-6.35400009	6.62960005	0.293000013	200	0	0
-6.36600018	6.62949991	0.363000005	200	0	0
-6.3670001	6.62960005	0.338	200	0	0
-6.35500002	6.62960005	0.305000007	200	0	0
-6.35900021	6.62960005	0.316000015	200	0	0
-6.38199997	6.62960005	0.395000011	200	0	0
-6.3670001	6.62960005	0.363000005	200	0	0
-6.36299992	6.62960005	0.375999987	200	0	0
-6.37200022	6.62949991	0.398000002	200	0	0
-6.36600018	6.62969971	0.300999999	200	0	0
-6.36600018	6.62969971	0.375	200	0	0
-6.35599995	6.62969971	0.317000002	200	0	0
-6.37099981	6.62969971	0.361000001	200	0	0
-6.36399984	6.62969971	0.351000011	200	0	0
-6.36199999	6.62969971	0.340000004	200	0	0
-6.37400007	6.62969971	0.397000015	200	0	0
-6.36199999	6.62979984	0.314999998	200	0	0
-6.3670001	6.62979984	0.375	200	0	0
-6.36299992	6.62979984	0.338999987	200	0	0
-6.3579998	6.62979984	0.365999997	200	0	0
-6.36399984	6.62979984	0.351000011	200	0	0
-6.37099981	6.62979984	0.409999996	200	0	0
-6.37599993	6.62979984	0.395999998	200	0	0
-6.3670001	6.63000011	0.338	200	0	0
-6.36000013	6.62969971	0.229000002	200	0	0
-6.36499977	6.63000011	0.27700001	200	0	0
-6.35500002	6.62979984	0.243000001	200	0	0
-6.36899996	6.63000011	0.287999988	200	0	0
-6.36199999	6.62960005	0.228	200	0	0
-6.35599995	6.63000011	0.317000002	200	0	0
-6.3579998	6.63000011	0.30399999	200	0	0
-6.36000013	6.62969971	0.240999997	200	0	0
-6.36199999	6.62979984	0.252999991	200	0	0
-6.3499999	6.62989998	0.282000005	200	0	0
-6.34800005	6.62989998	0.319999993	200	0	0
-6.35200024	6.62960005	0.244000003	200	0	0
-6.3579998	6.62969971	0.254000008	200	0	0
-6.3670001	6.62979984	0.275999993	200	0	0
-6.35400009	6.62979984	0.293000013	200	0	0
-6.3579998	6.62960005	0.254999995	200	0	0
-6.35699987	6.62979984	0.30399999	200	0	0
-6.35300016	6.62969971	0.280999988	200	0	0
-6.35900021	6.62960005	0.216999993	200	0	0
-6.36800003	6.63000011	0.412	200	0	0
-6.37200022	6.63000011	0.398000002	200	0	0
-6.36999989	6.63000011	0.349000007	200	0	0
-6.36499977	6.63000011	0.363000005	200	0	0
-6.37099981	6.63000011	0.374000013	200	0	0
-6.3670001	6.62989998	0.400000006	200	0	0
-6.36499977	6.62989998	0.375999987	200	0	0
-6.36399984	6.62969971	0.215000004	200	0	0
-6.3670001	6.62949991	0.164000005	200	0	0
-6.3499999	6.62960005	0.170000002	200	0	0
-6.3579998	6.63000011	0.216999993	200	0	0
-6.36000013	6.62969971	0.179000005	200	0	0
-6.35500002	6.62979984	0.193000004	200	0	0
-6.35300016	6.63000011	0.231000006	200	0	0
-6.36100006	6.63000011	0.240999997	200	0	0
-6.35599995	6.62960005	0.180000007	200	0	0
-6.35300016	6.63000011	0.256000012	200	0	0
-6.3579998	6.62969971	0.192000002	200	0	0
-6.34899998	6.62989998	0.232999995	200	0	0
-6.34800005	6.62949991	0.182999998	200	0	0
-6.36399984	6.62960005	0.189999998	200	0	0
-6.3670001	6.62989998	0.238999993	200	0	0
-6.36000013	6.62979984	0.216000006	200	0	0
-6.36499977	6.62979984	0.226999998	200	0	0
-6.36000013	6.62949991	0.191	200	0	0
-6.35500002	6.62949991	0.156000003	200	0	0
-6.36000013	6.62960005	0.153999999	200	0	0
-6.36100006	6.62960005	0.128000006	200	0	0
-6.35400009	6.62949991	0.118000001	200	0	0
-6.36000013	6.62949991	0.128999993	200	0	0
-6.3499999	6.62960005	0.107000001	200	0	0
-6.35300016	6.62969971	0.119000003	200	0	0
-6.3579998	6.62969971	0.128999993	200	0	0
-6.36000013	6.62979984	0.153999999	200	0	0
-6.35400009	6.62960005	0.118000001	200	0	0
-6.36499977	6.62979984	0.165000007	200	0	0
-6.36000013	6.62979984	0.179000005	200	0	0
-6.36199999	6.62969971	0.152999997	200	0	0
-6.35699987	6.62969971	0.166999996	200	0	0
-6.3670001	6.63010025	0.250999987	200	0	0
-6.35300016	6.63010025	0.180999994	200	0	0
-6.35599995	6.63010025	0.241999999	200	0	0
-6.3579998	6.63000011	0.166999996	200	0	0
-6.34800005	6.63010025	0.195999995	200	0	0
-6.35200024	6.63010025	0.231000006	200	0	0
-6.3499999	6.62989998	0.157000005	200	0	0
-6.36199999	6.63010025	0.216000006	200	0	0
-6.35099983	6.63000011	0.181999996	200	0	0
-6.36199999	6.62989998	0.165999994	200	0	0
-6.36800003	6.63000011	0.187999994	200	0	0
-6.36000013	6.63010025	0.316000015	200	0	0
-6.36600018	6.63010025	0.275999993	200	0	0
-6.36299992	6.63010025	0.301999986	200	0	0
-6.36000013	6.63010025	0.291000009	200	0	0
-6.36199999	6.63010025	0.351999998	200	0	0
-6.36600018	6.63010025	0.338	200	0	0
-6.36999989	6.63010025	0.374000013	200	0	0
-6.36199999	6.63010025	0.363999993	200	0	0
-6.3499999	6.62979984	0.119999997	200	0	0
-6.35300016	6.62979984	0.130999997	200	0	0
-6.36100006	6.62969971	0.103	200	0	0
-6.35699987	6.63000011	0.129999995	200	0	0
-6.35300016	6.62989998	0.119000003	200	0	0
-6.35900021	6.63010025	0.128999993	200	0	0
-6.35400009	6.63000011	0.118000001	200	0	0
-6.36600018	6.63010025	0.150999993	200	0	0
-6.3579998	6.63010025	0.166999996	200	0	0
-6.36100006	6.63000011	0.152999997	200	0	0
-6.37200022	6.63010025	0.409999996	200	0	0
-6.37300014	6.63010025	0.397000015	200	0	0
-6.35699987	6.63020039	0.254999995	200	0	0
-6.3579998	6.63020039	0.316000015	200	0	0
-6.36800003	6.63020039	0.275999993	200	0	0
-6.35699987	6.63020039	0.30399999	200	0	0
-6.36299992	6.63020039	0.289999992	200	0	0
-6.35400009	6.63020039	0.180999994	200	0	0
-6.3579998	6.63020039	0.192000002	200	0	0
-6.35500002	6.63020039	0.243000001	200	0	0
-6.36499977	6.63020039	0.226999998	200	0	0
-6.36399984	6.63020039	0.215000004	200	0	0
-6.35900021	6.63020039	0.377000004	200	0	0
-6.3499999	6.63020039	0.344000012	200	0	0
-6.36399984	6.63020039	0.363999993	200	0	0
-6.36399984	6.63020039	0.351000011	200	0	0
-6.37099981	6.63020039	0.398000002	200	0	0
-6.36100006	6.630301	0.377000004	200	0	0
-6.36000013	6.630301	0.303000003	200	0	0
-6.35699987	6.630301	0.365999997	200	0	0
-6.36100006	6.630301	0.314999998	200	0	0
-6.3670001	6.630301	0.349999994	200	0	0
-6.36399984	6.630301	0.338999987	200	0	0
-6.36999989	6.63020039	0.411000013	200	0	0
-6.36000013	6.630301	0.254000008	200	0	0
-6.35900021	6.630301	0.279000014	200	0	0
-6.3579998	6.63020039	0.153999999	200	0	0
-6.35500002	6.63020039	0.167999998	200	0	0
-6.35699987	6.6303997	0.241999999	200	0	0
-6.35699987	6.630301	0.216999993	200	0	0
-6.35699987	6.630301	0.230000004	200	0	0
-6.35599995	6.630301	0.241999999	200	0	0
-6.35599995	6.6303997	0.254999995	200	0	0
-6.36899996	6.630301	0.411000013	200	0	0
-6.36499977	6.630301	0.400000006	200	0	0
-6.36899996	6.6303997	0.398999989	200	0	0
-6.36199999	6.63049984	0.215000004	200	0	0
-6.3499999	6.6303997	0.181999996	200	0	0
-6.35500002	6.630301	0.167999998	200	0	0
-6.34600019	6.6303997	0.195999995	200	0	0
-6.34899998	6.6303997	0.219999999	200	0	0
-6.36499977	6.6303997	0.226999998	200	0	0
-6.34800005	6.630301	0.182999998	200	0	0
-6.36000013	6.630301	0.191	200	0	0
-6.35900021	6.6303997	0.316000015	200	0	0
-6.3579998	6.6303997	0.30399999	200	0	0
-6.36499977	6.6303997	0.27700001	200	0	0
-6.36399984	6.6303997	0.289000005	200	0	0
-6.35599995	6.63020039	0.129999995	200	0	0
-6.35599995	6.630301	0.155000001	200	0	0
-6.37300014	6.6303997	0.335999995	200	0	0
-6.36299992	6.6303997	0.363999993	200	0	0
-6.36399984	6.6303997	0.351000011	200	0	0
-6.36199999	6.630301	0.128000006	200	0	0
-6.35699987	6.6303997	0.153999999	200	0	0
-6.375	6.6303997	0.409000009	200	0	0
-6.36299992	6.63049984	0.31400001	200	0	0
-6.35200024	6.63049984	0.305999994	200	0	0
-6.35400009	6.63049984	0.293000013	200	0	0
-6.35300016	6.63049984	0.280999988	200	0	0
-6.36199999	6.63049984	0.377000004	200	0	0
-6.36100006	6.63049984	0.36500001	200	0	0
-6.36100006	6.63049984	0.340000004	200	0	0
-6.36800003	6.63049984	0.349999994	200	0	0
-6.3670001	6.63059998	0.338	200	0	0
-6.3670001	6.63049984	0.412	200	0	0
-6.36299992	6.63049984	0.400999993	200	0	0
-6.36000013	6.63059998	0.277999997	200	0	0
-6.36100006	6.63059998	0.314999998	200	0	0
-6.36000013	6.63059998	0.291000009	200	0	0
-6.36299992	6.63059998	0.301999986	200	0	0
-6.36600018	6.63059998	0.400000006	200	0	0
-6.36100006	6.63059998	0.351999998	200	0	0
-6.35400009	6.63059998	0.367000014	200	0	0
-6.36600018	6.63059998	0.375	200	0	0
-6.35300016	6.63070011	0.354999989	200	0	0
-6.36499977	6.63070011	0.27700001	200	0	0
-6.36100006	6.63070011	0.289999992	200	0	0
-6.36299992	6.63070011	0.338999987	200	0	0
-6.35099983	6.63070011	0.319000006	200	0	0
-6.35599995	6.63070011	0.305000007	200	0	0
-6.36899996	6.63070011	0.411000013	200	0	0
-6.36899996	6.63070011	0.398999989	200	0	0
-6.35099983	6.63070011	0.368000001	200	0	0
-6.36000013	6.63070011	0.377000004	200	0	0
-6.36399984	6.63090086	0.375999987	200	0	0
-6.34800005	6.63090086	0.368999988	200	0	0
-6.3579998	6.63090086	0.30399999	200	0	0
-6.35099983	6.63090086	0.319000006	200	0	0
-6.35300016	6.63080025	0.293000013	200	0	0
-6.35099983	6.63080025	0.379999995	200	0	0
-6.36100006	6.63090086	0.351999998	200	0	0
-6.35599995	6.63090086	0.342000008	200	0	0
-6.3579998	6.63080025	0.30399999	200	0	0
-6.35400009	6.63080025	0.367000014	200	0	0
-6.36100006	6.63080025	0.314999998	200	0	0
-6.36000013	6.63080025	0.351999998	200	0	0
-6.36000013	6.63080025	0.340000004	200	0	0
-6.34100008	6.63059998	0.197999999	200	0	0
-6.35699987	6.63049984	0.180000007	200	0	0
-6.36000013	6.63059998	0.254000008	200	0	0
-6.35599995	6.6303997	0.167999998	200	0	0
-6.3579998	6.63059998	0.241999999	200	0	0
-6.35300016	6.63059998	0.218999997	200	0	0
-6.36299992	6.63059998	0.228	200	0	0
-6.35400009	6.63049984	0.193000004	200	0	0
-6.36199999	6.63049984	0.228	200	0	0
-6.35400009	6.63090086	0.243000001	200	0	0
-6.35300016	6.63090086	0.256000012	200	0	0
-6.36100006	6.63070011	0.216000006	200	0	0
-6.34800005	6.63090086	0.282999992	200	0	0
-6.35699987	6.63090086	0.291999996	200	0	0
-6.35599995	6.63080025	0.241999999	200	0	0
-6.35300016	6.63070011	0.231000006	200	0	0
-6.35599995	6.63080025	0.254999995	200	0	0
-6.35200024	6.63070011	0.244000003	200	0	0
-6.3579998	6.63070011	0.254000008	200	0	0
-6.36600018	6.63099957	0.412	200	0	0
-6.36299992	6.63090086	0.400999993	200	0	0
-6.36800003	6.63090086	0.411000013	200	0	0
-6.36600018	6.63080025	0.400000006	200	0	0
-6.37099981	6.63080025	0.409999996	200	0	0
-6.35400009	6.63049984	0.156000003	200	0	0
-6.3499999	6.63059998	0.181999996	200	0	0
-6.35200024	6.63049984	0.169	200	0	0
-6.35500002	6.6303997	0.129999995	200	0	0
-6.34800005	6.63049984	0.133000001	200	0	0
-6.35200024	6.63090086	0.180999994	200	0	0
-6.35699987	6.63080025	0.166999996	200	0	0
-6.35500002	6.63070011	0.155000001	200	0	0
-6.34499979	6.63090086	0.196999997	200	0	0
-6.3579998	6.63090086	0.229000002	200	0	0
-6.35900021	6.63090086	0.216999993	200	0	0
-6.35599995	6.63080025	0.180000007	200	0	0
-6.3579998	6.63070011	0.166999996	200	0	0
-6.34000015	6.63059998	0.160999998	200	0	0
-6.35099983	6.63080025	0.194999993	200	0	0
-6.35900021	6.63080025	0.216999993	200	0	0
-6.35599995	6.63070011	0.180000007	200	0	0
-6.35699987	6.63059998	0.166999996	200	0	0
-6.34899998	6.63070011	0.194999993	200	0	0
-6.35400009	6.63099957	0.256000012	200	0	0
-6.35699987	6.63059998	0.129999995	200	0	0
-6.36100006	6.63070011	0.128000006	200	0	0
-6.36399984	6.63099957	0.289000005	200	0	0
-6.35500002	6.63099957	0.217999995	200	0	0
-6.35099983	6.63099957	0.282000005	200	0	0
-6.34899998	6.63099957	0.231999993	200	0	0
-6.35500002	6.63099957	0.243000001	200	0	0
-6.35200024	6.6310997	0.180999994	200	0	0
-6.35099983	6.63090086	0.131999999	200	0	0
-6.34800005	6.63099957	0.158000007	200	0	0
-6.34899998	6.63099957	0.194999993	200	0	0
-6.34600019	6.63099957	0.184	200	0	0
-6.3579998	6.63080025	0.128999993	200	0	0
-6.36000013	6.63090086	0.152999997	200	0	0
-6.35500002	6.63090086	0.167999998	200	0	0
-6.35400009	6.63080025	0.156000003	200	0	0
-6.34700012	6.6310997	0.195999995	200	0	0
-6.35300016	6.6310997	0.231000006	200	0	0
-6.34800005	6.63099957	0.356999993	200	0	0
-6.36499977	6.63099957	0.338999987	200	0	0
-6.34800005	6.63099957	0.307000011	200	0	0
-6.3579998	6.63099957	0.316000015	200	0	0
-6.34700012	6.63099957	0.381999999	200	0	0
-6.35200024	6.63099957	0.368000001	200	0	0
-6.36399984	6.63099957	0.400999993	200	0	0
-6.35500002	6.63099957	0.129999995	200	0	0
-6.34700012	6.63099957	0.120999999	200	0	0
-6.35500002	6.63119984	0.254999995	200	0	0
-6.35200024	6.6310997	0.294	200	0	0
-6.35900021	6.6310997	0.216999993	200	0	0
-6.36100006	6.6310997	0.277999997	200	0	0
-6.3499999	6.6310997	0.244000003	200	0	0
-6.34899998	6.6310997	0.257999986	200	0	0
-6.35900021	6.63119984	0.316000015	200	0	0
-6.35200024	6.6310997	0.354999989	200	0	0
-6.34600019	6.6310997	0.344999999	200	0	0
-6.34600019	6.6310997	0.307999998	200	0	0
-6.35599995	6.6310997	0.317000002	200	0	0
-6.35200024	6.63119984	0.180999994	200	0	0
-6.35500002	6.6310997	0.155000001	200	0	0
-6.35200024	6.6310997	0.169	200	0	0
-6.36399984	6.6310997	0.412999988	200	0	0
-6.36199999	6.6310997	0.400999993	200	0	0
-6.35200024	6.6310997	0.368000001	200	0	0
-6.34899998	6.6310997	0.381000012	200	0	0
-6.35099983	6.63119984	0.342999995	200	0	0
-6.34000015	6.6310997	0.432999998	200	0	0
-6.37099981	6.63119984	0.409999996	200	0	0
-6.36399984	6.63119984	0.400999993	200	0	0
-6.3499999	6.63119984	0.356000006	200	0	0
-6.3579998	6.63119984	0.36500001	200	0	0
-6.35200024	6.63119984	0.379999995	200	0	0
-6.36199999	6.63129997	0.301999986	200	0	0
-6.35400009	6.63119984	0.280000001	200	0	0
-6.35200024	6.63119984	0.294	200	0	0
-6.35400009	6.63119984	0.305000007	200	0	0
-6.35200024	6.63119984	0.218999997	200	0	0
-6.34299994	6.63119984	0.234999999	200	0	0
-6.35200024	6.63119984	0.244000003	200	0	0
-6.35699987	6.63129997	0.279000014	200	0	0
-6.34800005	6.6310997	0.119999997	200	0	0
-6.34499979	6.6310997	0.134000003	200	0	0
-6.35200024	6.63119984	0.194000006	200	0	0
-6.35400009	6.63129997	0.217999995	200	0	0
-6.34600019	6.63129997	0.259000003	200	0	0
-6.35900021	6.63129997	0.229000002	200	0	0
-6.35400009	6.63129997	0.243000001	200	0	0
-6.35900021	6.63129997	0.291000009	200	0	0
-6.36499977	6.63129997	0.400000006	200	0	0
-6.34899998	6.63129997	0.368999988	200	0	0
-6.34899998	6.63129997	0.381000012	200	0	0
-6.36399984	6.63129997	0.412999988	200	0	0
-6.35400009	6.63140011	0.256000012	200	0	0
-6.34299994	6.63129997	0.159999996	200	0	0
-6.34399986	6.63140011	0.246999994	200	0	0
-6.34499979	6.63140011	0.184	200	0	0
-6.34600019	6.63140011	0.195999995	200	0	0
-6.35300016	6.63129997	0.169	200	0	0
-6.35300016	6.63119984	0.156000003	200	0	0
-6.35300016	6.63140011	0.231000006	200	0	0
-6.34600019	6.63140011	0.221000001	200	0	0
-6.34200001	6.63129997	0.185000002	200	0	0
-6.34800005	6.63119984	0.170000002	200	0	0
-6.34499979	6.63129997	0.196999997	200	0	0
