-3.10700011	6.70090103	2.84200001	0	200	0
-3.08500004	6.70090103	2.74699998	0	200	0
-3.08500004	6.70090103	2.75300002	0	200	0
-3.09500003	6.70090103	2.75900006	0	200	0
-3.09899998	6.70090103	2.7650001	0	200	0
-3.0999999	6.70090103	2.77600002	0	200	0
-3.10599995	6.70090103	2.78200006	0	200	0
-3.1170001	6.70090103	2.78800011	0	200	0
-3.09800005	6.70090103	2.79200006	0	200	0
-3.11400008	6.70090103	2.80500007	0	200	0
-3.13599992	6.70090103	2.81800008	0	200	0
-3.0999999	6.70090103	2.80900002	0	200	0
-3.13899994	6.70090103	2.83500004	0	200	0
-3.11100006	6.70090103	2.8210001	0	200	0
-3.12700009	6.70090103	2.83899999	0	200	0
-3.10700011	6.70090103	2.84200001	0	200	0
-3.04200006	6.70090103	2.66300011	0	200	0
-3.046	6.70090103	2.66899991	0	200	0
-3.04999995	6.70090103	2.67499995	0	200	0
-3.05100012	6.70090103	2.68000007	0	200	0
-3.0539999	6.70090103	2.69099998	0	200	0
-3.05800009	6.70090103	2.69700003	0	200	0
-3.06800008	6.70090103	2.70300007	0	200	0
-3.06999993	6.70090103	2.70799994	0	200	0
-3.06999993	6.70090103	2.7190001	0	200	0
-3.07299995	6.70090103	2.7249999	0	200	0
-3.0769999	6.70090103	2.73000002	0	200	0
-3.08299994	6.70090103	2.73600006	0	200	0
-3.00699997	6.70090103	2.58200002	0	200	0
-3.00699997	6.70090103	2.58800006	0	200	0
-3.01600003	6.70090103	2.59299994	0	200	0
-3.01600003	6.70090103	2.59800005	0	200	0
-3.01699996	6.70090103	2.60899997	0	200	0
-3.02399993	6.70090103	2.61500001	0	200	0
-3.02399993	6.70090103	2.61999989	0	200	0
-3.02600002	6.70090103	2.625	0	200	0
-3.02699995	6.70090103	2.63599992	0	200	0
-3.03299999	6.70090103	2.64700007	0	200	0
-3.04099989	6.70090103	2.65300012	0	200	0
-2.98300004	6.70090103	2.51399994	0	200	0
-2.98300004	6.70090103	2.51900005	0	200	0
-2.98399997	6.70090103	2.52900004	0	200	0
-2.9849999	6.70090103	2.53500009	0	200	0
-2.99000001	6.70090103	2.53999996	0	200	0
-2.99399996	6.70090103	2.55599999	0	200	0
-2.99399996	6.70090103	2.56100011	0	200	0
-3	6.70090103	2.57200003	0	200	0
-2.94799995	6.70090103	2.42600012	0	200	0
-2.95000005	6.70090103	2.43099999	0	200	0
-2.95300007	6.70090103	2.43600011	0	200	0
-2.95600009	6.70090103	2.44099998	0	200	0
-2.95600009	6.70090103	2.45099998	0	200	0
-2.95900011	6.70090103	2.45600009	0	200	0
-2.96399999	6.70090103	2.46199989	0	200	0
-2.96399999	6.70090103	2.46700001	0	200	0
-2.96799994	6.70090103	2.477	0	200	0
-2.9690001	6.70090103	2.48200011	0	200	0
-2.92199993	6.70090103	2.33400011	0	200	0
-2.92499995	6.70090103	2.33899999	0	200	0
-2.92799997	6.70090103	2.34899998	0	200	0
-2.92700005	6.70090103	2.35400009	0	200	0
-2.93099999	6.70090103	2.35899997	0	200	0
-2.93099999	6.70090103	2.36400008	0	200	0
-2.93400002	6.70090103	2.375	0	200	0
-2.93499994	6.70090103	2.38000011	0	200	0
-2.94099998	6.70090103	2.38499999	0	200	0
-2.94099998	6.70090103	2.3900001	0	200	0
-2.94199991	6.70090103	2.4000001	0	200	0
-2.94300008	6.70090103	2.40499997	0	200	0
-2.9460001	6.70090103	2.41000009	0	200	0
-2.95000005	6.70090103	2.41499996	0	200	0
-2.89899993	6.70090103	2.23799992	0	200	0
-2.898	6.70090103	2.24900007	0	200	0
-2.90100002	6.70090103	2.25399995	0	200	0
-2.90400004	6.70090103	2.2579999	0	200	0
-2.90400004	6.70090103	2.26300001	0	200	0
-2.90499997	6.70090103	2.27399993	0	200	0
-2.90499997	6.70090103	2.27900004	0	200	0
-2.90899992	6.70090103	2.28399992	0	200	0
-2.91100001	6.70090103	2.28900003	0	200	0
-2.91199994	6.70090103	2.29900002	0	200	0
-2.91199994	6.70090103	2.3039999	0	200	0
-2.91700006	6.70090103	2.30900002	0	200	0
-2.91599989	6.70090103	2.31399989	0	200	0
-2.91899991	6.70090103	2.32399988	0	200	0
-2.92199993	6.70090103	2.329	0	200	0
-2.97900009	6.70090103	2.1789999	0	200	0
-2.87800002	6.70090103	2.14899993	0	200	0
-2.98399997	6.70090103	2.20499992	0	200	0
-2.875	6.70090103	2.15400004	0	200	0
-2.88000011	6.70090103	2.15899992	0	200	0
-2.88000011	6.70090103	2.16400003	0	200	0
-2.88199997	6.70090103	2.17400002	0	200	0
-2.8829999	6.70090103	2.1789999	0	200	0
-2.88400006	6.70090103	2.18400002	0	200	0
-2.88800001	6.70090103	2.19899988	0	200	0
-2.88800001	6.70090103	2.204	0	200	0
-2.8900001	6.70090103	2.20900011	0	200	0
-2.89299989	6.70090103	2.22399998	0	200	0
-2.89400005	6.70090103	2.22900009	0	200	0
-2.898	6.70090103	2.23300004	0	200	0
-2.81999993	6.70099974	2.33500004	0	200	0
-2.97000003	6.70090103	2.08500004	0	200	0
-2.97000003	6.70090103	2.10100007	0	200	0
-2.8599999	6.70090103	2.0539999	0	200	0
-2.85899997	6.70090103	2.05900002	0	200	0
-2.8599999	6.70090103	2.06399989	0	200	0
-2.86199999	6.70090103	2.07399988	0	200	0
-2.86400008	6.70090103	2.079	0	200	0
-2.86400008	6.70090103	2.08400011	0	200	0
-2.86599994	6.70090103	2.08899999	0	200	0
-2.86899996	6.70090103	2.10400009	0	200	0
-2.86800003	6.70090103	2.10899997	0	200	0
-2.87100005	6.70090103	2.12400007	0	200	0
-2.87299991	6.70090103	2.12899995	0	200	0
-2.87299991	6.70090103	2.13400006	0	200	0
-2.87299991	6.70090103	2.13899994	0	200	0
-2.74099994	6.70099974	2.27600002	0	200	0
-2.73699999	6.70099974	2.28600001	0	200	0
-2.76699996	6.70099974	2.41499996	0	200	0
-2.73699999	6.70099974	2.29099989	0	200	0
-2.7650001	6.70099974	2.41000009	0	200	0
-2.7650001	6.70099974	2.4059999	0	200	0
-2.74000001	6.70099974	2.29999995	0	200	0
-2.74600005	6.70099974	2.29500008	0	200	0
-2.75900006	6.70099974	2.39100003	0	200	0
-2.7420001	6.70099974	2.30999994	0	200	0
-2.75600004	6.70099974	2.38599992	0	200	0
-2.76799989	6.70099974	2.39599991	0	200	0
-2.75699997	6.70099974	2.38199997	0	200	0
-2.74399996	6.70099974	2.31500006	0	200	0
-2.74499989	6.70099974	2.31900001	0	200	0
-2.74600005	6.70099974	2.33400011	0	200	0
-2.75399995	6.70099974	2.36199999	0	200	0
-2.75	6.70099974	2.34800005	0	200	0
-2.7579999	6.70099974	2.3670001	0	200	0
-2.75099993	6.70099974	2.34299994	0	200	0
-2.76399994	6.70099974	2.37199998	0	200	0
-2.75399995	6.70099974	2.32399988	0	200	0
-2.82399988	6.70099974	2.35400009	0	200	0
-2.94400001	6.70090103	2.00999999	0	200	0
-2.94400001	6.70090103	2.01999998	0	200	0
-2.84299994	6.70090103	1.95899999	0	200	0
-2.84200001	6.70090103	1.96500003	0	200	0
-2.84599996	6.70090103	1.97399998	0	200	0
-2.85100007	6.70090103	1.98399997	0	200	0
-2.84800005	6.70090103	1.98899996	0	200	0
-2.8499999	6.70090103	1.99899995	0	200	0
-2.8499999	6.70090103	2.00399995	0	200	0
-2.85299993	6.70090103	2.00900006	0	200	0
-2.8499999	6.70090103	2.0150001	0	200	0
-2.85400009	6.70090103	2.02900004	0	200	0
-2.85800004	6.70090103	2.03900003	0	200	0
-2.8599999	6.70090103	2.04900002	0	200	0
-2.76799989	6.70099974	2.09299994	0	200	0
-2.71700001	6.70099974	2.18199992	0	200	0
-2.68700004	6.70109987	2.34699988	0	200	0
-2.72000003	6.70099974	2.19199991	0	200	0
-2.72099996	6.70099974	2.1960001	0	200	0
-2.72099996	6.70099974	2.20099998	0	200	0
-2.72099996	6.70099974	2.20600009	0	200	0
-2.72399998	6.70099974	2.21499991	0	200	0
-2.72199988	6.70099974	2.22000003	0	200	0
-2.73099995	6.70099974	2.22399998	0	200	0
-2.72799993	6.70099974	2.22900009	0	200	0
-2.727	6.70099974	2.23900008	0	200	0
-2.72600007	6.70099974	2.24399996	0	200	0
-2.73399997	6.70099974	2.24799991	0	200	0
-2.73200011	6.70099974	2.25300002	0	200	0
-2.73000002	6.70099974	2.26300001	0	200	0
-2.73300004	6.70099974	2.26699996	0	200	0
-2.73399997	6.70099974	2.27200007	0	200	0
-2.79099989	6.70099974	2.51200008	0	200	0
-2.78999996	6.70099974	2.50699997	0	200	0
-2.77999997	6.70099974	2.48300004	0	200	0
-2.77900004	6.70099974	2.47799993	0	200	0
-2.7809999	6.70099974	2.46799994	0	200	0
-2.7750001	6.70099974	2.45900011	0	200	0
-2.77600002	6.70099974	2.454	0	200	0
-2.77900004	6.70099974	2.44400001	0	200	0
-2.77200007	6.70099974	2.43899989	0	200	0
-2.7750001	6.70099974	2.43400002	0	200	0
-2.76900005	6.70099974	2.43000007	0	200	0
-2.7650001	6.70099974	2.42000008	0	200	0
-2.93400002	6.70090103	1.96399999	0	200	0
-2.83200002	6.70090103	1.86399996	0	200	0
-2.83299994	6.70090103	1.87899995	0	200	0
-2.83400011	6.70090103	1.88399994	0	200	0
-2.83599997	6.70090103	1.88900006	0	200	0
-2.83599997	6.70090103	1.89900005	0	200	0
-2.83599997	6.70090103	1.90400004	0	200	0
-2.83800006	6.70090103	1.90900004	0	200	0
-2.84100008	6.70090103	1.92400002	0	200	0
-2.84200001	6.70090103	1.92900002	0	200	0
-2.84100008	6.70090103	1.93400002	0	200	0
-2.84200001	6.70090103	1.93900001	0	200	0
-2.84200001	6.70090103	1.949	0	200	0
-2.8440001	6.70090103	1.954	0	200	0
-2.71300006	6.70099974	2.1730001	0	200	0
-2.69400001	6.70099974	2.0309999	0	200	0
-2.69099998	6.70099974	2.03600001	0	200	0
-2.71099997	6.70099974	2.16799998	0	200	0
-2.69099998	6.70099974	2.04099989	0	200	0
-2.71000004	6.70099974	2.15899992	0	200	0
-2.69400001	6.70099974	2.04999995	0	200	0
-2.71000004	6.70099974	2.15400004	0	200	0
-2.69499993	6.70099974	2.05500007	0	200	0
-2.71099997	6.70099974	2.14899993	0	200	0
-2.70799994	6.70099974	2.14499998	0	200	0
-2.6960001	6.70099974	2.05999994	0	200	0
-2.6960001	6.70099974	2.06500006	0	200	0
-2.71000004	6.70099974	2.13499999	0	200	0
-2.69799995	6.70099974	2.079	0	200	0
-2.70300007	6.70099974	2.12100005	0	200	0
-2.70700002	6.70099974	2.12599993	0	200	0
-2.7019999	6.70099974	2.07299995	0	200	0
-2.70000005	6.70099974	2.08299994	0	200	0
-2.70000005	6.70099974	2.09800005	0	200	0
-2.70000005	6.70099974	2.08800006	0	200	0
-2.704	6.70099974	2.11199999	0	200	0
-2.71300006	6.70099974	2.13000011	0	200	0
-2.704	6.70099974	2.10700011	0	200	0
-2.71399999	6.70099974	2.17799997	0	200	0
-2.8210001	6.70099974	2.60599995	0	200	0
-2.81399989	6.70099974	2.60100007	0	200	0
-2.81299996	6.70099974	2.59100008	0	200	0
-2.85500002	6.70099974	2.46300006	0	200	0
-2.81599998	6.70099974	2.58599997	0	200	0
-2.80800009	6.70099974	2.58100009	0	200	0
-2.80500007	6.70099974	2.57599998	0	200	0
-2.8039999	6.70099974	2.56100011	0	200	0
-2.80100012	6.70099974	2.55599999	0	200	0
-2.79500008	6.70099974	2.55100012	0	200	0
-2.79999995	6.70099974	2.54200006	0	200	0
-2.80299997	6.70099974	2.53699994	0	200	0
-2.79299998	6.70099974	2.53200006	0	200	0
-2.79200006	6.70099974	2.52699995	0	200	0
-2.79900002	6.70099974	2.51699996	0	200	0
-2.84500003	6.70090103	1.76600003	0	200	0
-2.85100007	6.70090103	1.76999998	0	200	0
-2.83599997	6.70090103	1.77900004	0	200	0
-2.83999991	6.70090103	1.78299999	0	200	0
-2.85500002	6.70090103	1.78999996	0	200	0
-2.84500003	6.70090103	1.79799998	0	200	0
-2.81800008	6.70090103	1.80900002	0	200	0
-2.829	6.70090103	1.85899997	0	200	0
-2.68499994	6.70099974	1.95500004	0	200	0
-2.68199992	6.70099974	1.96000004	0	200	0
-2.68300009	6.70099974	1.98399997	0	200	0
-2.68899989	6.70099974	1.98800004	0	200	0
-2.68199992	6.70099974	1.99399996	0	200	0
-2.69099998	6.70099974	2.00200009	0	200	0
-2.68499994	6.70099974	2.0079999	0	200	0
-2.68700004	6.70099974	2.01300001	0	200	0
-2.68899989	6.70099974	2.01699996	0	200	0
-2.69099998	6.70099974	2.02699995	0	200	0
-2.84500003	6.70099974	2.7019999	0	200	0
-2.84899998	6.70099974	2.69300008	0	200	0
-2.77099991	6.70109987	2.67199993	0	200	0
-2.83999991	6.70099974	2.68700004	0	200	0
-2.8440001	6.70099974	2.68199992	0	200	0
-2.88899994	6.70099974	2.56900001	0	200	0
-2.83500004	6.70099974	2.67700005	0	200	0
-2.8440001	6.70099974	2.66700006	0	200	0
-2.83299994	6.70099974	2.66199994	0	200	0
-2.83599997	6.70099974	2.65700006	0	200	0
-2.829	6.70099974	2.65100002	0	200	0
-2.82599998	6.70099974	2.64100003	0	200	0
-2.82599998	6.70099974	2.63599992	0	200	0
-2.8210001	6.70099974	2.63100004	0	200	0
-2.81999993	6.70099974	2.62599993	0	200	0
-2.82500005	6.70099974	2.61599994	0	200	0
-2.81800008	6.70099974	2.61100006	0	200	0
-2.81800008	6.70090103	1.67200005	0	200	0
-2.84100008	6.70090103	1.72500002	0	200	0
-2.83500004	6.70090103	1.74199998	0	200	0
-2.85100007	6.70090103	1.74300003	0	200	0
-2.83999991	6.70090103	1.75199997	0	200	0
-2.727	6.70099974	1.77100003	0	200	0
-2.87800002	6.70099974	2.79099989	0	200	0
-2.87299991	6.70099974	2.78500009	0	200	0
-2.87100005	6.70099974	2.77999997	0	200	0
-2.86800003	6.70099974	2.76999998	0	200	0
-2.87700009	6.70099974	2.76600003	0	200	0
-2.86400008	6.70099974	2.75900006	0	200	0
-2.8599999	6.70099974	2.75399995	0	200	0
-2.85700011	6.70099974	2.73799992	0	200	0
-2.86100006	6.70099974	2.73399997	0	200	0
-2.85400009	6.70099974	2.72799993	0	200	0
-2.852	6.70099974	2.71799994	0	200	0
-2.84899998	6.70099974	2.71300006	0	200	0
-2.84800005	6.70099974	2.70799994	0	200	0
-2.71300006	6.70190001	2.67400002	0	200	0
-2.71799994	6.70190001	2.69300008	0	200	0
-2.6960001	6.70109987	2.6099999	0	200	0
-2.7190001	6.70190001	2.6789999	0	200	0
-2.73000002	6.70109987	2.75600004	0	200	0
-2.7249999	6.70190001	2.67000008	0	200	0
-2.69799995	6.70109987	2.61999989	0	200	0
-2.70000005	6.70109987	2.625	0	200	0
-2.72900009	6.70109987	2.74600005	0	200	0
-2.70000005	6.70109987	2.63000011	0	200	0
-2.70300007	6.70109987	2.63400006	0	200	0
-2.704	6.70109987	2.64400005	0	200	0
-2.70300007	6.70109987	2.64899993	0	200	0
-2.72600007	6.70109987	2.727	0	200	0
-2.70499992	6.70109987	2.65400004	0	200	0
-2.70600009	6.70109987	2.65799999	0	200	0
-2.71000004	6.70109987	2.67799997	0	200	0
-2.71799994	6.70109987	2.7019999	0	200	0
-2.71099997	6.70109987	2.6730001	0	200	0
-2.71600008	6.70109987	2.68300009	0	200	0
-2.81399989	6.70090103	1.57700002	0	200	0
-2.81599998	6.70090103	1.58700001	0	200	0
-2.81399989	6.70090103	1.59300005	0	200	0
-2.81399989	6.70090103	1.59800005	0	200	0
-2.81599998	6.70090103	1.61399996	0	200	0
-2.81699991	6.70090103	1.61899996	0	200	0
-2.81399989	6.70090103	1.625	0	200	0
-2.81900001	6.70090103	1.63999999	0	200	0
-2.81699991	6.70090103	1.64600003	0	200	0
-2.81500006	6.70090103	1.65199995	0	200	0
-2.81399989	6.70090103	1.65799999	0	200	0
-2.81699991	6.70090103	1.66700006	0	200	0
-2.7249999	6.70099974	1.74600005	0	200	0
-2.90799999	6.70099974	2.87700009	0	200	0
-2.91599989	6.70099974	2.87299991	0	200	0
-2.95700002	6.70099974	2.75300002	0	200	0
-2.91199994	6.70099974	2.86199999	0	200	0
-2.9000001	6.70099974	2.86599994	0	200	0
-2.89899993	6.70099974	2.8499999	0	200	0
-2.9059999	6.70099974	2.84599996	0	200	0
-2.89400005	6.70099974	2.83899999	0	200	0
-2.8900001	6.70099974	2.83299994	0	200	0
-2.89700007	6.70099974	2.82399988	0	200	0
-2.89899993	6.70099974	2.81900001	0	200	0
-2.8829999	6.70099974	2.81200004	0	200	0
-2.87800002	6.70099974	2.80599999	0	200	0
-2.71499991	6.70280075	2.71700001	0	200	0
-2.62199998	6.70210028	2.63899994	0	200	0
-2.61999989	6.70210028	2.65300012	0	200	0
-2.72199988	6.70280075	2.70799994	0	200	0
-2.71300006	6.70190001	2.57800007	0	200	0
-2.62400007	6.70210028	2.66700006	0	200	0
-2.70799994	6.70190001	2.58299994	0	200	0
-2.7019999	6.70190001	2.59699988	0	200	0
-2.71799994	6.70190001	2.60700011	0	200	0
-2.71099997	6.70190001	2.61199999	0	200	0
-2.71300006	6.70190001	2.62599993	0	200	0
-2.72399998	6.70190001	2.63100004	0	200	0
-2.71799994	6.70190001	2.63599992	0	200	0
-2.70000005	6.70190001	2.70099998	0	200	0
-2.70600009	6.70190001	2.64499998	0	200	0
-2.71499991	6.70190001	2.6500001	0	200	0
-2.704	6.70190001	2.57299995	0	200	0
-2.68499994	6.70109987	2.55800009	0	200	0
-2.68199992	6.70109987	2.56299996	0	200	0
-2.68700004	6.70109987	2.57200003	0	200	0
-2.69000006	6.70109987	2.5769999	0	200	0
-2.68799996	6.70109987	2.58200002	0	200	0
-2.69000006	6.70109987	2.58699989	0	200	0
-2.69300008	6.70109987	2.59599996	0	200	0
-2.69099998	6.70109987	2.60100007	0	200	0
-2.69499993	6.70109987	2.60599995	0	200	0
-2.75500011	6.70109987	2.8269999	0	200	0
-2.74900007	6.70109987	2.80699992	0	200	0
-2.74300003	6.70109987	2.80100012	0	200	0
-2.74099994	6.70109987	2.796	0	200	0
-2.73699999	6.70109987	2.79099989	0	200	0
-2.74300003	6.70109987	2.78200006	0	200	0
-2.7190001	6.70099974	1.59200001	0	200	0
-2.81500006	6.70090103	1.48300004	0	200	0
-2.89899993	6.70090103	1.53799999	0	200	0
-2.898	6.70090103	1.60500002	0	200	0
-2.81200004	6.70090103	1.49000001	0	200	0
-2.89700007	6.70090103	1.57799995	0	200	0
-2.81500006	6.70090103	1.505	0	200	0
-2.81500006	6.70090103	1.51100004	0	200	0
-2.81500006	6.70090103	1.51600003	0	200	0
-2.81299996	6.70090103	1.52199996	0	200	0
-2.81399989	6.70090103	1.53299999	0	200	0
-2.81100011	6.70090103	1.53900003	0	200	0
-2.81500006	6.70090103	1.54400003	0	200	0
-2.81299996	6.70090103	1.54999995	0	200	0
-2.81399989	6.70090103	1.55999994	0	200	0
-2.81399989	6.70090103	1.57099998	0	200	0
-2.71600008	6.70099974	1.60899997	0	200	0
-2.72000003	6.70099974	1.64400005	0	200	0
-2.95900011	6.70099974	2.95799994	0	200	0
-2.9460001	6.70099974	2.96099997	0	200	0
-2.95000005	6.70099974	2.95099998	0	200	0
-2.93700004	6.70099974	2.94400001	0	200	0
-2.93099999	6.70099974	2.93199992	0	200	0
-2.93000007	6.70099974	2.92700005	0	200	0
-2.92600012	6.70099974	2.921	0	200	0
-2.93199992	6.70099974	2.91700006	0	200	0
-2.93099999	6.70099974	2.90100002	0	200	0
-2.92000008	6.70099974	2.90499997	0	200	0
-2.92600012	6.70099974	2.89499998	0	200	0
-2.91400003	6.70099974	2.88800001	0	200	0
-2.98000002	6.70099974	2.80699992	0	200	0
-2.78999996	6.70319986	2.75300002	0	200	0
-2.59899998	6.70210028	2.73399997	0	200	0
-2.59599996	6.70210028	2.71600008	0	200	0
-2.59599996	6.70210028	2.71099997	0	200	0
-2.60400009	6.70210028	2.69799995	0	200	0
-2.61800003	6.70210028	2.57999992	0	200	0
-2.60800004	6.70210028	2.68499994	0	200	0
-2.60800004	6.70210028	2.602	0	200	0
-2.59899998	6.70210028	2.61500001	0	200	0
-2.61100006	6.70210028	2.625	0	200	0
-2.61199999	6.70210028	2.63000011	0	200	0
-2.61500001	6.70210028	2.64400005	0	200	0
-2.59299994	6.70210028	2.74300003	0	200	0
-2.58800006	6.70210028	2.73799992	0	200	0
-2.70300007	6.70190001	2.54999995	0	200	0
-2.59100008	6.70210028	2.75600004	0	200	0
-2.77699995	6.70109987	2.91899991	0	200	0
-2.69799995	6.70179987	2.8440001	0	200	0
-2.71000004	6.70179987	2.8599999	0	200	0
-2.7809999	6.70109987	2.90899992	0	200	0
-2.77600002	6.70109987	2.90400004	0	200	0
-2.77200007	6.70109987	2.898	0	200	0
-2.76900005	6.70109987	2.89299989	0	200	0
-2.77200007	6.70109987	2.8829999	0	200	0
-2.76600003	6.70109987	2.87800002	0	200	0
-2.76699996	6.70109987	2.87299991	0	200	0
-2.76099992	6.70109987	2.8670001	0	200	0
-2.75999999	6.70109987	2.85700011	0	200	0
-2.7650001	6.70109987	2.85299993	0	200	0
-2.71499991	6.70099974	1.51900005	0	200	0
-2.71399999	6.70099974	1.55599999	0	200	0
-2.80900002	6.70090103	1.38399994	0	200	0
-2.81200004	6.70090103	1.39499998	0	200	0
-2.89899993	6.70090103	1.46500003	0	200	0
-2.80999994	6.70090103	1.40699995	0	200	0
-2.80599999	6.70090103	1.41400003	0	200	0
-2.80999994	6.70090103	1.42900002	0	200	0
-2.81599998	6.70090103	1.43299997	0	200	0
-2.81800008	6.70090103	1.449	0	200	0
-2.81399989	6.70090103	1.45599997	0	200	0
-2.80999994	6.70090103	1.46800005	0	200	0
-2.81500006	6.70090103	1.477	0	200	0
-2.92799997	6.70090103	1.67400002	0	200	0
-2.92600012	6.70090103	1.66900003	0	200	0
-2.94000006	6.70090103	1.65900004	0	200	0
-2.92000008	6.70090103	1.65400004	0	200	0
-2.98699999	6.70099974	3.04299998	0	200	0
-2.9849999	6.70099974	3.03699994	0	200	0
-2.98000002	6.70099974	3.0309999	0	200	0
-2.98799992	6.70099974	3.02200007	0	200	0
-2.97300005	6.70099974	3.01300001	0	200	0
-2.97900009	6.70099974	3.00399995	0	200	0
-2.96700001	6.70099974	3.00699997	0	200	0
-2.95900011	6.70099974	2.99000001	0	200	0
-2.96799994	6.70099974	2.98600006	0	200	0
-2.954	6.70099974	2.97799993	0	200	0
-2.96199989	6.70099974	2.97399998	0	200	0
-2.54900002	6.70190001	2.80599999	0	200	0
-2.60800004	6.70210028	2.78999996	0	200	0
-2.60800004	6.70210028	2.78600001	0	200	0
-2.57800007	6.70210028	2.77800012	0	200	0
-2.58200002	6.70210028	2.7650001	0	200	0
-2.58899999	6.70210028	2.76099992	0	200	0
-2.62400007	6.70150089	2.81100011	0	200	0
-2.59200001	6.70190001	2.8440001	0	200	0
-2.80800009	6.70109987	3.00999999	0	200	0
-2.68799996	6.70120001	2.95300007	0	200	0
-2.6960001	6.70120001	2.9690001	0	200	0
-2.68199992	6.70120001	2.91400003	0	200	0
-2.69099998	6.70120001	2.95900011	0	200	0
-2.68400002	6.70120001	2.92799997	0	200	0
-2.68799996	6.70120001	2.94400001	0	200	0
-2.69099998	6.70120001	2.93899989	0	200	0
-2.80200005	6.70109987	3.00300002	0	200	0
-2.80100012	6.70109987	2.99799991	0	200	0
-2.80699992	6.70109987	2.98900008	0	200	0
-2.80200005	6.70109987	2.98300004	0	200	0
-2.74600005	6.70120001	2.97300005	0	200	0
-2.796	6.70109987	2.977	0	200	0
-2.79099989	6.70109987	2.97099996	0	200	0
-2.79999995	6.70109987	2.96300006	0	200	0
-2.79099989	6.70109987	2.95600009	0	200	0
-2.78600001	6.70109987	2.95000005	0	200	0
-2.78500009	6.70109987	2.94499993	0	200	0
-2.78999996	6.70109987	2.93600011	0	200	0
-2.7809999	6.70109987	2.9289999	0	200	0
-2.78200006	6.70109987	2.92499995	0	200	0
-2.69499993	6.70179987	2.89700007	0	200	0
-2.72099996	6.70099974	1.42999995	0	200	0
-2.89700007	6.70090103	1.33899999	0	200	0
-2.81399989	6.70090103	1.29100001	0	200	0
-2.89599991	6.70090103	1.36800003	0	200	0
-2.89700007	6.70090103	1.39100003	0	200	0
-2.81200004	6.70090103	1.29700005	0	200	0
-2.89100003	6.70090103	1.40999997	0	200	0
-2.81599998	6.70090103	1.30700004	0	200	0
-2.81100011	6.70090103	1.32099998	0	200	0
-2.81100011	6.70090103	1.32700002	0	200	0
-2.81399989	6.70090103	1.33700001	0	200	0
-2.81299996	6.70090103	1.34899998	0	200	0
-2.80999994	6.70090103	1.35599995	0	200	0
-2.81200004	6.70090103	1.36600006	0	200	0
-2.80800009	6.70090103	1.37899995	0	200	0
-2.91300011	6.70090103	1.42499995	0	200	0
-2.70900011	6.70099974	1.40699995	0	200	0
-3.03299999	6.70099974	3.11199999	0	200	0
-2.91499996	6.70109987	3.08200002	0	200	0
-3.02600002	6.70099974	3.10500002	0	200	0
-3.01399994	6.70099974	3.09699988	0	200	0
-3.00600004	6.70099974	3.079	0	200	0
-3.01600003	6.70099974	3.06999993	0	200	0
-3.00300002	6.70099974	3.05200005	0	200	0
-2.9920001	6.70099974	3.05999994	0	200	0
-2.59899998	6.70190001	2.90100002	0	200	0
-2.71199989	6.70120001	3.03600001	0	200	0
-2.8440001	6.70109987	3.0940001	0	200	0
-2.83100009	6.70109987	3.08599997	0	200	0
-2.83699989	6.70109987	3.08200002	0	200	0
-2.83299994	6.70109987	3.0710001	0	200	0
-2.7579999	6.70120001	3.02999997	0	200	0
-2.81900001	6.70109987	3.05800009	0	200	0
-2.82599998	6.70109987	3.0539999	0	200	0
-2.81800008	6.70109987	3.04200006	0	200	0
-2.81399989	6.70109987	3.03600001	0	200	0
-2.81100011	6.70109987	3.0309999	0	200	0
-2.81900001	6.70109987	3.02699995	0	200	0
-2.81200004	6.70109987	3.0150001	0	200	0
-2.68099999	6.70130014	3.04999995	0	200	0
-2.71399999	6.70120001	3.046	0	200	0
-2.71199989	6.70120001	3.04099989	0	200	0
-2.70499992	6.70120001	3.02999997	0	200	0
-2.70700002	6.70120001	3.0150001	0	200	0
-2.70099998	6.70120001	3.00900006	0	200	0
-2.7019999	6.70120001	3.00399995	0	200	0
-2.7019999	6.70120001	2.99499989	0	200	0
-2.69899988	6.70120001	2.98900008	0	200	0
-2.70000005	6.70120001	2.9849999	0	200	0
-2.69400001	6.70120001	2.97900009	0	200	0
-2.71700001	6.70120001	3.06200004	0	200	0
-2.71700001	6.70120001	3.05699992	0	200	0
-2.72000003	6.70120001	3.06699991	0	200	0
-2.71000004	6.70099974	1.352	0	200	0
-2.70799994	6.70099974	1.36899996	0	200	0
-2.81699991	6.70090103	1.28400004	0	200	0
-2.90100002	6.70090103	1.24199998	0	200	0
-2.9000001	6.70090103	1.278	0	200	0
-2.89899993	6.70090103	1.30799997	0	200	0
-2.8210001	6.70090103	1.199	0	200	0
-2.82200003	6.70090103	1.21700001	0	200	0
-2.82299995	6.70090103	1.222	0	200	0
-2.81900001	6.70090103	1.23000002	0	200	0
-2.81999993	6.70090103	1.24699998	0	200	0
-2.81900001	6.70090103	1.25300002	0	200	0
-2.81900001	6.70090103	1.25999999	0	200	0
-2.81500006	6.70090103	1.26699996	0	200	0
-2.71099997	6.70099974	1.324	0	200	0
-3.08500004	6.70099974	3.19700003	0	200	0
-3.0940001	6.70099974	3.17600012	0	200	0
-3.07800007	6.70099974	3.16100001	0	200	0
-3.04999995	6.70099974	3.17199993	0	200	0
-3.06399989	6.70099974	3.16300011	0	200	0
-3.0480001	6.70099974	3.14299989	0	200	0
-3.05699992	6.70099974	3.13400006	0	200	0
-3.04999995	6.70099974	3.13800001	0	200	0
-3.0539999	6.70099974	3.12800002	0	200	0
-2.8670001	6.70109987	3.16700006	0	200	0
-2.87400007	6.70109987	3.15899992	0	200	0
-2.86500001	6.70109987	3.15100002	0	200	0
-2.85400009	6.70109987	3.13800001	0	200	0
-2.86599994	6.70109987	3.14599991	0	200	0
-2.84299994	6.70109987	3.11500001	0	200	0
-2.84299994	6.70109987	3.10899997	0	200	0
-2.8499999	6.70109987	3.12100005	0	200	0
-2.8599999	6.70109987	3.12899995	0	200	0
-2.852	6.70109987	3.10100007	0	200	0
-2.73799992	6.70120001	3.12700009	0	200	0
-2.73699999	6.70120001	3.12100005	0	200	0
-2.72900009	6.70120001	3.11400008	0	200	0
-2.72799993	6.70120001	3.10899997	0	200	0
-2.72799993	6.70120001	3.0940001	0	200	0
-2.72300005	6.70120001	3.08800006	0	200	0
-2.7190001	6.70120001	3.08200002	0	200	0
-2.7249999	6.70120001	3.07399988	0	200	0
-2.88599992	6.70109987	3.18300009	0	200	0
-2.87700009	6.70109987	3.18600011	0	200	0
-2.87599993	6.70109987	3.17499995	0	200	0
-2.79099989	6.70120001	3.11299992	0	200	0
-2.73900008	6.70120001	3.14199996	0	200	0
-2.74099994	6.70120001	3.13700008	0	200	0
-2.74699998	6.70120001	3.15400004	0	200	0
-2.74099994	6.70120001	3.148	0	200	0
-2.71399999	6.70099974	1.25399995	0	200	0
-2.71199989	6.70099974	1.301	0	200	0
-2.82599998	6.70090103	1.19099998	0	200	0
-2.829	6.70090103	1.18400002	0	200	0
-2.90499997	6.70090103	1.16799998	0	200	0
-2.90100002	6.70090103	1.199	0	200	0
-2.7249999	6.70099974	1.17400002	0	200	0
-2.83299994	6.70090103	1.10300004	0	200	0
-2.83400011	6.70090103	1.10899997	0	200	0
-2.83599997	6.70090103	1.12	0	200	0
-2.8269999	6.70090103	1.13600004	0	200	0
-2.82800007	6.70090103	1.14199996	0	200	0
-2.82999992	6.70090103	1.15900004	0	200	0
-2.82399988	6.70090103	1.16799998	0	200	0
-2.71499991	6.70099974	1.22500002	0	200	0
-3.0309999	6.70109987	3.27999997	0	200	0
-3.11100006	6.70099974	3.19700003	0	200	0
-2.90700006	6.70109987	3.2579999	0	200	0
-2.91199994	6.70109987	3.24300003	0	200	0
-2.90300012	6.70109987	3.23000002	0	200	0
-2.89400005	6.70109987	3.21700001	0	200	0
-2.8900001	6.70109987	3.21000004	0	200	0
-2.88100004	6.70109987	3.20300007	0	200	0
-2.88599992	6.70109987	3.19899988	0	200	0
-2.76200008	6.70120001	3.22000003	0	200	0
-2.76799989	6.70120001	3.21099997	0	200	0
-2.76099992	6.70120001	3.204	0	200	0
-2.75099993	6.70120001	3.19099998	0	200	0
-2.75600004	6.70120001	3.18199992	0	200	0
-2.74900007	6.70120001	3.17499995	0	200	0
-2.74600005	6.70120001	3.16899991	0	200	0
-2.75	6.70120001	3.16499996	0	200	0
-2.84299994	6.70120001	3.26799989	0	200	0
-2.91199994	6.70109987	3.26999998	0	200	0
-2.76699996	6.70120001	3.23099995	0	200	0
-2.773	6.70120001	3.23799992	0	200	0
-2.71700001	6.70099974	1.19500005	0	200	0
-2.90799999	6.70090103	1.13499999	0	200	0
-2.83599997	6.70090103	1.09500003	0	200	0
-2.91700006	6.70090103	1.08700001	0	200	0
-2.91400003	6.70090103	1.11399996	0	200	0
-2.73099995	6.70099974	1.08700001	0	200	0
-2.727	6.70099974	1.11899996	0	200	0
-2.72399998	6.70099974	1.14499998	0	200	0
-2.852	6.70090103	1.01900005	0	200	0
-2.84899998	6.70090103	1.02699995	0	200	0
-2.84299994	6.70090103	1.04299998	0	200	0
-2.84500003	6.70090103	1.05400002	0	200	0
-2.84200001	6.70090103	1.06200004	0	200	0
-2.83899999	6.70090103	1.06900001	0	200	0
-2.83999991	6.70090103	1.07500005	0	200	0
-2.98000002	6.70109987	3.36199999	0	200	0
-2.954	6.70109987	3.33699989	0	200	0
-2.95000005	6.70109987	3.32500005	0	200	0
-2.97099996	6.70109987	3.34800005	0	200	0
-2.94300008	6.70109987	3.29500008	0	200	0
-2.9460001	6.70109987	3.30699992	0	200	0
-2.954	6.70109987	3.31500006	0	200	0
-2.9230001	6.70109987	3.27900004	0	200	0
-2.80100012	6.70120001	3.30900002	0	200	0
-2.70700002	6.70130014	3.29699993	0	200	0
-2.70600009	6.70130014	3.29200006	0	200	0
-2.70300007	6.70130014	3.2809999	0	200	0
-2.79399991	6.70120001	3.296	0	200	0
-2.70000005	6.70130014	3.26999998	0	200	0
-2.68899989	6.70130014	3.25099993	0	200	0
-2.79500008	6.70120001	3.29200006	0	200	0
-2.69700003	6.70130014	3.26399994	0	200	0
-2.68899989	6.70130014	3.23600006	0	200	0
-2.78200006	6.70120001	3.27699995	0	200	0
-2.78399992	6.70120001	3.26699996	0	200	0
-2.77699995	6.70120001	3.25999999	0	200	0
-2.81800008	6.70120001	3.35700011	0	200	0
-2.80999994	6.70120001	3.34899998	0	200	0
-2.80599999	6.70120001	3.33699989	0	200	0
-2.81399989	6.70120001	3.329	0	200	0
-2.80500007	6.70120001	3.3210001	0	200	0
-2.70799994	6.70130014	3.30800009	0	200	0
-2.92199993	6.70090103	1.04700005	0	200	0
-2.84699988	6.70090103	1.00300002	0	200	0
-2.92499995	6.70090103	0.995000005	0	200	0
-2.74499989	6.70099974	1.00100005	0	200	0
-2.73900008	6.70099974	1.02900004	0	200	0
-2.73399997	6.70099974	1.06200004	0	200	0
-2.93400002	6.70090103	0.963999987	0	200	0
-2.86400008	6.70090103	0.924000025	0	200	0
-2.86100006	6.70090103	0.930999994	0	200	0
-2.86800003	6.70090103	0.934000015	0	200	0
-2.85100007	6.70090103	0.963	0	200	0
-2.852	6.70090103	0.968999982	0	200	0
-2.852	6.70090103	0.975000024	0	200	0
-2.85100007	6.70090103	0.994000018	0	200	0
-3.01999998	6.70109987	3.42000008	0	200	0
-3.00999999	6.70109987	3.41100001	0	200	0
-3.01099992	6.70109987	3.39899993	0	200	0
-2.99300003	6.70109987	3.3829999	0	200	0
-2.97000003	6.70109987	3.36999989	0	200	0
-2.72900009	6.70130014	3.37700009	0	200	0
-2.74000001	6.70130014	3.38700008	0	200	0
-2.72099996	6.70130014	3.36500001	0	200	0
-2.83500004	6.70120001	3.40100002	0	200	0
-2.84299994	6.70120001	3.39199996	0	200	0
-2.71300006	6.70130014	3.31999993	0	200	0
-2.71700001	6.70130014	3.33699989	0	200	0
-2.7249999	6.70130014	3.3499999	0	200	0
-2.73099995	6.70130014	3.35700011	0	200	0
-2.83599997	6.70120001	3.38499999	0	200	0
-2.72099996	6.70130014	3.32800007	0	200	0
-2.82500005	6.70120001	3.36999989	0	200	0
-2.85800004	6.70120001	3.44700003	0	200	0
-2.73799992	6.70130014	3.40700006	0	200	0
-2.74499989	6.70130014	3.41499996	0	200	0
-2.85899997	6.70120001	3.43600011	0	200	0
-2.74099994	6.70130014	3.39700007	0	200	0
-2.84699988	6.70120001	3.421	0	200	0
-2.84100008	6.70120001	3.41400003	0	200	0
-2.7809999	6.70099974	0.930999994	0	200	0
-2.94199991	6.70090103	0.907000005	0	200	0
-2.94000006	6.70090103	0.940999985	0	200	0
-2.76900005	6.70099974	0.906000018	0	200	0
-2.71499991	6.70099974	0.911000013	0	200	0
-2.71000004	6.70099974	0.925999999	0	200	0
-2.74900007	6.70099974	0.967000008	0	200	0
-2.87700009	6.70090103	0.896000028	0	200	0
-3.07399988	6.70109987	3.46600008	0	200	0
-3.04699993	6.70109987	3.44000006	0	200	0
-3.03299999	6.70109987	3.44700003	0	200	0
-2.7650001	6.70130014	3.47000003	0	200	0
-2.75300002	6.70130014	3.45499992	0	200	0
-2.75699997	6.70130014	3.4460001	0	200	0
-2.75399995	6.70130014	3.43899989	0	200	0
-2.74499989	6.70130014	3.42600012	0	200	0
-2.7650001	6.70130014	3.47600007	0	200	0
-2.87700009	6.70120001	3.48099995	0	200	0
-2.87599993	6.70120001	3.45900011	0	200	0
-2.86100006	6.70120001	3.46499991	0	200	0
-2.77800012	6.70130014	3.50200009	0	200	0
-2.78900003	6.70130014	3.51200008	0	200	0
-2.77399993	6.70130014	3.49000001	0	200	0
-2.90499997	6.70120001	3.5250001	0	200	0
-2.90899992	6.70120001	3.52099991	0	200	0
-2.90100002	6.70120001	3.50699997	0	200	0
-2.88700008	6.70120001	3.49099994	0	200	0
-2.80999994	6.70130014	3.55900002	0	200	0
-2.80299997	6.70130014	3.54500008	0	200	0
-2.78999996	6.70130014	3.53500009	0	200	0
-2.78399992	6.70130014	3.52099991	0	200	0
-2.92000008	6.70120001	3.5539999	0	200	0
-2.91899991	6.70120001	3.54200006	0	200	0
-2.82500005	6.70130014	3.58200002	0	200	0
-2.8210001	6.70130014	3.57399988	0	200	0
-2.96099997	6.70120001	3.60400009	0	200	0
-2.95499992	6.70120001	3.58400011	0	200	0
-2.94700003	6.70120001	3.56900001	0	200	0
-2.98799992	6.70120001	3.62599993	0	200	0
-2.97000003	6.70120001	3.60100007	0	200	0
-3.02900004	6.70120001	3.67199993	0	200	0
-3.01600003	6.70120001	3.65499997	0	200	0
-2.99600005	6.70120001	3.64100003	0	200	0
