-6.07399988	6.65310001	0.722000003	200	0	0
-6.06699991	6.65310001	0.769999981	200	0	0
-6.07499981	6.65310001	0.757000029	200	0	0
-6.07499981	6.65310001	0.745000005	200	0	0
-6.06699991	6.65310001	0.702000022	200	0	0
-6.06899977	6.65320015	0.643000007	200	0	0
-6.07200003	6.65320015	0.712000012	200	0	0
-6.06899977	6.65320015	0.654999971	200	0	0
-6.06699991	6.65320015	0.666999996	200	0	0
-6.07499981	6.65320015	0.699000001	200	0	0
-6.0710001	6.65320015	0.68900001	200	0	0
-6.07299995	6.65320015	0.745999992	200	0	0
-6.06799984	6.65320015	0.723999977	200	0	0
-6.08099985	6.65289974	0.879000008	200	0	0
-6.08300018	6.65289974	0.889999986	200	0	0
-6.09700012	6.65289974	0.908999979	200	0	0
-6.0710001	6.65299988	0.860000014	200	0	0
-6.09299994	6.65299988	0.911000013	200	0	0
-6.07299995	6.65299988	0.870999992	200	0	0
-6.07600021	6.65299988	0.882000029	200	0	0
-6.08300018	6.65299988	0.890999973	200	0	0
-6.07299995	6.65310001	0.802999973	200	0	0
-6.079	6.65310001	0.813000023	200	0	0
-6.07499981	6.65310001	0.870999992	200	0	0
-6.07399988	6.65310001	0.860000014	200	0	0
-6.06899977	6.65310001	0.827000022	200	0	0
-6.07000017	6.65310001	0.838	200	0	0
-6.08699989	6.65310001	0.889999986	200	0	0
-6.07600021	6.65310001	0.882000029	200	0	0
-6.09600019	6.65310001	0.911000013	200	0	0
-6.06799984	6.65320015	0.609000027	200	0	0
-6.07600021	6.65320015	0.629999995	200	0	0
-6.07000017	6.65320015	0.814999998	200	0	0
-6.07499981	6.65320015	0.801999986	200	0	0
-6.06799984	6.65320015	0.759000003	200	0	0
-6.06899977	6.65320015	0.781000018	200	0	0
-6.07000017	6.65320015	0.769999981	200	0	0
-6.07000017	6.65330029	0.654999971	200	0	0
-6.06899977	6.65330029	0.723999977	200	0	0
-6.06899977	6.65330029	0.666000009	200	0	0
-6.06699991	6.65330029	0.713	200	0	0
-6.06899977	6.65330029	0.700999975	200	0	0
-6.07700014	6.65330029	0.686999977	200	0	0
-6.07000017	6.65330029	0.769999981	200	0	0
-6.07399988	6.65330029	0.757000029	200	0	0
-6.06899977	6.65330029	0.746999979	200	0	0
-6.07600021	6.65330029	0.606000006	200	0	0
-6.0710001	6.65330029	0.643000007	200	0	0
-6.06699991	6.65330029	0.632000029	200	0	0
-6.06699991	6.65330029	0.838999987	200	0	0
-6.06599998	6.65330029	0.782000005	200	0	0
-6.07399988	6.65320015	0.860000014	200	0	0
-6.06599998	6.65330029	0.828000009	200	0	0
-6.06599998	6.65330029	0.805000007	200	0	0
-6.07200003	6.65330029	0.814999998	200	0	0
-6.06599998	6.65320015	0.838999987	200	0	0
-6.06599998	6.65320015	0.828000009	200	0	0
-6.09299994	6.65320015	0.911000013	200	0	0
-6.07499981	6.65320015	0.870999992	200	0	0
-6.07499981	6.65320015	0.882000029	200	0	0
-6.08900023	6.65320015	0.889999986	200	0	0
-6.08699989	6.65330029	0.889999986	200	0	0
-6.07299995	6.65330029	0.883000016	200	0	0
-6.07000017	6.65330029	0.861000001	200	0	0
-6.07399988	6.65330029	0.870999992	200	0	0
-6.07000017	6.6534009	0.838	200	0	0
-6.07000017	6.6534009	0.758000016	200	0	0
-6.06400013	6.6534009	0.828000009	200	0	0
-6.07299995	6.6534009	0.768999994	200	0	0
-6.07000017	6.6534009	0.814999998	200	0	0
-6.07000017	6.6534009	0.781000018	200	0	0
-6.07200003	6.6534009	0.802999973	200	0	0
-6.0999999	6.65330029	0.921000004	200	0	0
-6.06799984	6.6534009	0.713	200	0	0
-6.07399988	6.6534009	0.722000003	200	0	0
-6.07000017	6.6534009	0.746999979	200	0	0
-6.06799984	6.6534009	0.871999979	200	0	0
-6.06500006	6.6534009	0.861999989	200	0	0
-6.09399986	6.6534009	0.911000013	200	0	0
-6.08699989	6.6534009	0.889999986	200	0	0
-6.079	6.6534009	0.880999982	200	0	0
-6.06899977	6.6534009	0.643000007	200	0	0
-6.07200003	6.6534009	0.653999984	200	0	0
-6.06799984	6.6534009	0.666999996	200	0	0
-6.07299995	6.6534009	0.699999988	200	0	0
-6.07000017	6.6534009	0.68900001	200	0	0
-6.08599997	6.6534009	0.592000008	200	0	0
-6.07700014	6.6534009	0.606000006	200	0	0
-6.07700014	6.6534009	0.629000008	200	0	0
-6.06400013	6.6534996	0.667999983	200	0	0
-6.0710001	6.6534996	0.745999992	200	0	0
-6.0710001	6.6534996	0.68900001	200	0	0
-6.06699991	6.6534996	0.723999977	200	0	0
-6.06599998	6.6534996	0.713	200	0	0
-6.07299995	6.6534996	0.699999988	200	0	0
-6.07399988	6.6534996	0.757000029	200	0	0
-6.06500006	6.6534996	0.816999972	200	0	0
-6.06699991	6.6534996	0.805000007	200	0	0
-6.06599998	6.6534996	0.782000005	200	0	0
-6.07000017	6.6534996	0.769999981	200	0	0
-6.0710001	6.6534996	0.630999982	200	0	0
-6.06400013	6.6534996	0.644999981	200	0	0
-6.06400013	6.6534996	0.656000018	200	0	0
-6.06799984	6.6534996	0.827000022	200	0	0
-6.06599998	6.6534996	0.838999987	200	0	0
-6.07700014	6.6534996	0.893000007	200	0	0
-6.07499981	6.6534996	0.882000029	200	0	0
-6.06699991	6.6534996	0.861000001	200	0	0
-6.07200003	6.6534996	0.870999992	200	0	0
-6.09600019	6.6534996	0.911000013	200	0	0
-6.09899998	6.6534996	0.921000004	200	0	0
-6.08300018	6.6534996	0.592999995	200	0	0
-6.07299995	6.6534996	0.606999993	200	0	0
-6.06899977	6.65359974	0.723999977	200	0	0
-6.06799984	6.65359974	0.80400002	200	0	0
-6.06599998	6.65359974	0.782000005	200	0	0
-6.07499981	6.65359974	0.745000005	200	0	0
-6.06599998	6.65359974	0.771000028	200	0	0
-6.0710001	6.65359974	0.758000016	200	0	0
-6.06599998	6.65359974	0.815999985	200	0	0
-6.06899977	6.65359974	0.871999979	200	0	0
-6.07200003	6.65359974	0.860000014	200	0	0
-6.06799984	6.65359974	0.827000022	200	0	0
-6.07000017	6.65359974	0.838	200	0	0
-6.06899977	6.65359974	0.654999971	200	0	0
-6.06400013	6.65359974	0.667999983	200	0	0
-6.06400013	6.65359974	0.713999987	200	0	0
-6.07000017	6.65359974	0.68900001	200	0	0
-6.07299995	6.65359974	0.699999988	200	0	0
-6.0630002	6.65359974	0.610000014	200	0	0
-6.07399988	6.65369987	0.699999988	200	0	0
-6.06699991	6.65369987	0.632000029	200	0	0
-6.06899977	6.65369987	0.689999998	200	0	0
-6.06899977	6.65369987	0.643000007	200	0	0
-6.0630002	6.65369987	0.667999983	200	0	0
-6.06699991	6.65369987	0.656000018	200	0	0
-6.07600021	6.65359974	0.629999995	200	0	0
-6.07200003	6.65359974	0.64200002	200	0	0
-6.07000017	6.65369987	0.781000018	200	0	0
-6.05900002	6.65369987	0.714999974	200	0	0
-6.06099987	6.65369987	0.772000015	200	0	0
-6.06799984	6.65369987	0.723999977	200	0	0
-6.07000017	6.65369987	0.758000016	200	0	0
-6.0710001	6.65369987	0.745999992	200	0	0
-6.0710001	6.65380001	0.68900001	200	0	0
-6.06500006	6.65369987	0.838999987	200	0	0
-6.06500006	6.65369987	0.828000009	200	0	0
-6.06899977	6.65369987	0.814999998	200	0	0
-6.06899977	6.65369987	0.80400002	200	0	0
-6.09600019	6.65359974	0.911000013	200	0	0
-6.07200003	6.65359974	0.883000016	200	0	0
-6.08500004	6.65359974	0.890999973	200	0	0
-6.07600021	6.65369987	0.893000007	200	0	0
-6.0630002	6.65369987	0.861999989	200	0	0
-6.0710001	6.65369987	0.883000016	200	0	0
-6.06500006	6.65369987	0.873000026	200	0	0
-6.06599998	6.65380001	0.838999987	200	0	0
-6.0710001	6.65380001	0.825999975	200	0	0
-6.06699991	6.65380001	0.643999994	200	0	0
-6.07800007	6.65369987	0.606000006	200	0	0
-6.09399986	6.65369987	0.911000013	200	0	0
-6.07399988	6.65380001	0.882000029	200	0	0
-6.07800007	6.65369987	0.593999982	200	0	0
-6.06899977	6.65380001	0.609000027	200	0	0
-6.06599998	6.65380001	0.666999996	200	0	0
-6.06799984	6.65380001	0.654999971	200	0	0
-6.06500006	6.65380001	0.633000016	200	0	0
-6.06899977	6.65380001	0.758000016	200	0	0
-6.07399988	6.65380001	0.745999992	200	0	0
-6.07000017	6.65380001	0.700999975	200	0	0
-6.06699991	6.65380001	0.713	200	0	0
-6.06599998	6.65380001	0.725000024	200	0	0
-6.06099987	6.65380001	0.782999992	200	0	0
-6.05999994	6.65380001	0.772000015	200	0	0
-6.0710001	6.65380001	0.802999973	200	0	0
-6.06899977	6.65380001	0.814999998	200	0	0
-6.06699991	6.65380001	0.861000001	200	0	0
-6.06699991	6.65380001	0.873000026	200	0	0
-6.07000017	6.65390015	0.60799998	200	0	0
-6.06799984	6.65390015	0.666999996	200	0	0
-6.06500006	6.65390015	0.656000018	200	0	0
-6.06899977	6.65390015	0.632000029	200	0	0
-6.06599998	6.65390015	0.643999994	200	0	0
-6.0710001	6.65390015	0.745999992	200	0	0
-6.06500006	6.65390015	0.690999985	200	0	0
-6.0619998	6.65390015	0.703000009	200	0	0
-6.06799984	6.65390015	0.723999977	200	0	0
-6.06599998	6.65390015	0.713	200	0	0
-6.0630002	6.65390015	0.816999972	200	0	0
-6.07499981	6.65390015	0.757000029	200	0	0
-6.07200003	6.65390015	0.802999973	200	0	0
-6.0619998	6.65390015	0.772000015	200	0	0
-6.06500006	6.65390015	0.782000005	200	0	0
-6.06599998	6.65400076	0.643999994	200	0	0
-6.06599998	6.65400076	0.633000016	200	0	0
-6.07700014	6.65400076	0.606000006	200	0	0
-6.06899977	6.65400076	0.700999975	200	0	0
-6.06500006	6.65400076	0.690999985	200	0	0
-6.0619998	6.65400076	0.657000005	200	0	0
-6.0630002	6.65400076	0.667999983	200	0	0
-6.06699991	6.65400076	0.723999977	200	0	0
-6.07000017	6.65400076	0.712000012	200	0	0
-6.06500006	6.65390015	0.873000026	200	0	0
-6.06899977	6.65390015	0.861000001	200	0	0
-6.06599998	6.65390015	0.828000009	200	0	0
-6.0630002	6.65390015	0.839999974	200	0	0
-6.06599998	6.65409994	0.713	200	0	0
-6.07399988	6.65400076	0.745999992	200	0	0
-6.07200003	6.65400076	0.814999998	200	0	0
-6.06899977	6.65400076	0.80400002	200	0	0
-6.06699991	6.65400076	0.759000003	200	0	0
-6.06400013	6.65400076	0.771000028	200	0	0
-6.0619998	6.65400076	0.782999992	200	0	0
-6.07000017	6.65409994	0.60799998	200	0	0
-6.05700016	6.65409994	0.670000017	200	0	0
-6.06400013	6.65409994	0.656000018	200	0	0
-6.06799984	6.65409994	0.632000029	200	0	0
-6.06500006	6.65409994	0.644999981	200	0	0
-6.06899977	6.65409994	0.746999979	200	0	0
-6.06799984	6.65409994	0.689999998	200	0	0
-6.06099987	6.65409994	0.726000011	200	0	0
-6.07200003	6.65409994	0.699999988	200	0	0
-6.0710001	6.6541996	0.68900001	200	0	0
-6.0710001	6.6541996	0.745999992	200	0	0
-6.0619998	6.65409994	0.782999992	200	0	0
-6.06099987	6.65409994	0.772000015	200	0	0
-6.06500006	6.65409994	0.759000003	200	0	0
-6.06699991	6.6541996	0.723999977	200	0	0
-6.08400011	6.65380001	0.913999975	200	0	0
-6.09899998	6.65380001	0.921000004	200	0	0
-6.07600021	6.65390015	0.893000007	200	0	0
-6.0710001	6.65390015	0.883000016	200	0	0
-6.09100008	6.65390015	0.912	200	0	0
-6.06899977	6.65400076	0.838	200	0	0
-6.06400013	6.65400076	0.828000009	200	0	0
-6.07800007	6.65400076	0.893000007	200	0	0
-6.06699991	6.65400076	0.884000003	200	0	0
-6.06899977	6.65400076	0.861000001	200	0	0
-6.07299995	6.65400076	0.870999992	200	0	0
-6.09200001	6.65400076	0.912	200	0	0
-6.0630002	6.65409994	0.839999974	200	0	0
-6.0630002	6.65409994	0.828000009	200	0	0
-6.06799984	6.65409994	0.80400002	200	0	0
-6.06699991	6.65409994	0.815999985	200	0	0
-6.06599998	6.6541996	0.759000003	200	0	0
-6.07000017	6.6541996	0.630999982	200	0	0
-6.0619998	6.6541996	0.667999983	200	0	0
-6.06599998	6.6541996	0.643999994	200	0	0
-6.0619998	6.6541996	0.657000005	200	0	0
-6.06500006	6.6541996	0.702000022	200	0	0
-6.06500006	6.6541996	0.713999987	200	0	0
-6.0619998	6.6541996	0.805999994	200	0	0
-6.06500006	6.6541996	0.782000005	200	0	0
-6.06500006	6.6541996	0.771000028	200	0	0
-6.08599997	6.6541996	0.592000008	200	0	0
-6.07700014	6.6541996	0.606000006	200	0	0
-6.06899977	6.65429974	0.643000007	200	0	0
-6.06699991	6.65429974	0.632000029	200	0	0
-6.07299995	6.65409994	0.893999994	200	0	0
-6.06699991	6.6541996	0.873000026	200	0	0
-6.0630002	6.6541996	0.816999972	200	0	0
-6.06799984	6.6541996	0.861000001	200	0	0
-6.06799984	6.65409994	0.884000003	200	0	0
-6.0630002	6.6541996	0.828999996	200	0	0
-6.06599998	6.6541996	0.838999987	200	0	0
-6.06699991	6.65409994	0.873000026	200	0	0
-6.06599998	6.65409994	0.861999989	200	0	0
-6.06699991	6.65429974	0.782000005	200	0	0
-6.06500006	6.65429974	0.828000009	200	0	0
-6.06699991	6.65429974	0.805000007	200	0	0
-6.09299994	6.6541996	0.911000013	200	0	0
-6.09299994	6.65409994	0.922999978	200	0	0
-6.08900023	6.65409994	0.912	200	0	0
-6.07000017	6.6541996	0.883000016	200	0	0
-6.07200003	6.6541996	0.893999994	200	0	0
-6.07000017	6.65429974	0.861000001	200	0	0
-6.06799984	6.65439987	0.838	200	0	0
-6.06799984	6.65429974	0.871999979	200	0	0
-6.06599998	6.65429974	0.815999985	200	0	0
-6.05900002	6.65429974	0.841000021	200	0	0
-6.06599998	6.65429974	0.725000024	200	0	0
-6.06400013	6.65429974	0.771000028	200	0	0
-6.07299995	6.65429974	0.745999992	200	0	0
-6.06599998	6.65429974	0.759000003	200	0	0
-6.06699991	6.65439987	0.827000022	200	0	0
-6.06599998	6.65439987	0.815999985	200	0	0
-6.06899977	6.65439987	0.781000018	200	0	0
-6.06500006	6.65439987	0.713999987	200	0	0
-6.07000017	6.65429974	0.68900001	200	0	0
-6.06400013	6.65429974	0.702000022	200	0	0
-6.05900002	6.65429974	0.714999974	200	0	0
-6.06699991	6.65439987	0.748000026	200	0	0
-6.06599998	6.65439987	0.873000026	200	0	0
-6.07399988	6.65429974	0.893999994	200	0	0
-6.06799984	6.65429974	0.884000003	200	0	0
-6.06699991	6.65439987	0.861000001	200	0	0
-6.08799982	6.65429974	0.912999988	200	0	0
-6.07299995	6.65429974	0.606999993	200	0	0
-6.0630002	6.65429974	0.667999983	200	0	0
-6.0630002	6.65429974	0.657000005	200	0	0
-6.06899977	6.65439987	0.700999975	200	0	0
-6.0710001	6.65439987	0.68900001	200	0	0
-6.07999992	6.65429974	0.593999982	200	0	0
-6.06699991	6.65439987	0.632000029	200	0	0
-6.06400013	6.65439987	0.644999981	200	0	0
-6.05800009	6.65439987	0.657999992	200	0	0
-6.05800009	6.65439987	0.670000017	200	0	0
-6.06099987	6.65439987	0.772000015	200	0	0
-6.06500006	6.65439987	0.725000024	200	0	0
-6.06500006	6.65439987	0.759000003	200	0	0
-6.06599998	6.65439987	0.805000007	200	0	0
-6.08599997	6.65439987	0.602999985	200	0	0
-6.08300018	6.65439987	0.913999975	200	0	0
-6.07000017	6.65439987	0.883000016	200	0	0
-6.07299995	6.65439987	0.893999994	200	0	0
-6.06599998	6.65450001	0.759000003	200	0	0
-6.06599998	6.65450001	0.689999998	200	0	0
-6.06500006	6.65450001	0.748000026	200	0	0
-6.06799984	6.65450001	0.700999975	200	0	0
-6.0619998	6.65450001	0.713999987	200	0	0
-6.06599998	6.65450001	0.725000024	200	0	0
-6.06099987	6.65450001	0.839999974	200	0	0
-6.06099987	6.65450001	0.772000015	200	0	0
-6.06400013	6.65450001	0.828000009	200	0	0
-6.05999994	6.65450001	0.783999979	200	0	0
-6.06599998	6.65450001	0.815999985	200	0	0
-6.06599998	6.65450001	0.805000007	200	0	0
-6.07499981	6.65450001	0.893000007	200	0	0
-6.06400013	6.65450001	0.88499999	200	0	0
-6.06400013	6.65450001	0.861999989	200	0	0
-6.06899977	6.65450001	0.871999979	200	0	0
-6.06500006	6.65450001	0.633000016	200	0	0
-6.05600023	6.65450001	0.670000017	200	0	0
-6.05900002	6.65450001	0.646000028	200	0	0
-6.05999994	6.65450001	0.657999992	200	0	0
-6.07600021	6.65450001	0.606000006	200	0	0
-6.05700016	6.65460014	0.670000017	200	0	0
-6.0619998	6.65460014	0.726000011	200	0	0
-6.06099987	6.65460014	0.714999974	200	0	0
-6.06099987	6.65460014	0.691999972	200	0	0
-6.06099987	6.65460014	0.703000009	200	0	0
-6.0619998	6.65460014	0.657000005	200	0	0
-6.07200003	6.65460014	0.60799998	200	0	0
-6.06400013	6.65460014	0.644999981	200	0	0
-6.07600021	6.65460014	0.629999995	200	0	0
-6.0619998	6.65460014	0.816999972	200	0	0
-6.06799984	6.65460014	0.746999979	200	0	0
-6.06899977	6.65460014	0.80400002	200	0	0
-6.0630002	6.65460014	0.75999999	200	0	0
-6.0630002	6.65460014	0.771000028	200	0	0
-6.06599998	6.65460014	0.782000005	200	0	0
-6.05900002	6.6546998	0.714999974	200	0	0
-6.06099987	6.6546998	0.772000015	200	0	0
-6.0619998	6.6546998	0.726000011	200	0	0
-6.05900002	6.6546998	0.657999992	200	0	0
-6.05700016	6.6546998	0.670000017	200	0	0
-6.05800009	6.6546998	0.693000019	200	0	0
-6.07000017	6.6546998	0.700999975	200	0	0
-6.06599998	6.65460014	0.873000026	200	0	0
-6.06500006	6.65460014	0.861999989	200	0	0
-6.0630002	6.65460014	0.828999996	200	0	0
-6.06099987	6.65460014	0.839999974	200	0	0
-6.09200001	6.65450001	0.922999978	200	0	0
-6.08900023	6.65460014	0.924000025	200	0	0
-6.08599997	6.65460014	0.912999988	200	0	0
-6.06599998	6.65460014	0.884000003	200	0	0
-6.07399988	6.65460014	0.893999994	200	0	0
-6.0619998	6.6546998	0.862999976	200	0	0
-6.06500006	6.6546998	0.873000026	200	0	0
-6.06699991	6.6546998	0.805000007	200	0	0
-6.0619998	6.6546998	0.816999972	200	0	0
-6.05999994	6.6546998	0.828999996	200	0	0
-6.0630002	6.6546998	0.839999974	200	0	0
-6.06899977	6.6546998	0.609000027	200	0	0
-6.07399988	6.6546998	0.629999995	200	0	0
-6.06400013	6.6546998	0.644999981	200	0	0
-6.08799982	6.6546998	0.912999988	200	0	0
-6.07000017	6.6546998	0.894999981	200	0	0
-6.0619998	6.6546998	0.88499999	200	0	0
-6.0619998	6.6546998	0.782999992	200	0	0
-6.06799984	6.6546998	0.746999979	200	0	0
-6.06500006	6.6546998	0.759000003	200	0	0
-6.06599998	6.65479994	0.873000026	200	0	0
-6.07000017	6.65490007	0.60799998	200	0	0
-6.06400013	6.65479994	0.644999981	200	0	0
-6.06699991	6.65479994	0.632000029	200	0	0
-6.08300018	6.65479994	0.592999995	200	0	0
-6.0710001	6.65479994	0.60799998	200	0	0
-6.0630002	6.65479994	0.703000009	200	0	0
-6.06099987	6.65479994	0.691999972	200	0	0
-6.05999994	6.65479994	0.657999992	200	0	0
-6.06099987	6.65479994	0.66900003	200	0	0
-6.05700016	6.65479994	0.785000026	200	0	0
-6.0619998	6.65479994	0.713999987	200	0	0
-6.05800009	6.65479994	0.773000002	200	0	0
-6.05900002	6.65479994	0.726999998	200	0	0
-6.06500006	6.65479994	0.759000003	200	0	0
-6.06500006	6.65479994	0.748000026	200	0	0
-6.06400013	6.65490007	0.816999972	200	0	0
-6.05999994	6.65479994	0.841000021	200	0	0
-6.06799984	6.65479994	0.80400002	200	0	0
-6.0619998	6.65479994	0.828999996	200	0	0
-6.0619998	6.65479994	0.816999972	200	0	0
-6.0619998	6.65490007	0.772000015	200	0	0
-6.0630002	6.65500021	0.644999981	200	0	0
-6.05900002	6.65490007	0.66900003	200	0	0
-6.0539999	6.65490007	0.658999979	200	0	0
-6.06500006	6.65490007	0.633000016	200	0	0
-6.06099987	6.65490007	0.646000028	200	0	0
-6.06400013	6.65500021	0.633000016	200	0	0
-6.0619998	6.65490007	0.726000011	200	0	0
-6.05900002	6.65490007	0.714999974	200	0	0
-6.0619998	6.65490007	0.691999972	200	0	0
-6.05999994	6.65490007	0.703999996	200	0	0
-6.06500006	6.65500021	0.690999985	200	0	0
-6.05800009	6.65490007	0.760999978	200	0	0
-6.06099987	6.65490007	0.749000013	200	0	0
-6.07200003	6.65479994	0.893999994	200	0	0
-6.0619998	6.65479994	0.88499999	200	0	0
-6.06500006	6.65479994	0.861999989	200	0	0
-6.06400013	6.65490007	0.828000009	200	0	0
-6.06099987	6.65490007	0.839999974	200	0	0
-6.0619998	6.65500021	0.749000013	200	0	0
-6.05999994	6.65500021	0.726999998	200	0	0
-6.06099987	6.65500021	0.703000009	200	0	0
-6.05900002	6.65500021	0.716000021	200	0	0
-6.05999994	6.65490007	0.783999979	200	0	0
-6.0619998	6.65490007	0.805999994	200	0	0
-6.05900002	6.65500021	0.783999979	200	0	0
-6.0630002	6.65500021	0.610000014	200	0	0
-6.05600023	6.65500021	0.658999979	200	0	0
-6.05700016	6.65500021	0.670000017	200	0	0
-6.05900002	6.65500021	0.773000002	200	0	0
-6.05700016	6.65500021	0.762000024	200	0	0
-6.05700016	6.65509987	0.727999985	200	0	0
-6.05600023	6.65509987	0.658999979	200	0	0
-6.0619998	6.65509987	0.713999987	200	0	0
-6.05700016	6.65509987	0.670000017	200	0	0
-6.0630002	6.65509987	0.703000009	200	0	0
-6.06099987	6.65509987	0.691999972	200	0	0
-6.06099987	6.65509987	0.782999992	200	0	0
-6.06400013	6.65509987	0.771000028	200	0	0
-6.05800009	6.65509987	0.760999978	200	0	0
-6.0630002	6.65509987	0.749000013	200	0	0
-6.0630002	6.65500021	0.816999972	200	0	0
-6.0619998	6.65500021	0.805999994	200	0	0
-6.07800007	6.65479994	0.915000021	200	0	0
-6.0630002	6.65490007	0.874000013	200	0	0
-6.06400013	6.65490007	0.861999989	200	0	0
-6.0619998	6.65500021	0.828999996	200	0	0
-6.07399988	6.65490007	0.916000009	200	0	0
-6.0630002	6.65490007	0.88499999	200	0	0
-6.0630002	6.65490007	0.896000028	200	0	0
-6.06599998	6.65500021	0.861999989	200	0	0
-6.0630002	6.65500021	0.874000013	200	0	0
-6.06099987	6.65500021	0.839999974	200	0	0
-6.07299995	6.65509987	0.606999993	200	0	0
-6.05299997	6.65509987	0.648000002	200	0	0
-6.06400013	6.65509987	0.633000016	200	0	0
-6.05299997	6.65509987	0.842999995	200	0	0
-6.0619998	6.65509987	0.828999996	200	0	0
-6.0619998	6.65509987	0.816999972	200	0	0
-6.06099987	6.65509987	0.805999994	200	0	0
-6.06899977	6.6552	0.610000014	200	0	0
-6.05600023	6.6552	0.671000004	200	0	0
-6.05700016	6.6552	0.658999979	200	0	0
-6.05600023	6.6552	0.637000024	200	0	0
-6.0619998	6.6552	0.646000028	200	0	0
-6.08099985	6.65500021	0.913999975	200	0	0
-6.05900002	6.65500021	0.885999978	200	0	0
-6.06599998	6.65500021	0.896000028	200	0	0
-6.07800007	6.65509987	0.915000021	200	0	0
-6.07200003	6.65509987	0.893999994	200	0	0
-6.05800009	6.65509987	0.864000022	200	0	0
-6.06500006	6.65509987	0.88499999	200	0	0
-6.0630002	6.65509987	0.874000013	200	0	0
-6.05700016	6.6552	0.819999993	200	0	0
-6.0619998	6.6552	0.75	200	0	0
-6.0630002	6.6552	0.806999981	200	0	0
-6.06099987	6.6552	0.762000024	200	0	0
-6.05700016	6.6552	0.773999989	200	0	0
-6.05800009	6.6552	0.785000026	200	0	0
-6.06500006	6.6552	0.862999976	200	0	0
-6.05499983	6.6552	0.842999995	200	0	0
-6.05700016	6.6552	0.83099997	200	0	0
-6.06799984	6.6552	0.896000028	200	0	0
-6.0619998	6.6552	0.885999978	200	0	0
-6.05900002	6.6552	0.875999987	200	0	0
-6.0630002	6.65530109	0.875999987	200	0	0
-6.05900002	6.65530109	0.809000015	200	0	0
-6.0619998	6.65530109	0.86500001	200	0	0
-6.05800009	6.65530109	0.819999993	200	0	0
-6.05100012	6.65530109	0.845000029	200	0	0
-6.05800009	6.65530109	0.832000017	200	0	0
-6.0619998	6.6552	0.693000019	200	0	0
-6.0619998	6.6552	0.703999996	200	0	0
-6.05900002	6.6552	0.716000021	200	0	0
-6.05700016	6.6552	0.727999985	200	0	0
-6.05999994	6.65530109	0.786000013	200	0	0
-6.05800009	6.65530109	0.774999976	200	0	0
-6.05999994	6.65530109	0.750999987	200	0	0
-6.06500006	6.65530109	0.760999978	200	0	0
-6.05100012	6.65530109	0.674000025	200	0	0
-6.05999994	6.65530109	0.694000006	200	0	0
-6.05900002	6.65530109	0.728999972	200	0	0
-6.05000019	6.65530109	0.720000029	200	0	0
-6.05900002	6.65530109	0.70599997	200	0	0
-6.06899977	6.65530109	0.897000015	200	0	0
-6.06400013	6.65530109	0.887000024	200	0	0
-6.0539999	6.65530109	0.661000013	200	0	0
-6.05499983	6.65530109	0.649999976	200	0	0
-6.07399988	6.65530109	0.597000003	200	0	0
-6.06699991	6.65530109	0.611000001	200	0	0
-6.06400013	6.65530109	0.63499999	200	0	0
-6.07600021	6.65530109	0.916999996	200	0	0
-6.05800009	6.6553998	0.718999982	200	0	0
-6.05800009	6.6553998	0.730000019	200	0	0
-6.05700016	6.6553998	0.787	200	0	0
-6.05700016	6.6553998	0.776000023	200	0	0
-6.05900002	6.6553998	0.751999974	200	0	0
-6.05800009	6.6553998	0.763999999	200	0	0
-6.0539999	6.6553998	0.651000023	200	0	0
-6.05100012	6.6553998	0.662999988	200	0	0
-6.05000019	6.6553998	0.675000012	200	0	0
-6.05999994	6.6553998	0.707000017	200	0	0
-6.06099987	6.6553998	0.694999993	200	0	0
-6.06099987	6.6553998	0.876999974	200	0	0
-6.05499983	6.6553998	0.81099999	200	0	0
-6.05999994	6.6553998	0.865999997	200	0	0
-6.05700016	6.6553998	0.822000027	200	0	0
-6.05499983	6.6553998	0.845000029	200	0	0
-6.05800009	6.6553998	0.833000004	200	0	0
-6.079	6.6553998	0.917999983	200	0	0
-6.05900002	6.6553998	0.888999999	200	0	0
-6.06099987	6.6553998	0.899999976	200	0	0
-6.07800007	6.6553998	0.597000003	200	0	0
-6.07000017	6.6553998	0.611000001	200	0	0
-6.05700016	6.6553998	0.638000011	200	0	0
-6.05900002	6.65549994	0.707000017	200	0	0
-6.0619998	6.65549994	0.637000024	200	0	0
-6.0539999	6.65549994	0.697000027	200	0	0
-6.0539999	6.65549994	0.649999976	200	0	0
-6.05299997	6.65549994	0.662	200	0	0
-6.0539999	6.65549994	0.674000025	200	0	0
-6.05900002	6.65549994	0.763999999	200	0	0
-6.0630002	6.65549994	0.750999987	200	0	0
-6.05299997	6.65549994	0.731000006	200	0	0
-6.05499983	6.65549994	0.718999982	200	0	0
-6.03900003	6.65549994	0.620999992	200	0	0
-6.05499983	6.65549994	0.776000023	200	0	0
-6.05800009	6.65549994	0.787	200	0	0
-6.05200005	6.65549994	0.845000029	200	0	0
-6.05800009	6.65549994	0.833000004	200	0	0
-6.06400013	6.65549994	0.808000028	200	0	0
-6.0630002	6.65549994	0.819999993	200	0	0
-6.05299997	6.65560007	0.754999995	200	0	0
-6.05000019	6.65560007	0.675999999	200	0	0
-6.05100012	6.65560007	0.698000014	200	0	0
-6.05200005	6.65560007	0.731999993	200	0	0
-6.0539999	6.65560007	0.720000029	200	0	0
-6.05800009	6.65560007	0.708000004	200	0	0
-6.0630002	6.65560007	0.809000015	200	0	0
-6.05900002	6.65560007	0.787999988	200	0	0
-6.05200005	6.65560007	0.777999997	200	0	0
-6.05800009	6.65560007	0.764999986	200	0	0
-6.05800009	6.65560007	0.638999999	200	0	0
-6.05600023	6.65560007	0.651000023	200	0	0
-6.05800009	6.65560007	0.662	200	0	0
-6.0619998	6.65549994	0.898999989	200	0	0
-6.05999994	6.65549994	0.888999999	200	0	0
-6.05700016	6.65549994	0.878000021	200	0	0
-6.05800009	6.65549994	0.866999984	200	0	0
-6.06099987	6.65560007	0.82099998	200	0	0
-6.06799984	6.65560007	0.898999989	200	0	0
-6.06099987	6.65560007	0.833000004	200	0	0
-6.05600023	6.65560007	0.890999973	200	0	0
-6.05299997	6.65560007	0.879999995	200	0	0
-6.05999994	6.65560007	0.843999982	200	0	0
-6.05800009	6.65560007	0.867999971	200	0	0
-6.0619998	6.65560007	0.614000022	200	0	0
-6.07299995	6.65560007	0.920000017	200	0	0
-6.05700016	6.65570021	0.833999991	200	0	0
-6.05900002	6.65570021	0.845000029	200	0	0
-6.06899977	6.65570021	0.898000002	200	0	0
-6.05900002	6.65570021	0.889999986	200	0	0
-6.06099987	6.65570021	0.866999984	200	0	0
-6.06099987	6.65570021	0.878000021	200	0	0
-6.05499983	6.65570021	0.662999988	200	0	0
-6.05700016	6.65580034	0.639999986	200	0	0
-6.0539999	6.65570021	0.651000023	200	0	0
-6.06500006	6.65580034	0.614000022	200	0	0
-6.05700016	6.65570021	0.638999999	200	0	0
-6.06599998	6.65570021	0.612999976	200	0	0
-6.0539999	6.65570021	0.675000012	200	0	0
-6.0539999	6.65570021	0.731999993	200	0	0
-6.05700016	6.65570021	0.720000029	200	0	0
-6.05600023	6.65570021	0.708999991	200	0	0
-6.05800009	6.65570021	0.69599998	200	0	0
-6.05700016	6.65570021	0.822000027	200	0	0
-6.05999994	6.65570021	0.753000021	200	0	0
-6.05900002	6.65570021	0.810000002	200	0	0
-6.0619998	6.65570021	0.763999999	200	0	0
-6.05299997	6.65570021	0.777999997	200	0	0
-6.05100012	6.65570021	0.790000021	200	0	0
-6.05700016	6.65580034	0.777999997	200	0	0
-6.05600023	6.65580034	0.846000016	200	0	0
-6.05499983	6.65580034	0.790000021	200	0	0
-6.0539999	6.65580034	0.836000025	200	0	0
-6.05900002	6.65580034	0.81099999	200	0	0
-6.06099987	6.65580034	0.822000027	200	0	0
-6.0539999	6.65580034	0.73299998	200	0	0
-6.05900002	6.65580034	0.754000008	200	0	0
-6.05999994	6.65580034	0.764999986	200	0	0
-6.05000019	6.65580034	0.699999988	200	0	0
-6.05299997	6.65590096	0.675999999	200	0	0
-6.05999994	6.65590096	0.615999997	200	0	0
-6.05000019	6.65590096	0.665000021	200	0	0
-6.0539999	6.65590096	0.65200001	200	0	0
-6.05600023	6.65590096	0.639999986	200	0	0
-6.0539999	6.65580034	0.675999999	200	0	0
-6.04500008	6.65580034	0.666999996	200	0	0
-6.05700016	6.65580034	0.65200001	200	0	0
-6.05200005	6.65580034	0.711000025	200	0	0
-6.07600021	6.65590096	0.598999977	200	0	0
-6.05700016	6.65580034	0.721000016	200	0	0
-6.05700016	6.65590096	0.721000016	200	0	0
-6.0539999	6.65590096	0.709999979	200	0	0
-6.05299997	6.65590096	0.699000001	200	0	0
-6.07600021	6.65570021	0.91900003	200	0	0
-6.05600023	6.65580034	0.869000018	200	0	0
-6.06099987	6.65580034	0.879000008	200	0	0
-6.05200005	6.65590096	0.778999984	200	0	0
-6.05299997	6.65590096	0.73299998	200	0	0
-6.05999994	6.65590096	0.764999986	200	0	0
-6.05800009	6.65590096	0.754999995	200	0	0
-6.05800009	6.65590096	0.823000014	200	0	0
-6.05700016	6.65590096	0.811999977	200	0	0
-6.05000019	6.65590096	0.791000009	200	0	0
-6.05800009	6.65599966	0.765999973	200	0	0
-6.05600023	6.65599966	0.698000014	200	0	0
-6.05700016	6.65599966	0.754999995	200	0	0
-6.05499983	6.65599966	0.709999979	200	0	0
-6.05700016	6.65599966	0.721000016	200	0	0
-6.05499983	6.65599966	0.73299998	200	0	0
-6.05700016	6.65599966	0.616999984	200	0	0
-6.05800009	6.65599966	0.639999986	200	0	0
-6.05200005	6.65599966	0.675999999	200	0	0
-6.05100012	6.65599966	0.652999997	200	0	0
-6.05600023	6.65599966	0.662999988	200	0	0
-6.05900002	6.65599966	0.823000014	200	0	0
-6.05299997	6.65590096	0.836000025	200	0	0
-6.05800009	6.65599966	0.811999977	200	0	0
-6.05100012	6.65599966	0.791000009	200	0	0
-6.05800009	6.65599966	0.77700001	200	0	0
-6.05100012	6.65590096	0.84799999	200	0	0
-6.06699991	6.65580034	0.899999976	200	0	0
-6.05600023	6.65580034	0.89200002	200	0	0
-6.05800009	6.65590096	0.867999971	200	0	0
-6.07499981	6.65580034	0.920000017	200	0	0
-6.06400013	6.65590096	0.901000023	200	0	0
-6.05499983	6.65590096	0.89200002	200	0	0
-6.05999994	6.65590096	0.879000008	200	0	0
-6.05499983	6.65599966	0.879999995	200	0	0
-6.05499983	6.65599966	0.869000018	200	0	0
-6.0539999	6.65599966	0.836000025	200	0	0
-6.05499983	6.65599966	0.847000003	200	0	0
-6.05600023	6.6560998	0.639999986	200	0	0
-6.06099987	6.6560998	0.615999997	200	0	0
-6.05200005	6.6560998	0.711000025	200	0	0
-6.05800009	6.6560998	0.697000027	200	0	0
-6.05499983	6.6560998	0.65200001	200	0	0
-6.04899979	6.6560998	0.666000009	200	0	0
-6.05100012	6.6560998	0.675999999	200	0	0
-6.07499981	6.65590096	0.920000017	200	0	0
-6.05800009	6.65599966	0.890999973	200	0	0
-6.06099987	6.65599966	0.90200001	200	0	0
-6.0710001	6.65599966	0.921000004	200	0	0
-6.05200005	6.6560998	0.778999984	200	0	0
-6.05499983	6.6560998	0.790000021	200	0	0
-6.0539999	6.6560998	0.847000003	200	0	0
-6.0539999	6.6560998	0.836000025	200	0	0
-6.05700016	6.6560998	0.811999977	200	0	0
-6.05600023	6.6560998	0.824000001	200	0	0
-6.04899979	6.6560998	0.72299999	200	0	0
-6.05200005	6.6560998	0.768000007	200	0	0
-6.05299997	6.6560998	0.73299998	200	0	0
-6.05900002	6.6560998	0.754000008	200	0	0
-6.06400013	6.6560998	0.901000023	200	0	0
-6.04899979	6.6560998	0.893000007	200	0	0
-6.05499983	6.6560998	0.879999995	200	0	0
-6.05700016	6.6560998	0.869000018	200	0	0
-6.079	6.6560998	0.930999994	200	0	0
-6.06799984	6.6560998	0.921999991	200	0	0
-6.05200005	6.65619993	0.836000025	200	0	0
-6.04899979	6.65619993	0.84799999	200	0	0
-6.05700016	6.65619993	0.902999997	200	0	0
-6.0539999	6.65619993	0.89200002	200	0	0
-6.05100012	6.65619993	0.882000029	200	0	0
-6.05499983	6.65619993	0.869000018	200	0	0
-6.05800009	6.65619993	0.765999973	200	0	0
-6.05700016	6.65619993	0.777999997	200	0	0
-6.04899979	6.65619993	0.791000009	200	0	0
-6.05800009	6.65619993	0.823000014	200	0	0
-6.05499983	6.65619993	0.813000023	200	0	0
-6.0539999	6.65619993	0.755999982	200	0	0
-6.05600023	6.65619993	0.731999993	200	0	0
-6.05200005	6.65619993	0.711000025	200	0	0
-6.05100012	6.65619993	0.722000003	200	0	0
-6.05200005	6.65630007	0.675999999	200	0	0
-6.05800009	6.65619993	0.639999986	200	0	0
-6.0539999	6.65619993	0.698000014	200	0	0
-6.0539999	6.65619993	0.65200001	200	0	0
-6.05100012	6.65619993	0.665000021	200	0	0
-6.04699993	6.65619993	0.677999973	200	0	0
-6.06699991	6.65619993	0.921999991	200	0	0
-6.0539999	6.65630007	0.65200001	200	0	0
-6.06599998	6.65619993	0.614000022	200	0	0
-6.06500006	6.65630007	0.614000022	200	0	0
-6.05600023	6.65630007	0.754999995	200	0	0
-6.05499983	6.65630007	0.698000014	200	0	0
-6.05299997	6.65630007	0.73299998	200	0	0
-6.046	6.65630007	0.723999977	200	0	0
-6.05499983	6.65630007	0.709999979	200	0	0
-6.05000019	6.65630007	0.768000007	200	0	0
-6.05200005	6.65630007	0.824999988	200	0	0
-6.05100012	6.65630007	0.81400001	200	0	0
-6.0539999	6.65630007	0.778999984	200	0	0
-6.05100012	6.65630007	0.791000009	200	0	0
-6.05000019	6.65630007	0.665000021	200	0	0
-6.05600023	6.65630007	0.639999986	200	0	0
-6.0539999	6.65630007	0.836000025	200	0	0
-6.05600023	6.65630007	0.846000016	200	0	0
-6.0619998	6.65630007	0.901000023	200	0	0
-6.05100012	6.65630007	0.893000007	200	0	0
-6.0539999	6.65630007	0.870000005	200	0	0
-6.05900002	6.65630007	0.879000008	200	0	0
-6.07499981	6.65630007	0.931999981	200	0	0
-6.06699991	6.65630007	0.921999991	200	0	0
-6.05100012	6.6564002	0.665000021	200	0	0
-6.04400015	6.6564002	0.67900002	200	0	0
-6.04799986	6.6564002	0.735000014	200	0	0
-6.04899979	6.6564002	0.72299999	200	0	0
-6.05000019	6.6564002	0.699999988	200	0	0
-6.05499983	6.6564002	0.709999979	200	0	0
-6.04799986	6.6564002	0.653999984	200	0	0
-6.05800009	6.6564002	0.616999984	200	0	0
-6.05000019	6.6564002	0.64200002	200	0	0
-6.05100012	6.6564002	0.791000009	200	0	0
-6.05100012	6.6564002	0.779999971	200	0	0
-6.0539999	6.6564002	0.755999982	200	0	0
-6.05600023	6.6564002	0.76700002	200	0	0
-6.05200005	6.6564002	0.81400001	200	0	0
-6.05200005	6.6564002	0.824999988	200	0	0
-6.05000019	6.6564002	0.882000029	200	0	0
-6.0539999	6.6564002	0.869000018	200	0	0
-6.05000019	6.6564002	0.837000012	200	0	0
-6.05000019	6.6564002	0.84799999	200	0	0
-6.0539999	6.65659952	0.755999982	200	0	0
-6.04899979	6.65650082	0.791999996	200	0	0
-6.05000019	6.65650082	0.72299999	200	0	0
-6.05000019	6.65650082	0.779999971	200	0	0
-6.05700016	6.65650082	0.731999993	200	0	0
-6.0539999	6.65650082	0.76700002	200	0	0
-6.04899979	6.65650082	0.757000029	200	0	0
-6.05600023	6.65650082	0.639999986	200	0	0
-6.05100012	6.65650082	0.711000025	200	0	0
-6.05499983	6.65650082	0.65200001	200	0	0
-6.05100012	6.65650082	0.699000001	200	0	0
-6.04899979	6.65650082	0.666000009	200	0	0
-6.04799986	6.65650082	0.676999986	200	0	0
-6.05000019	6.65650082	0.84799999	200	0	0
-6.04899979	6.65650082	0.837000012	200	0	0
-6.05499983	6.65650082	0.824000001	200	0	0
-6.05499983	6.65650082	0.813000023	200	0	0
-6.08199978	6.6564002	0.59799999	200	0	0
-6.05999994	6.65650082	0.615999997	200	0	0
-6.06899977	6.6564002	0.921999991	200	0	0
-6.05299997	6.6564002	0.89200002	200	0	0
-6.05800009	6.6564002	0.90200001	200	0	0
-6.07499981	6.65650082	0.931999981	200	0	0
-6.05200005	6.65650082	0.870000005	200	0	0
-6.0630002	6.65650082	0.924000025	200	0	0
-6.0539999	6.65650082	0.880999982	200	0	0
-6.04799986	6.65650082	0.893999994	200	0	0
-6.05900002	6.65650082	0.90200001	200	0	0
-6.0630002	6.65659952	0.61500001	200	0	0
-6.04899979	6.65659952	0.791999996	200	0	0
-6.05200005	6.65659952	0.870000005	200	0	0
-6.05200005	6.65659952	0.81400001	200	0	0
-6.0539999	6.65659952	0.847000003	200	0	0
-6.04699993	6.65659952	0.838	200	0	0
-6.0539999	6.65659952	0.824000001	200	0	0
-6.05100012	6.65659952	0.882000029	200	0	0
-6.06699991	6.65659952	0.922999978	200	0	0
-6.05299997	6.65659952	0.89200002	200	0	0
-6.05800009	6.65659952	0.90200001	200	0	0
-6.04899979	6.65659952	0.699999988	200	0	0
-6.0539999	6.65659952	0.640999973	200	0	0
-6.05299997	6.65659952	0.675999999	200	0	0
-6.05100012	6.65659952	0.652999997	200	0	0
-6.04899979	6.65659952	0.666000009	200	0	0
-6.04899979	6.65669966	0.676999986	200	0	0
-6.04699993	6.65669966	0.666000009	200	0	0
-6.06099987	6.65669966	0.615999997	200	0	0
-6.04899979	6.65669966	0.653999984	200	0	0
-6.05700016	6.65669966	0.639999986	200	0	0
-6.07499981	6.65669966	0.600000024	200	0	0
-6.04899979	6.65659952	0.712000012	200	0	0
-6.05299997	6.65659952	0.76700002	200	0	0
-6.05299997	6.65659952	0.722000003	200	0	0
-6.05100012	6.65659952	0.734000027	200	0	0
-6.046	6.65659952	0.781000018	200	0	0
-6.04799986	6.65669966	0.814999998	200	0	0
-6.04899979	6.65669966	0.757000029	200	0	0
-6.04799986	6.65669966	0.791999996	200	0	0
-6.05600023	6.65669966	0.76700002	200	0	0
-6.04899979	6.65669966	0.779999971	200	0	0
-6.05200005	6.65669966	0.882000029	200	0	0
-6.05700016	6.65669966	0.869000018	200	0	0
-6.05600023	6.65669966	0.824000001	200	0	0
-6.04699993	6.65669966	0.838	200	0	0
-6.04799986	6.65669966	0.848999977	200	0	0
-6.0539999	6.65669966	0.699000001	200	0	0
-6.05100012	6.65669966	0.711000025	200	0	0
-6.05200005	6.65669966	0.722000003	200	0	0
-6.04799986	6.65669966	0.735000014	200	0	0
-6.05100012	6.65679979	0.711000025	200	0	0
-6.0539999	6.65679979	0.640999973	200	0	0
-6.04699993	6.65679979	0.700999975	200	0	0
-6.04899979	6.65679979	0.653999984	200	0	0
-6.04699993	6.65679979	0.666000009	200	0	0
-6.046	6.65679979	0.677999973	200	0	0
-6.05800009	6.65689993	0.616999984	200	0	0
-6.05900002	6.65679979	0.605000019	200	0	0
-6.06799984	6.65679979	0.614000022	200	0	0
-6.05100012	6.65689993	0.652999997	200	0	0
-6.05299997	6.65679979	0.755999982	200	0	0
-6.05200005	6.65679979	0.734000027	200	0	0
-6.04899979	6.65679979	0.72299999	200	0	0
-6.05299997	6.65689993	0.709999979	200	0	0
-6.05499983	6.65669966	0.902999997	200	0	0
-6.05100012	6.65669966	0.893000007	200	0	0
-6.05200005	6.65679979	0.81400001	200	0	0
-6.046	6.65679979	0.791999996	200	0	0
-6.05299997	6.65679979	0.76700002	200	0	0
-6.04899979	6.65679979	0.779999971	200	0	0
-6.04899979	6.65689993	0.734000027	200	0	0
-6.046	6.65679979	0.848999977	200	0	0
-6.05100012	6.65679979	0.836000025	200	0	0
-6.05200005	6.65679979	0.824999988	200	0	0
-6.04799986	6.65689993	0.791999996	200	0	0
-6.04799986	6.65689993	0.781000018	200	0	0
-6.05200005	6.65689993	0.755999982	200	0	0
-6.05499983	6.65689993	0.76700002	200	0	0
-6.046	6.65689993	0.666999996	200	0	0
-6.05000019	6.65689993	0.72299999	200	0	0
-6.04699993	6.65689993	0.677999973	200	0	0
-6.04799986	6.65689993	0.699999988	200	0	0
-6.04799986	6.65689993	0.643000007	200	0	0
-6.05299997	6.65679979	0.880999982	200	0	0
-6.04300022	6.65689993	0.850000024	200	0	0
-6.05200005	6.65679979	0.870000005	200	0	0
-6.04699993	6.65689993	0.838	200	0	0
-6.04899979	6.65689993	0.81400001	200	0	0
-6.05299997	6.65689993	0.824999988	200	0	0
-6.06899977	6.65669966	0.921999991	200	0	0
-6.05200005	6.65679979	0.903999984	200	0	0
-6.04799986	6.65679979	0.893999994	200	0	0
-6.06699991	6.65679979	0.922999978	200	0	0
-6.0539999	6.65689993	0.902999997	200	0	0
-6.04699993	6.65689993	0.893999994	200	0	0
-6.05100012	6.65689993	0.870000005	200	0	0
-6.04799986	6.65689993	0.883000016	200	0	0
-6.05000019	6.65700006	0.676999986	200	0	0
-6.04699993	6.65700006	0.666000009	200	0	0
-6.0619998	6.65700006	0.61500001	200	0	0
-6.05000019	6.65700006	0.653999984	200	0	0
-6.05600023	6.65700006	0.639999986	200	0	0
-6.0539999	6.65700006	0.73299998	200	0	0
-6.04899979	6.65700006	0.72299999	200	0	0
-6.04699993	6.65700006	0.700999975	200	0	0
-6.05100012	6.65700006	0.711000025	200	0	0
-6.06699991	6.65689993	0.922999978	200	0	0
-6.05100012	6.65700006	0.81400001	200	0	0
-6.05100012	6.65700006	0.757000029	200	0	0
-6.04300022	6.65700006	0.792999983	200	0	0
-6.05499983	6.65700006	0.76700002	200	0	0
-6.04799986	6.65700006	0.781000018	200	0	0
-6.04899979	6.65700006	0.825999975	200	0	0
-6.04899979	6.65700006	0.882000029	200	0	0
-6.05100012	6.65700006	0.870000005	200	0	0
-6.04199982	6.65700006	0.838999987	200	0	0
-6.04400015	6.65700006	0.850000024	200	0	0
-6.0619998	6.65700006	0.924000025	200	0	0
-6.04699993	6.65700006	0.893999994	200	0	0
-6.05900002	6.65700006	0.90200001	200	0	0
-6.05100012	6.6571002	0.870000005	200	0	0
-6.04500008	6.6571002	0.814999998	200	0	0
-6.05000019	6.6571002	0.84799999	200	0	0
-6.04799986	6.6571002	0.825999975	200	0	0
-6.04799986	6.6571002	0.837000012	200	0	0
-6.05100012	6.6571002	0.882000029	200	0	0
-6.04500008	6.6571002	0.893999994	200	0	0
-6.05299997	6.6571002	0.903999984	200	0	0
-6.04500008	6.6571002	0.736000001	200	0	0
-6.04500008	6.6571002	0.792999983	200	0	0
-6.05000019	6.6571002	0.779999971	200	0	0
-6.05100012	6.6571002	0.757000029	200	0	0
-6.05000019	6.6571002	0.768000007	200	0	0
-6.05100012	6.6571002	0.722000003	200	0	0
-6.04799986	6.6571002	0.699999988	200	0	0
-6.05200005	6.6571002	0.711000025	200	0	0
-6.04400015	6.6571002	0.67900002	200	0	0
-6.04899979	6.65719986	0.711000025	200	0	0
-6.05299997	6.65719986	0.640999973	200	0	0
-6.05100012	6.65719986	0.699000001	200	0	0
-6.04899979	6.65719986	0.653999984	200	0	0
-6.04699993	6.65719986	0.666000009	200	0	0
-6.04699993	6.65719986	0.677999973	200	0	0
-6.05000019	6.6571002	0.64200002	200	0	0
-6.04500008	6.6571002	0.654999971	200	0	0
-6.04699993	6.6571002	0.666000009	200	0	0
-6.0619998	6.6571002	0.61500001	200	0	0
-6.05700016	6.65719986	0.616999984	200	0	0
-6.04500008	6.65719986	0.792999983	200	0	0
-6.04500008	6.65719986	0.723999977	200	0	0
-6.04500008	6.65719986	0.781000018	200	0	0
-6.05299997	6.65719986	0.73299998	200	0	0
-6.046	6.65719986	0.768999994	200	0	0
-6.05100012	6.65719986	0.757000029	200	0	0
-6.046	6.6573	0.723999977	200	0	0
-6.05299997	6.6573	0.709999979	200	0	0
-6.05100012	6.6573	0.768000007	200	0	0
-6.03800011	6.65719986	0.851000011	200	0	0
-6.04899979	6.65719986	0.837000012	200	0	0
-6.04899979	6.65719986	0.81400001	200	0	0
-6.05000019	6.65719986	0.824999988	200	0	0
-6.04799986	6.65719986	0.870999992	200	0	0
-6.046	6.65719986	0.883000016	200	0	0
-6.06500006	6.65719986	0.922999978	200	0	0
-6.04199982	6.65719986	0.894999981	200	0	0
-6.05000019	6.65719986	0.903999984	200	0	0
-6.04699993	6.6573	0.700999975	200	0	0
-6.05299997	6.6573	0.640999973	200	0	0
-6.04300022	6.6573	0.67900002	200	0	0
-6.04400015	6.6573	0.654999971	200	0	0
-6.04400015	6.6573	0.666999996	200	0	0
-6.04300022	6.65740013	0.67900002	200	0	0
-6.05100012	6.6573	0.757000029	200	0	0
-6.04899979	6.6573	0.734000027	200	0	0
-6.04899979	6.65740013	0.653999984	200	0	0
-6.05700016	6.6573	0.616999984	200	0	0
-6.05900002	6.6573	0.605000019	200	0	0
-6.04699993	6.6573	0.825999975	200	0	0
-6.046	6.6573	0.814999998	200	0	0
-6.046	6.6573	0.781000018	200	0	0
-6.04699993	6.6573	0.791999996	200	0	0
-6.05299997	6.65740013	0.755999982	200	0	0
-6.0539999	6.65740013	0.76700002	200	0	0
-6.04300022	6.6573	0.850000024	200	0	0
-6.04899979	6.6573	0.837000012	200	0	0
-6.05000019	6.6573	0.903999984	200	0	0
-6.04300022	6.6573	0.894999981	200	0	0
-6.04699993	6.6573	0.871999979	200	0	0
-6.04899979	6.6573	0.882000029	200	0	0
-6.04400015	6.65749979	0.713999987	200	0	0
-6.04899979	6.65740013	0.81400001	200	0	0
-6.04300022	6.65749979	0.79400003	200	0	0
-6.04699993	6.65740013	0.700999975	200	0	0
-6.04799986	6.65749979	0.723999977	200	0	0
-6.04400015	6.65749979	0.782000005	200	0	0
-6.04699993	6.65749979	0.736000001	200	0	0
-6.04400015	6.65740013	0.713	200	0	0
-6.04899979	6.65749979	0.769999981	200	0	0
-6.05299997	6.65749979	0.757000029	200	0	0
-6.04500008	6.65740013	0.792999983	200	0	0
-6.04400015	6.65740013	0.723999977	200	0	0
-6.04300022	6.65740013	0.782000005	200	0	0
-6.04500008	6.65740013	0.736000001	200	0	0
-6.04400015	6.65740013	0.827000022	200	0	0
-6.0539999	6.65749979	0.64200002	200	0	0
-6.04099989	6.65740013	0.667999983	200	0	0
-6.05999994	6.65740013	0.615999997	200	0	0
-6.05600023	6.65740013	0.639999986	200	0	0
-6.04799986	6.65749979	0.67900002	200	0	0
-6.04699993	6.65749979	0.850000024	200	0	0
-6.04699993	6.65740013	0.883000016	200	0	0
-6.04799986	6.65740013	0.870999992	200	0	0
-6.046	6.65740013	0.838	200	0	0
-6.046	6.65740013	0.848999977	200	0	0
-6.05700016	6.65749979	0.617999971	200	0	0
-6.05200005	6.65740013	0.903999984	200	0	0
-6.0619998	6.65740013	0.924000025	200	0	0
-6.04899979	6.65749979	0.871999979	200	0	0
-6.04799986	6.65740013	0.893999994	200	0	0
-6.046	6.65749979	0.894999981	200	0	0
-6.04500008	6.65749979	0.828000009	200	0	0
-6.04799986	6.65749979	0.814999998	200	0	0
-6.05200005	6.65749979	0.904999971	200	0	0
-6.03999996	6.65749979	0.841000021	200	0	0
-6.046	6.65749979	0.884000003	200	0	0
-6.04300022	6.65749979	0.657000005	200	0	0
-6.04199982	6.65749979	0.66900003	200	0	0
-6.046	6.65749979	0.702000022	200	0	0
-6.04799986	6.65759993	0.713	200	0	0
-6.046	6.65759993	0.644999981	200	0	0
-6.04199982	6.65759993	0.703000009	200	0	0
-6.04400015	6.65759993	0.657000005	200	0	0
-6.04099989	6.65759993	0.66900003	200	0	0
-6.04199982	6.65759993	0.680000007	200	0	0
-6.07000017	6.65759993	0.601999998	200	0	0
-6.05800009	6.65759993	0.617999971	200	0	0
-6.03999996	6.65759993	0.851999998	200	0	0
-6.04500008	6.65759993	0.782000005	200	0	0
-6.046	6.65759993	0.838999987	200	0	0
-6.04300022	6.65759993	0.79400003	200	0	0
-6.04699993	6.65759993	0.827000022	200	0	0
-6.04799986	6.65759993	0.814999998	200	0	0
-6.04799986	6.65759993	0.723999977	200	0	0
-6.04400015	6.65759993	0.736999989	200	0	0
-6.05100012	6.65759993	0.768999994	200	0	0
-6.04899979	6.65759993	0.758000016	200	0	0
-6.046	6.65759993	0.907000005	200	0	0
-6.04799986	6.65759993	0.894999981	200	0	0
-6.04899979	6.65759993	0.871999979	200	0	0
-6.04699993	6.65759993	0.884000003	200	0	0
-6.04199982	6.65770006	0.66900003	200	0	0
-6.04799986	6.65770006	0.677999973	200	0	0
-6.04300022	6.65770006	0.736999989	200	0	0
-6.04400015	6.65770006	0.726000011	200	0	0
-6.046	6.65770006	0.702000022	200	0	0
-6.04500008	6.65770006	0.713999987	200	0	0
-6.06400013	6.65770006	0.615999997	200	0	0
-6.04099989	6.65770006	0.657999992	200	0	0
-6.05000019	6.65770006	0.643000007	200	0	0
-6.04699993	6.65780067	0.656000018	200	0	0
-6.04799986	6.65780067	0.643999994	200	0	0
-6.05600023	6.65780067	0.617999971	200	0	0
-6.046	6.65780067	0.67900002	200	0	0
-6.04099989	6.65780067	0.66900003	200	0	0
-6.04300022	6.65770006	0.79400003	200	0	0
-6.04199982	6.65770006	0.782999992	200	0	0
-6.04400015	6.65770006	0.771000028	200	0	0
-6.04500008	6.65770006	0.759000003	200	0	0
-6.04099989	6.65780067	0.737999976	200	0	0
-6.03999996	6.65780067	0.726999998	200	0	0
-6.04500008	6.65780067	0.702000022	200	0	0
-6.04300022	6.65780067	0.714999974	200	0	0
-6.05800009	6.65759993	0.925999999	200	0	0
-6.04300022	6.65770006	0.851000011	200	0	0
-6.04199982	6.65770006	0.839999974	200	0	0
-6.04400015	6.65770006	0.828000009	200	0	0
-6.04699993	6.65770006	0.815999985	200	0	0
-6.04899979	6.65789986	0.736000001	200	0	0
-6.046	6.65780067	0.771000028	200	0	0
-6.04699993	6.65780067	0.759000003	200	0	0
-6.04400015	6.65770006	0.88499999	200	0	0
-6.04799986	6.65770006	0.871999979	200	0	0
-6.04500008	6.65780067	0.828000009	200	0	0
-6.04400015	6.65780067	0.816999972	200	0	0
-6.04199982	6.65780067	0.782999992	200	0	0
-6.04099989	6.65780067	0.795000017	200	0	0
-6.046	6.65770006	0.907000005	200	0	0
-6.04799986	6.65770006	0.894999981	200	0	0
-6.04300022	6.65780067	0.88499999	200	0	0
-6.04400015	6.65780067	0.873000026	200	0	0
-6.03299999	6.65780067	0.853999972	200	0	0
-6.04099989	6.65780067	0.839999974	200	0	0
-6.05499983	6.65770006	0.926999986	200	0	0
-6.05700016	6.65780067	0.925999999	200	0	0
-6.04400015	6.65780067	0.896000028	200	0	0
-6.04799986	6.65780067	0.906000018	200	0	0
-6.04300022	6.65789986	0.714999974	200	0	0
-6.05600023	6.65789986	0.640999973	200	0	0
-6.04199982	6.65789986	0.703000009	200	0	0
-6.04500008	6.65789986	0.656000018	200	0	0
-6.03599977	6.65789986	0.671000004	200	0	0
-6.04099989	6.65789986	0.680999994	200	0	0
-6.0619998	6.65799999	0.615999997	200	0	0
-6.05000019	6.65789986	0.620000005	200	0	0
-6.04500008	6.65789986	0.771000028	200	0	0
-6.04699993	6.65789986	0.759000003	200	0	0
-6.04199982	6.65789986	0.726000011	200	0	0
-6.046	6.65789986	0.850000024	200	0	0
-6.04199982	6.65789986	0.782999992	200	0	0
-6.04199982	6.65789986	0.839999974	200	0	0
-6.03700018	6.65789986	0.796000004	200	0	0
-6.04699993	6.65789986	0.827000022	200	0	0
-6.046	6.65789986	0.815999985	200	0	0
-6.04899979	6.65789986	0.906000018	200	0	0
-6.03900003	6.65789986	0.897000015	200	0	0
-6.04500008	6.65789986	0.873000026	200	0	0
-6.04400015	6.65789986	0.88499999	200	0	0
-6.04400015	6.65799999	0.838999987	200	0	0
-6.05299997	6.65789986	0.926999986	200	0	0
-6.046	6.65799999	0.894999981	200	0	0
-6.04199982	6.65799999	0.828999996	200	0	0
-6.04500008	6.65799999	0.907000005	200	0	0
-6.04199982	6.65799999	0.851000011	200	0	0
-6.04400015	6.65799999	0.884000003	200	0	0
-6.04300022	6.65799999	0.873000026	200	0	0
-6.03999996	6.65799999	0.783999979	200	0	0
-6.04199982	6.65799999	0.795000017	200	0	0
-6.03999996	6.65799999	0.818000019	200	0	0
-6.04699993	6.65799999	0.769999981	200	0	0
-6.04400015	6.65799999	0.702000022	200	0	0
-6.04400015	6.65799999	0.75999999	200	0	0
-6.04400015	6.65799999	0.713999987	200	0	0
-6.04199982	6.65799999	0.726000011	200	0	0
-6.04300022	6.65799999	0.736999989	200	0	0
-6.05000019	6.65810013	0.768999994	200	0	0
-6.04199982	6.65799999	0.680000007	200	0	0
-6.03900003	6.65799999	0.657999992	200	0	0
-6.04099989	6.65799999	0.66900003	200	0	0
-6.05000019	6.65799999	0.643000007	200	0	0
-6.03900003	6.65810013	0.670000017	200	0	0
-6.03200006	6.65810013	0.683000028	200	0	0
-6.03700018	6.65810013	0.739000022	200	0	0
-6.04099989	6.65810013	0.726000011	200	0	0
-6.03499985	6.65810013	0.717000008	200	0	0
-6.04199982	6.65810013	0.703000009	200	0	0
-6.05700016	6.65810013	0.617999971	200	0	0
-6.03999996	6.65810013	0.657999992	200	0	0
-6.04400015	6.65810013	0.644999981	200	0	0
-6.04199982	6.65810013	0.828999996	200	0	0
-6.04400015	6.65810013	0.75999999	200	0	0
-6.04099989	6.65810013	0.818000019	200	0	0
-6.03900003	6.65810013	0.783999979	200	0	0
-6.03900003	6.65810013	0.795000017	200	0	0
-6.03999996	6.65820026	0.680999994	200	0	0
-6.04199982	6.65820026	0.75999999	200	0	0
-6.04300022	6.65820026	0.703000009	200	0	0
-6.03900003	6.65820026	0.737999976	200	0	0
-6.04300022	6.65820026	0.713999987	200	0	0
-6.03900003	6.65820026	0.726999998	200	0	0
-6.03599977	6.65820026	0.671000004	200	0	0
-6.03800011	6.65820026	0.796000004	200	0	0
