-3.16199994	6.98859978	0.653999984	200	0	0
-3.1500001	6.9890008	0.653999984	200	0	0
-3.16499996	6.98869991	0.65200001	200	0	0
-3.16599989	6.98859978	0.643999994	200	0	0
-3.1500001	6.9890008	0.647000015	200	0	0
-3.17199993	6.98849964	0.633000016	200	0	0
-3.16899991	6.98859978	0.63499999	200	0	0
-3.15700006	6.98820019	0.649999976	200	0	0
-3.16100001	6.98810005	0.648000002	200	0	0
-3.15499997	6.98820019	0.643999994	200	0	0
-3.16000009	6.98810005	0.640999973	200	0	0
-3.171	6.98859978	0.685000002	200	0	0
-3.16799998	6.98869991	0.680000007	200	0	0
-3.16799998	6.98859978	0.680000007	200	0	0
-3.15700006	6.98810005	0.665000021	200	0	0
-3.15400004	6.98820019	0.666999996	200	0	0
-3.15700006	6.98810005	0.657999992	200	0	0
-3.17000008	6.98859978	0.671000004	200	0	0
-3.15499997	6.98820019	0.658999979	200	0	0
-3.15799999	6.98820019	0.68599999	200	0	0
-3.16100001	6.98810005	0.685000002	200	0	0
-3.15799999	6.98820019	0.67900002	200	0	0
-3.16000009	6.98810005	0.677999973	200	0	0
-3.17400002	6.98859978	0.704999983	200	0	0
-3.16199994	6.98810005	0.720000029	200	0	0
-3.16599989	6.98869991	0.69599998	200	0	0
-3.15899992	6.98820019	0.714999974	200	0	0
-3.15899992	6.98810005	0.713999987	200	0	0
-3.16300011	6.98869991	0.689999998	200	0	0
-3.16700006	6.98859978	0.694999993	200	0	0
-3.14400005	6.98869991	0.68599999	200	0	0
-3.15499997	6.98820019	0.702000022	200	0	0
-3.15400004	6.98820019	0.69599998	200	0	0
-3.15499997	6.98810005	0.694999993	200	0	0
-3.15199995	6.9890008	0.681999981	200	0	0
-3.15799999	6.98820019	0.722000003	200	0	0
-3.16799998	6.98869991	0.716000021	200	0	0
-3.15100002	6.9890008	0.703999996	200	0	0
-3.16700006	6.98869991	0.709999979	200	0	0
-3.148	6.9890008	0.699000001	200	0	0
-3.15100002	6.9890008	0.68900001	200	0	0
-3.16000009	6.98810005	0.727999985	200	0	0
-3.16799998	6.98880005	0.751999974	200	0	0
-3.1500001	6.9890008	0.740999997	200	0	0
-3.17499995	6.98869991	0.748000026	200	0	0
-3.16199994	6.98869991	0.748000026	200	0	0
-3.15700006	6.98820019	0.736999989	200	0	0
-3.17199993	6.98880005	0.742999971	200	0	0
-3.15100002	6.9890008	0.73299998	200	0	0
-3.15700006	6.98820019	0.730000019	200	0	0
-3.15199995	6.9890008	0.725000024	200	0	0
-3.16599989	6.98880005	0.731999993	200	0	0
-3.16499996	6.98869991	0.731999993	200	0	0
-3.15300012	6.9890008	0.717999995	200	0	0
-3.1559999	6.98869991	0.730000019	200	0	0
-3.16599989	6.98880005	0.725000024	200	0	0
-3.15300012	6.9890008	0.753000021	200	0	0
-3.17000008	6.98869991	0.758000016	200	0	0
-3.16400003	6.98810005	0.748000026	200	0	0
-3.17700005	6.98869991	0.782999992	200	0	0
-3.16700006	6.98880005	0.781000018	200	0	0
-3.15700006	6.98820019	0.773000002	200	0	0
-3.15799999	6.98810005	0.764999986	200	0	0
-3.17199993	6.98869991	0.777999997	200	0	0
-3.1559999	6.98820019	0.765999973	200	0	0
-3.16199994	6.98810005	0.755999982	200	0	0
-3.15499997	6.9890008	0.759000003	200	0	0
-3.16499996	6.98880005	0.768000007	200	0	0
-3.15899992	6.98820019	0.758000016	200	0	0
-3.17000008	6.98869991	0.764999986	200	0	0
-3.16499996	6.98880005	0.760999978	200	0	0
-3.15899992	6.98820019	0.750999987	200	0	0
-3.16199994	6.98820019	0.785000026	200	0	0
-3.16599989	6.98810005	0.782000005	200	0	0
-3.16100001	6.98820019	0.791999996	200	0	0
-3.16899991	6.98880005	0.795000017	200	0	0
-3.16300011	6.98820019	0.819000006	200	0	0
-3.16000009	6.98820019	0.806999981	200	0	0
-3.16100001	6.98810005	0.805999994	200	0	0
-3.16000009	6.98820019	0.800000012	200	0	0
-3.16100001	6.98810005	0.799000025	200	0	0
-3.16199994	6.98810005	0.791999996	200	0	0
-3.16599989	6.98810005	0.824999988	200	0	0
-3.171	6.98880005	0.850000024	200	0	0
-3.16100001	6.98820019	0.828000009	200	0	0
-3.16799998	6.98880005	0.837000012	200	0	0
-3.16899991	6.98880005	0.829999983	200	0	0
-3.17000008	6.98880005	0.822000027	200	0	0
-3.16700006	6.98880005	0.816999972	200	0	0
-3.15799999	6.98820019	0.836000025	200	0	0
-3.16199994	6.98810005	0.833999991	200	0	0
-3.15899992	6.98820019	0.842000008	200	0	0
-3.17600012	6.98880005	0.853999972	200	0	0
-3.16100001	6.98810005	0.841000021	200	0	0
-3.15899992	6.98890018	0.875999987	200	0	0
-3.16400003	6.98810005	0.853999972	200	0	0
-3.16300011	6.98820019	0.861000001	200	0	0
-3.16599989	6.98820019	0.852999985	200	0	0
-3.16799998	6.98890018	0.86500001	200	0	0
-3.17000008	6.98890018	0.856999993	200	0	0
-3.15799999	6.98820019	0.870999992	200	0	0
-3.16100001	6.98810005	0.869000018	200	0	0
-3.16300011	6.98820019	0.875	200	0	0
-3.16499996	6.98810005	0.874000013	200	0	0
-3.16499996	6.98810005	0.888000011	200	0	0
-3.16599989	6.98820019	0.888000011	200	0	0
-3.15700006	6.9890008	0.890999973	200	0	0
-3.16199994	6.98890018	0.888999999	200	0	0
-3.15400004	6.9890008	0.879000008	200	0	0
-3.16400003	6.98810005	0.908999979	200	0	0
-3.16300011	6.98820019	0.908999979	200	0	0
-3.16000009	6.98820019	0.903999984	200	0	0
-3.16499996	6.98810005	0.90200001	200	0	0
-3.16300011	6.98810005	0.896000028	200	0	0
-3.16599989	6.98820019	0.893999994	200	0	0
-3.16300011	6.98820019	0.922999978	200	0	0
-3.16700006	6.98810005	0.921000004	200	0	0
-3.16400003	6.98820019	0.92900002	200	0	0
-3.15700006	6.9890008	0.94599998	200	0	0
-3.16100001	6.98890018	0.944000006	200	0	0
-3.15700006	6.9890008	0.93900001	200	0	0
-3.15899992	6.9890008	0.930999994	200	0	0
-3.16400003	6.98890018	0.92900002	200	0	0
-3.15700006	6.9890008	0.925000012	200	0	0
-3.15499997	6.9890008	0.912999988	200	0	0
-3.15499997	6.98890018	0.912999988	200	0	0
-3.15499997	6.9890008	0.906000018	200	0	0
-3.15799999	6.9890008	0.898000002	200	0	0
-3.15799999	6.98890018	0.898000002	200	0	0
-3.16799998	6.98810005	0.927999973	200	0	0
-3.16100001	6.98820019	0.938000023	200	0	0
-3.16400003	6.98810005	0.93599999	200	0	0
-3.15700006	6.9890008	0.97299999	200	0	0
-3.16400003	6.98820019	0.943000019	200	0	0
-3.15700006	6.98890018	0.97299999	200	0	0
-3.16000009	6.9890008	0.964999974	200	0	0
-3.16300011	6.98890018	0.963999987	200	0	0
-3.15700006	6.9890008	0.959999979	200	0	0
-3.16499996	6.98890018	0.95599997	200	0	0
-3.16400003	6.98810005	0.943000019	200	0	0
-3.16499996	6.98820019	0.95599997	200	0	0
-3.16899991	6.98810005	0.953999996	200	0	0
-3.16599989	6.98810005	0.968999982	200	0	0
-3.16599989	6.98820019	0.963	200	0	0
-3.16700006	6.98810005	0.962000012	200	0	0
-3.16300011	6.98820019	0.971000016	200	0	0
-3.171	6.98810005	0.986999989	200	0	0
-3.16400003	6.98820019	0.976999998	200	0	0
-3.16300011	6.98890018	0.99000001	200	0	0
-3.15799999	6.9890008	0.978999972	200	0	0
-3.16400003	6.98820019	1.00399995	200	0	0
-3.16400003	6.98810005	1.00399995	200	0	0
-3.16799998	6.98810005	0.995999992	200	0	0
-3.16799998	6.98820019	0.995000005	200	0	0
-3.16799998	6.98820019	0.989000022	200	0	0
-3.16899991	6.98820019	1.02199996	200	0	0
-3.171	6.98810005	1.02100003	200	0	0
-3.16499996	6.98820019	1.00999999	200	0	0
-3.17000008	6.98810005	1.028	200	0	0
-3.16499996	6.98890018	0.995999992	200	0	0
-3.16000009	6.98890018	1.04499996	200	0	0
-3.15899992	6.9890008	1.03900003	200	0	0
-3.16199994	6.98890018	1.03799999	200	0	0
-3.15799999	6.98890018	1.03299999	200	0	0
-3.16300011	6.9890008	1.03100002	200	0	0
-3.16100001	6.98890018	1.02499998	200	0	0
-3.16199994	6.9890008	1.02499998	200	0	0
-3.15700006	6.9890008	1.01300001	200	0	0
-3.16400003	6.98890018	1.00999999	200	0	0
-3.15799999	6.9890008	1.00600004	200	0	0
-3.16000009	6.98890018	1.005	200	0	0
-3.15899992	6.9890008	0.999000013	200	0	0
-3.16100001	6.9890008	0.991999984	200	0	0
-3.16499996	6.98820019	1.03699994	200	0	0
-3.16899991	6.98810005	1.03499997	200	0	0
-3.16899991	6.98820019	1.02900004	200	0	0
-3.16199994	6.9890008	1.07099998	200	0	0
-3.16400003	6.98890018	1.07000005	200	0	0
-3.16599989	6.98890018	1.06299996	200	0	0
-3.16400003	6.9890008	1.06299996	200	0	0
-3.16199994	6.98890018	1.05799997	200	0	0
-3.16300011	6.9890008	1.05700004	200	0	0
-3.15799999	6.9890008	1.046	200	0	0
-3.16400003	6.98820019	1.04400003	200	0	0
-3.17000008	6.98810005	1.05499995	200	0	0
-3.16700006	6.98810005	1.04299998	200	0	0
-3.16899991	6.98810005	1.06799996	200	0	0
-3.16700006	6.98820019	1.06299996	200	0	0
-3.16700006	6.98810005	1.06200004	200	0	0
-3.16799998	6.98820019	1.05599999	200	0	0
-3.16700006	6.98820019	1.06900001	200	0	0
-3.16499996	6.98820019	1.07700002	200	0	0
-3.171	6.98810005	1.074	200	0	0
-3.16000009	6.9890008	1.07799995	200	0	0
-3.16300011	6.98890018	1.07700002	200	0	0
-3.16899991	6.98820019	1.10099995	200	0	0
-3.1730001	6.98810005	1.09899998	200	0	0
-3.17199993	6.98810005	1.09399998	200	0	0
-3.17000008	6.98820019	1.09399998	200	0	0
-3.16899991	6.98820019	1.08800006	200	0	0
-3.17199993	6.98810005	1.08700001	200	0	0
-3.16899991	6.98820019	1.12100005	200	0	0
-3.16300011	6.98890018	1.09000003	200	0	0
-3.1730001	6.98810005	1.11899996	200	0	0
-3.16899991	6.98820019	1.10800004	200	0	0
-3.171	6.98810005	1.10699999	200	0	0
-3.17199993	6.98820019	1.12600005	200	0	0
-3.17199993	6.98810005	1.12600005	200	0	0
-3.16499996	6.98890018	1.09599996	200	0	0
-3.16300011	6.9890008	1.09000003	200	0	0
-3.16300011	6.98890018	1.14300001	200	0	0
-3.17799997	6.98880005	1.13600004	200	0	0
-3.16300011	6.9890008	1.13600004	200	0	0
-3.16199994	6.98890018	1.13600004	200	0	0
-3.16400003	6.9890008	1.12899995	200	0	0
-3.16599989	6.98890018	1.12800002	200	0	0
-3.16599989	6.9890008	1.12199998	200	0	0
-3.16499996	6.98890018	1.12199998	200	0	0
-3.16199994	6.9890008	1.11000001	200	0	0
-3.16599989	6.98890018	1.10899997	200	0	0
-3.16199994	6.9890008	1.10399997	200	0	0
-3.16499996	6.9890008	1.09599996	200	0	0
-3.16899991	6.98820019	1.13399994	200	0	0
-3.1789999	6.98880005	1.16100001	200	0	0
-3.16799998	6.98890018	1.15999997	200	0	0
-3.18300009	6.98880005	1.15400004	200	0	0
-3.16499996	6.9890008	1.15499997	200	0	0
-3.1789999	6.98880005	1.148	200	0	0
-3.17799997	6.98890018	1.14900005	200	0	0
-3.17199993	6.98820019	1.13900006	200	0	0
-3.16899991	6.98810005	1.13999999	200	0	0
-3.17000008	6.98820019	1.153	200	0	0
-3.171	6.98820019	1.16600001	200	0	0
-3.171	6.98810005	1.16600001	200	0	0
-3.1730001	6.98820019	1.15799999	200	0	0
-3.1730001	6.98810005	1.15799999	200	0	0
-3.17000008	6.98810005	1.17200005	200	0	0
-3.171	6.98820019	1.17200005	200	0	0
-3.17600012	6.98880005	1.16900003	200	0	0
-3.16899991	6.98820019	1.19799995	200	0	0
-3.17199993	6.98810005	1.19700003	200	0	0
-3.1730001	6.98820019	1.19099998	200	0	0
-3.17700005	6.98810005	1.18900001	200	0	0
-3.17400002	6.98820019	1.18400002	200	0	0
-3.17400002	6.98820019	1.21599996	200	0	0
-3.1789999	6.98880005	1.19400001	200	0	0
-3.17499995	6.98810005	1.21500003	200	0	0
-3.18000007	6.98880005	1.18700004	200	0	0
-3.18000007	6.98880005	1.18099999	200	0	0
-3.17000008	6.98820019	1.20500004	200	0	0
-3.17199993	6.98810005	1.204	200	0	0
-3.17199993	6.98810005	1.22300005	200	0	0
-3.1730001	6.98820019	1.22300005	200	0	0
-3.16599989	6.9890008	1.19299996	200	0	0
-3.16599989	6.9890008	1.23699999	200	0	0
-3.16799998	6.98890018	1.23699999	200	0	0
-3.1789999	6.98869991	1.23199999	200	0	0
-3.17799997	6.98880005	1.23300004	200	0	0
-3.16599989	6.9890008	1.23099995	200	0	0
-3.16700006	6.98890018	1.23099995	200	0	0
-3.18000007	6.98869991	1.22599995	200	0	0
-3.1789999	6.98880005	1.22599995	200	0	0
-3.16599989	6.9890008	1.22500002	200	0	0
-3.16899991	6.98890018	1.22399998	200	0	0
-3.16599989	6.9890008	1.21800005	200	0	0
-3.16799998	6.98890018	1.21800005	200	0	0
-3.16499996	6.9890008	1.20599997	200	0	0
-3.16599989	6.98830032	1.23099995	200	0	0
-3.1730001	6.98810005	1.22899997	200	0	0
-3.17199993	6.98820019	1.22899997	200	0	0
-3.17000008	6.9890008	1.255	200	0	0
-3.17199993	6.98820019	1.23599994	200	0	0
-3.18300009	6.98869991	1.25600004	200	0	0
-3.17000008	6.98890018	1.255	200	0	0
-3.16599989	6.98830032	1.23699999	200	0	0
-3.16899991	6.9890008	1.24899995	200	0	0
-3.18400002	6.98880005	1.25	200	0	0
-3.16899991	6.98890018	1.24899995	200	0	0
-3.18199992	6.98869991	1.24399996	200	0	0
-3.1730001	6.98810005	1.23500001	200	0	0
-3.17000008	6.98830032	1.24800003	200	0	0
-3.17499995	6.98810005	1.24699998	200	0	0
-3.17499995	6.98820019	1.24699998	200	0	0
-3.17400002	6.98820019	1.25999999	200	0	0
-3.17499995	6.98830032	1.25899994	200	0	0
-3.17499995	6.98810005	1.25399995	200	0	0
-3.17499995	6.98820019	1.25399995	200	0	0
-3.17499995	6.98830032	1.25300002	200	0	0
-3.17400002	6.98830032	1.26600003	200	0	0
-3.17400002	6.98820019	1.26699996	200	0	0
-3.17600012	6.98810005	1.26600003	200	0	0
-3.16899991	6.9890008	1.26199996	200	0	0
-3.18099999	6.98869991	1.26300001	200	0	0
-3.16700006	6.98890018	1.26199996	200	0	0
-3.18499994	6.98880005	1.26199996	200	0	0
-3.18700004	6.98869991	1.27999997	200	0	0
-3.1730001	6.98820019	1.29200006	200	0	0
-3.17700005	6.98810005	1.29100001	200	0	0
-3.17499995	6.98830032	1.29100001	200	0	0
-3.18499994	6.98869991	1.27499998	200	0	0
-3.17600012	6.98810005	1.28499997	200	0	0
-3.17600012	6.98820019	1.28499997	200	0	0
-3.17700005	6.98830032	1.28400004	200	0	0
-3.17199993	6.98820019	1.27999997	200	0	0
-3.17799997	6.98810005	1.278	200	0	0
-3.17799997	6.98830032	1.27699995	200	0	0
-3.16799998	6.98890018	1.28699994	200	0	0
-3.17700005	6.98830032	1.31500006	200	0	0
-3.18600011	6.98859978	1.30599999	200	0	0
-3.16700006	6.9890008	1.26900005	200	0	0
-3.17600012	6.98810005	1.30999994	200	0	0
-3.1730001	6.98890018	1.27900004	200	0	0
-3.17499995	6.98820019	1.30999994	200	0	0
-3.17700005	6.98830032	1.30900002	200	0	0
-3.18499994	6.98869991	1.29299998	200	0	0
-3.18499994	6.98859978	1.29400003	200	0	0
-3.18300009	6.98869991	1.28799999	200	0	0
-3.17199993	6.98859978	1.29200006	200	0	0
-3.1730001	6.98830032	1.29799998	200	0	0
-3.17499995	6.98810005	1.29799998	200	0	0
-3.17400002	6.98820019	1.29799998	200	0	0
-3.16899991	6.9890008	1.28699994	200	0	0
-3.16799998	6.9890008	1.28100002	200	0	0
-3.17799997	6.98810005	1.32200003	200	0	0
-3.17700005	6.98820019	1.31599998	200	0	0
-3.17499995	6.98810005	1.31599998	200	0	0
-3.17700005	6.98830032	1.32200003	200	0	0
-3.16899991	6.98890018	1.29299998	200	0	0
-3.18700004	6.98859978	1.31200004	200	0	0
-3.18099999	6.98859978	1.32700002	200	0	0
-3.16899991	6.98890018	1.33099997	200	0	0
-3.16799998	6.9890008	1.33099997	200	0	0
-3.18199992	6.98859978	1.32000005	200	0	0
-3.16799998	6.9890008	1.32500005	200	0	0
-3.16899991	6.98890018	1.324	200	0	0
-3.18799996	6.98869991	1.31099999	200	0	0
-3.171	6.9890008	1.31799996	200	0	0
-3.16899991	6.98890018	1.31200004	200	0	0
-3.17000008	6.9890008	1.31200004	200	0	0
-3.16899991	6.98890018	1.29999995	200	0	0
-3.16700006	6.9890008	1.29999995	200	0	0
-3.16799998	6.9890008	1.29299998	200	0	0
-3.17499995	6.98820019	1.329	200	0	0
-3.17799997	6.98830032	1.32799995	200	0	0
-3.17600012	6.98820019	1.32299995	200	0	0
-3.18600011	6.98859978	1.34300005	200	0	0
-3.171	6.9890008	1.34899998	200	0	0
-3.17199993	6.98890018	1.34800005	200	0	0
-3.19000006	6.98859978	1.33599997	200	0	0
-3.17199993	6.98890018	1.34200001	200	0	0
-3.17199993	6.9890008	1.34200001	200	0	0
-3.17600012	6.98810005	1.329	200	0	0
-3.18700004	6.98859978	1.35500002	200	0	0
-3.17600012	6.98820019	1.34099996	200	0	0
-3.18499994	6.98859978	1.35000002	200	0	0
-3.17700005	6.98830032	1.34000003	200	0	0
-3.17700005	6.98820019	1.347	200	0	0
-3.17799997	6.98810005	1.34099996	200	0	0
-3.17700005	6.98810005	1.35899997	200	0	0
-3.17400002	6.98820019	1.35399997	200	0	0
-3.17700005	6.98810005	1.35300004	200	0	0
-3.17799997	6.98830032	1.352	200	0	0
-3.17600012	6.98810005	1.347	200	0	0
-3.17600012	6.98820019	1.36000001	200	0	0
-3.17600012	6.98830032	1.36000001	200	0	0
-3.1730001	6.98890018	1.36099994	200	0	0
-3.16899991	6.98890018	1.35599995	200	0	0
-3.17000008	6.9890008	1.35500002	200	0	0
-3.1789999	6.98830032	1.37100005	200	0	0
-3.17499995	6.9890008	1.37199998	200	0	0
-3.171	6.98890018	1.37399995	200	0	0
-3.18899989	6.98849964	1.37300003	200	0	0
-3.19099998	6.98859978	1.37300003	200	0	0
-3.17000008	6.9890008	1.36199999	200	0	0
-3.18799996	6.98859978	1.36800003	200	0	0
-3.17700005	6.98810005	1.39100003	200	0	0
-3.17600012	6.98820019	1.39100003	200	0	0
-3.17700005	6.98830032	1.38999999	200	0	0
-3.18600011	6.98859978	1.38100004	200	0	0
-3.18799996	6.98849964	1.38	200	0	0
-3.17700005	6.98810005	1.38499999	200	0	0
-3.17499995	6.98820019	1.38499999	200	0	0
-3.18099999	6.98830032	1.38300002	200	0	0
-3.17600012	6.98810005	1.37800002	200	0	0
-3.17799997	6.98820019	1.37800002	200	0	0
-3.18000007	6.98830032	1.37600005	200	0	0
-3.17799997	6.98810005	1.37199998	200	0	0
-3.17700005	6.98820019	1.37199998	200	0	0
-3.19000006	6.98859978	1.38499999	200	0	0
-3.18600011	6.98849964	1.38699996	200	0	0
-3.17199993	6.9890008	1.38600004	200	0	0
-3.1730001	6.98890018	1.38499999	200	0	0
-3.17400002	6.9890008	1.37899995	200	0	0
-3.1730001	6.98890018	1.37899995	200	0	0
-3.18700004	6.98849964	1.41100001	200	0	0
-3.17199993	6.98890018	1.39199996	200	0	0
-3.1789999	6.98810005	1.40799999	200	0	0
-3.19099998	6.98859978	1.40400004	200	0	0
-3.17700005	6.98820019	1.40900004	200	0	0
-3.1789999	6.98830032	1.40799999	200	0	0
-3.19000006	6.98849964	1.40400004	200	0	0
-3.18799996	6.98859978	1.39900005	200	0	0
-3.18000007	6.98820019	1.40199995	200	0	0
-3.18799996	6.98849964	1.39900005	200	0	0
-3.171	6.9890008	1.39199996	200	0	0
-3.17700005	6.98810005	1.421	200	0	0
-3.17600012	6.98810005	1.41600001	200	0	0
-3.17700005	6.98820019	1.41499996	200	0	0
-3.18899989	6.98849964	1.41700006	200	0	0
-3.17499995	6.98890018	1.403	200	0	0
-3.1730001	6.98890018	1.42200005	200	0	0
-3.1730001	6.9890008	1.41600001	200	0	0
-3.1730001	6.98890018	1.41600001	200	0	0
-3.17400002	6.9890008	1.40999997	200	0	0
-3.171	6.98890018	1.40999997	200	0	0
-3.1730001	6.9890008	1.40400004	200	0	0
-3.1730001	6.9890008	1.42200005	200	0	0
-3.17600012	6.98820019	1.42200005	200	0	0
-3.18000007	6.98820019	1.43299997	200	0	0
-3.19099998	6.98849964	1.44099998	200	0	0
-3.17600012	6.98890018	1.43299997	200	0	0
-3.19000006	6.98849964	1.43499994	200	0	0
-3.17700005	6.98840094	1.43299997	200	0	0
-3.19000006	6.98849964	1.42900002	200	0	0
-3.1730001	6.98890018	1.44700003	200	0	0
-3.1730001	6.9890008	1.44700003	200	0	0
-3.171	6.9890008	1.44099998	200	0	0
-3.17499995	6.98890018	1.44000006	200	0	0
-3.17400002	6.9890008	1.43400002	200	0	0
-3.17799997	6.98820019	1.44500005	200	0	0
-3.18199992	6.98810005	1.43799996	200	0	0
-3.19000006	6.98840094	1.44700003	200	0	0
-3.1789999	6.98820019	1.43900001	200	0	0
-3.19400001	6.98849964	1.44599998	200	0	0
-3.19000006	6.98840094	1.44099998	200	0	0
-3.1789999	6.98810005	1.44500005	200	0	0
-3.17799997	6.98820019	1.45200002	200	0	0
-3.18099999	6.98810005	1.45099998	200	0	0
-3.1730001	6.9890008	1.45299995	200	0	0
-3.17400002	6.98890018	1.45200002	200	0	0
-3.18199992	6.98810005	1.46800005	200	0	0
-3.18099999	6.98820019	1.46899998	200	0	0
-3.19099998	6.98840094	1.46500003	200	0	0
-3.18099999	6.98810005	1.46300006	200	0	0
-3.18000007	6.98820019	1.46300006	200	0	0
-3.18899989	6.98840094	1.46000004	200	0	0
-3.17400002	6.98890018	1.47099996	200	0	0
-3.1730001	6.9890008	1.47099996	200	0	0
-3.171	6.9890008	1.46500003	200	0	0
-3.17499995	6.98890018	1.46399999	200	0	0
-3.19000006	6.98840094	1.472	200	0	0
-3.19199991	6.98840094	1.477	200	0	0
-3.1789999	6.98820019	1.48199999	200	0	0
-3.1789999	6.98810005	1.48199999	200	0	0
-3.17700005	6.98820019	1.47599995	200	0	0
-3.18000007	6.98810005	1.47500002	200	0	0
-3.17499995	6.98890018	1.47599995	200	0	0
-3.1730001	6.98890018	1.48300004	200	0	0
-3.1730001	6.9890008	1.48300004	200	0	0
-3.17199993	6.9890008	1.477	200	0	0
-3.18000007	6.98820019	1.50600004	200	0	0
-3.17600012	6.98890018	1.5	200	0	0
-3.17600012	6.9890008	1.49399996	200	0	0
-3.18300009	6.98810005	1.49899995	200	0	0
-3.19199991	6.98840094	1.50699997	200	0	0
-3.18099999	6.98820019	1.49899995	200	0	0
-3.1789999	6.98890018	1.49300003	200	0	0
-3.19199991	6.98840094	1.50100005	200	0	0
-3.18400002	6.98810005	1.49199998	200	0	0
-3.1789999	6.98820019	1.49399996	200	0	0
-3.19400001	6.98840094	1.495	200	0	0
-3.19400001	6.98840094	1.48899996	200	0	0
-3.18000007	6.98810005	1.50600004	200	0	0
-3.17700005	6.98810005	1.51300001	200	0	0
-3.17400002	6.98890018	1.50699997	200	0	0
-3.17700005	6.9890008	1.5	200	0	0
-3.17400002	6.9890008	1.51300001	200	0	0
-3.17499995	6.98890018	1.51300001	200	0	0
-3.17400002	6.9890008	1.50699997	200	0	0
-3.18099999	6.98820019	1.52999997	200	0	0
-3.18199992	6.98810005	1.52900004	200	0	0
-3.19499993	6.98840094	1.52499998	200	0	0
-3.18000007	6.98820019	1.52400005	200	0	0
-3.19400001	6.98840094	1.51900005	200	0	0
-3.17700005	6.98890018	1.52999997	200	0	0
-3.17600012	6.9890008	1.52400005	200	0	0
-3.19300008	6.98840094	1.53699994	200	0	0
-3.17600012	6.98890018	1.52400005	200	0	0
-3.19199991	6.98830032	1.53199995	200	0	0
-3.19700003	6.98840094	1.52999997	200	0	0
-3.17499995	6.9890008	1.53100002	200	0	0
-3.17499995	6.9890008	1.54299998	200	0	0
-3.17600012	6.98890018	1.54200006	200	0	0
-3.17600012	6.9890008	1.53699994	200	0	0
-3.17600012	6.98890018	1.53699994	200	0	0
-3.18099999	6.98810005	1.54200006	200	0	0
-3.1789999	6.98810005	1.53600001	200	0	0
-3.18400002	6.98820019	1.56500006	200	0	0
-3.19799995	6.98840094	1.55400002	200	0	0
-3.18300009	6.98810005	1.55900002	200	0	0
-3.19799995	6.98840094	1.54799998	200	0	0
-3.18300009	6.98810005	1.55299997	200	0	0
-3.17499995	6.9890008	1.56700003	200	0	0
-3.17600012	6.98890018	1.56599998	200	0	0
-3.17799997	6.9890008	1.55999994	200	0	0
-3.17799997	6.98890018	1.55999994	200	0	0
-3.17700005	6.9890008	1.55400002	200	0	0
-3.1789999	6.98890018	1.55400002	200	0	0
-3.18400002	6.98810005	1.57099998	200	0	0
-3.17199993	6.9890008	1.574	200	0	0
-3.17700005	6.98890018	1.57200003	200	0	0
-3.18300009	6.98810005	1.60099995	200	0	0
-3.18099999	6.98820019	1.59500003	200	0	0
-3.18499994	6.98810005	1.59399998	200	0	0
-3.18199992	6.98810005	1.58899999	200	0	0
-3.18300009	6.98820019	1.58899999	200	0	0
-3.18300009	6.98810005	1.58299994	200	0	0
-3.17700005	6.9890008	1.59599996	200	0	0
-3.17799997	6.98890018	1.59599996	200	0	0
-3.17600012	6.9890008	1.59000003	200	0	0
-3.1789999	6.98890018	1.59000003	200	0	0
-3.17600012	6.9890008	1.58399999	200	0	0
-3.17700005	6.98890018	1.58399999	200	0	0
-3.18600011	6.98820019	1.61199999	200	0	0
-3.17199993	6.9890008	1.60300004	200	0	0
-3.17700005	6.98890018	1.602	200	0	0
-3.18199992	6.98820019	1.625	200	0	0
-3.18600011	6.98810005	1.61800003	200	0	0
-3.18400002	6.98820019	1.61800003	200	0	0
-3.17700005	6.9890008	1.62600005	200	0	0
-3.18000007	6.98890018	1.625	200	0	0
-3.17799997	6.9890008	1.62	200	0	0
-3.17799997	6.98890018	1.62	200	0	0
-3.17799997	6.9890008	1.61300004	200	0	0
-3.18000007	6.98890018	1.61300004	200	0	0
-3.18499994	6.98810005	1.63	200	0	0
-3.18400002	6.98820019	1.63	200	0	0
-3.17600012	6.9890008	1.63199997	200	0	0
-3.1789999	6.98890018	1.63100004	200	0	0
-3.18600011	6.98810005	1.64100003	200	0	0
-3.18400002	6.98820019	1.65999997	200	0	0
-3.18499994	6.98810005	1.65400004	200	0	0
-3.18300009	6.98820019	1.65400004	200	0	0
-3.18099999	6.98820019	1.64900005	200	0	0
-3.18600011	6.98810005	1.648	200	0	0
-3.18099999	6.98820019	1.64300001	200	0	0
-3.17600012	6.98890018	1.66100001	200	0	0
-3.17700005	6.9890008	1.66100001	200	0	0
-3.17799997	6.98890018	1.65499997	200	0	0
-3.17700005	6.9890008	1.65499997	200	0	0
-3.18300009	6.98890018	1.648	200	0	0
-3.17600012	6.9890008	1.64900005	200	0	0
-3.17400002	6.9890008	1.64400005	200	0	0
-3.1789999	6.98890018	1.64300001	200	0	0
-3.1789999	6.9890008	1.67200005	200	0	0
-3.18600011	6.98890018	1.66999996	200	0	0
-3.18799996	6.98820019	1.70000005	200	0	0
-3.18799996	6.98810005	1.70000005	200	0	0
-3.18600011	6.98820019	1.68900001	200	0	0
-3.18700004	6.98810005	1.68799996	200	0	0
-3.18600011	6.98820019	1.68299997	200	0	0
-3.18400002	6.98810005	1.68299997	200	0	0
-3.18600011	6.98820019	1.67700005	200	0	0
-3.18799996	6.98810005	1.676	200	0	0
-3.18600011	6.98820019	1.671	200	0	0
-3.18799996	6.98810005	1.671	200	0	0
-3.18099999	6.98890018	1.69000006	200	0	0
-3.17799997	6.9890008	1.69000006	200	0	0
-3.1789999	6.98890018	1.68400002	200	0	0
-3.18000007	6.9890008	1.68400002	200	0	0
-3.18000007	6.9890008	1.67799997	200	0	0
-3.18300009	6.98890018	1.67700005	200	0	0
-3.18799996	6.98810005	1.70599997	200	0	0
-3.18600011	6.98820019	1.70599997	200	0	0
-3.18099999	6.98890018	1.70099998	200	0	0
-3.18099999	6.9890008	1.70099998	200	0	0
-3.18799996	6.98810005	1.71800005	200	0	0
-3.18499994	6.98820019	1.71800005	200	0	0
-3.18499994	6.98810005	1.71300006	200	0	0
-3.18499994	6.98820019	1.71300006	200	0	0
-3.18099999	6.98890018	1.71899998	200	0	0
-3.18099999	6.9890008	1.71899998	200	0	0
-3.1789999	6.9890008	1.71300006	200	0	0
-3.18300009	6.98890018	1.71200001	200	0	0
-3.18099999	6.9890008	1.70700002	200	0	0
-3.18400002	6.98890018	1.70599997	200	0	0
-3.19000006	6.98820019	1.72899997	200	0	0
-3.19099998	6.98810005	1.72899997	200	0	0
-3.18400002	6.98890018	1.73000002	200	0	0
-3.18099999	6.9890008	1.73000002	200	0	0
-3.18499994	6.98820019	1.73599994	200	0	0
-3.18700004	6.98810005	1.73500001	200	0	0
-3.19000006	6.98810005	1.75800002	200	0	0
-3.19000006	6.98820019	1.75800002	200	0	0
-3.18899989	6.98810005	1.74699998	200	0	0
-3.18700004	6.98820019	1.74699998	200	0	0
-3.18300009	6.98820019	1.74199998	200	0	0
-3.18799996	6.98810005	1.74100006	200	0	0
-3.18300009	6.9890008	1.75899994	200	0	0
-3.18199992	6.98890018	1.75899994	200	0	0
-3.17799997	6.9890008	1.74800003	200	0	0
-3.18300009	6.98890018	1.74699998	200	0	0
-3.18099999	6.98890018	1.74199998	200	0	0
-3.18499994	6.9890008	1.74100006	200	0	0
-3.18400002	6.9890008	1.73599994	200	0	0
-3.18400002	6.98890018	1.73599994	200	0	0
-3.18300009	6.9890008	1.77100003	200	0	0
-3.18400002	6.98890018	1.76999998	200	0	0
-3.18400002	6.98890018	1.76499999	200	0	0
-3.18400002	6.9890008	1.76499999	200	0	0
-3.18799996	6.98820019	1.79900002	200	0	0
-3.18899989	6.98820019	1.79299998	200	0	0
-3.19700003	6.98810005	1.79100001	200	0	0
-3.18700004	6.98820019	1.78799999	200	0	0
-3.19499993	6.98810005	1.78600001	200	0	0
-3.18400002	6.98820019	1.77699995	200	0	0
-3.19199991	6.98810005	1.77499998	200	0	0
-3.18700004	6.98820019	1.76999998	200	0	0
-3.19199991	6.98810005	1.76900005	200	0	0
-3.18799996	6.98820019	1.76400006	200	0	0
-3.18199992	6.9890008	1.78799999	200	0	0
-3.18499994	6.98890018	1.78799999	200	0	0
-3.18199992	6.9890008	1.77699995	200	0	0
-3.18400002	6.98890018	1.77600002	200	0	0
-3.20499992	6.98830032	1.801	200	0	0
-3.19000006	6.98820019	1.80400002	200	0	0
-3.18199992	6.9890008	1.79999995	200	0	0
-3.18499994	6.98890018	1.79900002	200	0	0
-3.18099999	6.9890008	1.79400003	200	0	0
-3.18600011	6.98890018	1.79299998	200	0	0
-3.19199991	6.98820019	1.81599998	200	0	0
-3.204	6.98830032	1.81299996	200	0	0
-3.18400002	6.9890008	1.81700003	200	0	0
-3.18899989	6.98890018	1.81599998	200	0	0
-3.18400002	6.9890008	1.80499995	200	0	0
-3.18300009	6.98890018	1.80499995	200	0	0
-3.204	6.98830032	1.81799996	200	0	0
-3.18300009	6.9890008	1.829	200	0	0
-3.18499994	6.98890018	1.82799995	200	0	0
-3.18400002	6.9890008	1.82200003	200	0	0
-3.18799996	6.98890018	1.82200003	200	0	0
-3.2019999	6.98830032	1.83000004	200	0	0
-3.20499992	6.98830032	1.85300004	200	0	0
-3.20700002	6.98840094	1.847	200	0	0
-3.20499992	6.98830032	1.84099996	200	0	0
-3.20300007	6.98840094	1.85300004	200	0	0
-3.18400002	6.9890008	1.85699999	200	0	0
-3.18700004	6.98890018	1.85599995	200	0	0
-3.18600011	6.98890018	1.85099995	200	0	0
-3.18799996	6.9890008	1.85000002	200	0	0
-3.18799996	6.98890018	1.84500003	200	0	0
-3.18600011	6.9890008	1.84500003	200	0	0
-3.18499994	6.9890008	1.83399999	200	0	0
-3.18700004	6.98890018	1.83299994	200	0	0
-3.18400002	6.9890008	1.86300004	200	0	0
-3.18499994	6.98890018	1.86199999	200	0	0
-3.204	6.98840094	1.88800001	200	0	0
-3.19099998	6.98820019	1.89100003	200	0	0
-3.20499992	6.98840094	1.88199997	200	0	0
-3.19300008	6.98820019	1.88499999	200	0	0
-3.20300007	6.98830032	1.88199997	200	0	0
-3.20499992	6.98840094	1.87600005	200	0	0
-3.19199991	6.98820019	1.87899995	200	0	0
-3.20300007	6.98830032	1.87600005	200	0	0
-3.204	6.98840094	1.87	200	0	0
-3.204	6.98830032	1.87	200	0	0
-3.20600009	6.98840094	1.85800004	200	0	0
-3.2019999	6.98830032	1.85899997	200	0	0
-3.18799996	6.98890018	1.88499999	200	0	0
-3.18799996	6.9890008	1.88499999	200	0	0
-3.18899989	6.98890018	1.87899995	200	0	0
-3.18700004	6.9890008	1.87899995	200	0	0
-3.18700004	6.9890008	1.87399995	200	0	0
-3.18799996	6.98890018	1.87300003	200	0	0
-3.20900011	6.98840094	1.898	200	0	0
-3.19400001	6.98820019	1.90199995	200	0	0
-3.18600011	6.98890018	1.89100003	200	0	0
-3.18700004	6.9890008	1.89100003	200	0	0
-3.20600009	6.98840094	1.90999997	200	0	0
-3.20700002	6.98840094	1.90400004	200	0	0
-3.19300008	6.98820019	1.90699995	200	0	0
-3.18700004	6.98890018	1.91400003	200	0	0
-3.18700004	6.9890008	1.91400003	200	0	0
-3.18899989	6.9890008	1.90799999	200	0	0
-3.19000006	6.98890018	1.90699995	200	0	0
-3.18899989	6.98890018	1.90199995	200	0	0
-3.18600011	6.9890008	1.90199995	200	0	0
-3.20700002	6.98840094	1.91600001	200	0	0
-3.18499994	6.98890018	1.91999996	200	0	0
-3.18700004	6.9890008	1.91900003	200	0	0
-3.20700002	6.98840094	1.92700005	200	0	0
-3.18899989	6.98890018	1.93099999	200	0	0
-3.19000006	6.98820019	1.94799995	200	0	0
-3.20499992	6.98849964	1.94500005	200	0	0
-3.2019999	6.98840094	1.94500005	200	0	0
-3.19099998	6.98820019	1.94200003	200	0	0
-3.204	6.98849964	1.93900001	200	0	0
-3.204	6.98840094	1.93900001	200	0	0
-3.19300008	6.98820019	1.93599999	200	0	0
-3.20499992	6.98840094	1.93299997	200	0	0
-3.19199991	6.98820019	1.92999995	200	0	0
-3.18700004	6.9890008	1.93099999	200	0	0
-3.18899989	6.98890018	1.93599999	200	0	0
-3.18700004	6.98890018	1.94799995	200	0	0
-3.18600011	6.9890008	1.94799995	200	0	0
-3.19000006	6.98890018	1.94200003	200	0	0
-3.18700004	6.9890008	1.94200003	200	0	0
-3.18799996	6.9890008	1.93599999	200	0	0
-3.19099998	6.98890018	1.95899999	200	0	0
-3.19099998	6.9890008	1.95899999	200	0	0
-3.18899989	6.9890008	1.96500003	200	0	0
-3.20900011	6.98849964	1.98399997	200	0	0
-3.18899989	6.98890018	1.96500003	200	0	0
-3.1960001	6.98820019	1.97500002	200	0	0
-3.20799994	6.98849964	1.97300005	200	0	0
-3.1960001	6.98820019	1.97000003	200	0	0
-3.20799994	6.98849964	1.96700001	200	0	0
-3.19499993	6.98820019	1.96399999	200	0	0
-3.19400001	6.98820019	1.95899999	200	0	0
-3.21000004	6.98849964	1.96099997	200	0	0
-3.20799994	6.98840094	1.96099997	200	0	0
-3.20600009	6.98849964	1.95599997	200	0	0
-3.20600009	6.98840094	1.95599997	200	0	0
-3.1960001	6.98820019	1.98699999	200	0	0
-3.18799996	6.9890008	1.97599995	200	0	0
-3.19000006	6.98890018	1.97599995	200	0	0
-3.18899989	6.9890008	1.97000003	200	0	0
-3.20499992	6.98849964	1.99600005	200	0	0
-3.1960001	6.98820019	1.99199998	200	0	0
-3.204	6.98849964	1.99100006	200	0	0
-3.19400001	6.98820019	1.99800003	200	0	0
-3.19099998	6.9890008	1.98699999	200	0	0
-3.19499993	6.98890018	1.98599994	200	0	0
-3.19199991	6.98890018	1.99300003	200	0	0
-3.19700003	6.98820019	2.00399995	200	0	0
-3.204	6.98849964	2.00200009	200	0	0
-3.18799996	6.9890008	2.00500011	200	0	0
-3.18899989	6.98890018	2.00399995	200	0	0
-3.19000006	6.9890008	1.99899995	200	0	0
-3.19099998	6.98890018	1.99800003	200	0	0
-3.18799996	6.9890008	1.99300003	200	0	0
-3.20600009	6.98849964	2.01300001	200	0	0
-3.18899989	6.9890008	2.01600003	200	0	0
-3.19199991	6.98890018	2.0150001	200	0	0
-3.204	6.98849964	2.0250001	200	0	0
-3.19700003	6.98820019	2.02099991	200	0	0
-3.20799994	6.98849964	2.01900005	200	0	0
-3.19499993	6.98820019	2.0150001	200	0	0
-3.19000006	6.9890008	2.02699995	200	0	0
-3.19000006	6.98890018	2.02699995	200	0	0
-3.19099998	6.9890008	2.02099991	200	0	0
-3.19000006	6.98890018	2.02099991	200	0	0
-3.19700003	6.98820019	2.04299998	200	0	0
-3.20900011	6.98859978	2.02999997	200	0	0
-3.20700002	6.98849964	2.02999997	200	0	0
-3.19700003	6.98820019	2.03200006	200	0	0
-3.19799995	6.98820019	2.02600002	200	0	0
-3.19199991	6.98890018	2.03200006	200	0	0
-3.20900011	6.98859978	2.04099989	200	0	0
-3.21199989	6.98849964	2.04099989	200	0	0
-3.19199991	6.9890008	2.03200006	200	0	0
-3.19099998	6.9890008	2.04399991	200	0	0
-3.19000006	6.98890018	2.04399991	200	0	0
-3.19000006	6.9890008	2.05500007	200	0	0
-3.19099998	6.98890018	2.05500007	200	0	0
-3.18899989	6.9890008	2.04999995	200	0	0
-3.19099998	6.98890018	2.04900002	200	0	0
-3.20900011	6.98859978	2.05299997	200	0	0
-3.19300008	6.98890018	2.05999994	200	0	0
-3.19300008	6.9890008	2.05999994	200	0	0
-3.19899988	6.98820019	2.0769999	200	0	0
-3.19300008	6.98890018	2.07200003	200	0	0
-3.20700002	6.98859978	2.08100009	200	0	0
-3.19700003	6.98820019	2.07200003	200	0	0
-3.20799994	6.98859978	2.07500005	200	0	0
-3.20799994	6.98859978	2.06999993	200	0	0
-3.1960001	6.98820019	2.05999994	200	0	0
-3.1960001	6.98820019	2.05500007	200	0	0
-3.20600009	6.98859978	2.05800009	200	0	0
-3.19700003	6.98820019	2.04900002	200	0	0
-3.19899988	6.98820019	2.08299994	200	0	0
-3.19499993	6.9890008	2.0710001	200	0	0
-3.19899988	6.98820019	2.08800006	200	0	0
-3.19199991	6.98890018	2.08299994	200	0	0
-3.19199991	6.9890008	2.0769999	200	0	0
-3.20700002	6.98859978	2.08699989	200	0	0
-3.19400001	6.98890018	2.0769999	200	0	0
-3.19400001	6.9890008	2.08299994	200	0	0
-3.18899989	6.9890008	2.08899999	200	0	0
-3.19300008	6.98890018	2.08800006	200	0	0
-3.19899988	6.98820019	2.0999999	200	0	0
-3.20499992	6.98859978	2.09800005	200	0	0
-3.19300008	6.98890018	2.0999999	200	0	0
-3.20799994	6.98869991	2.10899997	200	0	0
-3.19799995	6.98820019	2.10500002	200	0	0
-3.21000004	6.98859978	2.10899997	200	0	0
-3.20900011	6.98859978	2.10299993	200	0	0
-3.19199991	6.98890018	2.11100006	200	0	0
-3.19199991	6.9890008	2.11100006	200	0	0
-3.19300008	6.98890018	2.10500002	200	0	0
-3.19400001	6.98890018	2.11599994	200	0	0
-3.19799995	6.98820019	2.1170001	200	0	0
-3.21000004	6.98869991	2.11500001	200	0	0
-3.19899988	6.98820019	2.11100006	200	0	0
-3.19499993	6.9890008	2.11599994	200	0	0
-3.21199989	6.98869991	2.12599993	200	0	0
-3.20099998	6.98820019	2.13899994	200	0	0
-3.19799995	6.98820019	2.1329999	200	0	0
-3.20099998	6.98820019	2.12700009	200	0	0
-3.19400001	6.9890008	2.12800002	200	0	0
-3.19400001	6.98890018	2.12800002	200	0	0
-3.19300008	6.98890018	2.1329999	200	0	0
-3.20700002	6.98869991	2.13700008	200	0	0
-3.20700002	6.98869991	2.13199997	200	0	0
-3.19400001	6.98890018	2.13899994	200	0	0
-3.19400001	6.9890008	2.13899994	200	0	0
-3.19400001	6.9890008	2.1329999	200	0	0
-3.21099997	6.98869991	2.14299989	200	0	0
-3.19400001	6.98890018	2.14499998	200	0	0
-3.19199991	6.9890008	2.14499998	200	0	0
-3.20900011	6.98869991	2.15400004	200	0	0
-3.19499993	6.9890008	2.1559999	200	0	0
-3.1960001	6.98890018	2.1559999	200	0	0
-3.20900011	6.98869991	2.16000009	200	0	0
-3.20000005	6.98820019	2.1730001	200	0	0
-3.20000005	6.98820019	2.16700006	200	0	0
-3.20099998	6.98820019	2.16100001	200	0	0
-3.19899988	6.98820019	2.1559999	200	0	0
-3.19799995	6.98820019	2.14499998	200	0	0
-3.20700002	6.98869991	2.16599989	200	0	0
-3.1960001	6.9890008	2.16700006	200	0	0
-3.19499993	6.98890018	2.16700006	200	0	0
-3.1960001	6.9890008	2.16100001	200	0	0
-3.1960001	6.98890018	2.16100001	200	0	0
-3.21000004	6.98869991	2.171	200	0	0
-3.20099998	6.98820019	2.18400002	200	0	0
-3.1960001	6.9890008	2.17199993	200	0	0
-3.20900011	6.98869991	2.18199992	200	0	0
-3.19700003	6.98890018	2.18300009	200	0	0
-3.19700003	6.9890008	2.18300009	200	0	0
-3.2019999	6.98820019	2.19499993	200	0	0
-3.2019999	6.98820019	2.18899989	200	0	0
-3.19499993	6.9890008	2.18899989	200	0	0
-3.1960001	6.98890018	2.18899989	200	0	0
-3.20799994	6.98869991	2.18799996	200	0	0
-3.19799995	6.98890018	2.19499993	200	0	0
-3.19899988	6.9890008	2.19400001	200	0	0
-3.19799995	6.9890008	2.20000005	200	0	0
-3.2019999	6.98820019	2.20000005	200	0	0
-3.1960001	6.9890008	2.21099997	200	0	0
-3.19799995	6.98890018	2.21099997	200	0	0
-3.20300007	6.98820019	2.21199989	200	0	0
-3.19700003	6.9890008	2.21700001	200	0	0
-3.20900011	6.98880005	2.22199988	200	0	0
-3.204	6.98820019	2.22799993	200	0	0
-3.20300007	6.98820019	2.22300005	200	0	0
-3.20300007	6.98820019	2.21700001	200	0	0
-3.19799995	6.9890008	2.22199988	200	0	0
-3.20799994	6.98880005	2.227	200	0	0
-3.19700003	6.9890008	2.22799993	200	0	0
-3.21000004	6.98880005	2.23799992	200	0	0
-3.19700003	6.9890008	2.23900008	200	0	0
-3.204	6.98820019	2.23900008	200	0	0
-3.1960001	6.9890008	2.24499989	200	0	0
-3.21099997	6.98880005	2.24900007	200	0	0
-3.19799995	6.98890018	2.24499989	200	0	0
-3.21199989	6.98880005	2.24399996	200	0	0
-3.2019999	6.9890008	2.25	200	0	0
-3.20300007	6.98820019	2.24499989	200	0	0
-3.21199989	6.98880005	2.25500011	200	0	0
-3.20300007	6.98820019	2.26699996	200	0	0
-3.2019999	6.98820019	2.25600004	200	0	0
-3.20300007	6.98820019	2.25099993	200	0	0
-3.19799995	6.9890008	2.25600004	200	0	0
-3.19700003	6.98890018	2.26699996	200	0	0
-3.21199989	6.98880005	2.26600003	200	0	0
-3.204	6.98820019	2.27900004	200	0	0
-3.20300007	6.98820019	2.273	200	0	0
-3.19799995	6.9890008	2.26699996	200	0	0
-3.1960001	6.98890018	2.27800012	200	0	0
-3.20099998	6.9890008	2.273	200	0	0
-3.19700003	6.98890018	2.273	200	0	0
-3.2019999	6.98820019	2.28399992	200	0	0
-3.19899988	6.98890018	2.28399992	200	0	0
-3.19899988	6.9890008	2.28399992	200	0	0
-3.1960001	6.98890018	2.29500008	200	0	0
-3.20099998	6.9890008	2.29500008	200	0	0
-3.20499992	6.98820019	2.29500008	200	0	0
-3.19300008	6.98890018	2.30599999	200	0	0
-3.19799995	6.9890008	2.30599999	200	0	0
-3.19700003	6.98890018	2.30100012	200	0	0
-3.19799995	6.9890008	2.30100012	200	0	0
-3.20300007	6.98820019	2.30599999	200	0	0
-3.204	6.98820019	2.30100012	200	0	0
-3.19199991	6.98890018	2.31200004	200	0	0
-3.20000005	6.9890008	2.31200004	200	0	0
-3.20499992	6.98820019	2.32299995	200	0	0
-3.20700002	6.98820019	2.31200004	200	0	0
-3.20000005	6.9890008	2.32299995	200	0	0
-3.19799995	6.98890018	2.32299995	200	0	0
-3.19300008	6.9890008	2.33400011	200	0	0
-3.19899988	6.98890018	2.33400011	200	0	0
-3.20000005	6.9890008	2.32800007	200	0	0
-3.19799995	6.98890018	2.32800007	200	0	0
-3.20499992	6.98820019	2.33400011	200	0	0
-3.20499992	6.98820019	2.329	200	0	0
-3.19899988	6.98890018	2.33899999	200	0	0
-3.20700002	6.98820019	2.33999991	200	0	0
-3.19499993	6.9890008	2.35100007	200	0	0
-3.19799995	6.98890018	2.35100007	200	0	0
-3.20600009	6.98820019	2.36199999	200	0	0
-3.20600009	6.98820019	2.35700011	200	0	0
-3.20700002	6.98820019	2.35100007	200	0	0
-3.19799995	6.9890008	2.35599995	200	0	0
-3.20099998	6.9890008	2.36199999	200	0	0
-3.20099998	6.98890018	2.36199999	200	0	0
-3.19799995	6.98890018	2.35599995	200	0	0
-3.20700002	6.98820019	2.36800003	200	0	0
-3.204	6.9890008	2.3670001	200	0	0
-3.20300007	6.98890018	2.3670001	200	0	0
-3.20499992	6.98820019	2.37899995	200	0	0
-3.20099998	6.9890008	2.37800002	200	0	0
-3.20000005	6.98890018	2.37800002	200	0	0
-3.19899988	6.98890018	2.3900001	200	0	0
-3.204	6.9890008	2.38400006	200	0	0
-3.20099998	6.98890018	2.38400006	200	0	0
-3.20600009	6.98820019	2.3900001	200	0	0
-3.20799994	6.98820019	2.38400006	200	0	0
-3.2019999	6.9890008	2.39499998	200	0	0
-3.204	6.98890018	2.39499998	200	0	0
-3.20600009	6.98820019	2.39599991	200	0	0
-3.2019999	6.9890008	2.4059999	200	0	0
-3.2019999	6.98890018	2.4059999	200	0	0
-3.21099997	6.98820019	2.41799998	200	0	0
-3.20700002	6.98820019	2.41199994	200	0	0
-3.20700002	6.98820019	2.40700006	200	0	0
-3.2019999	6.98890018	2.41700006	200	0	0
-3.204	6.9890008	2.41700006	200	0	0
-3.20099998	6.98890018	2.41199994	200	0	0
-3.2019999	6.9890008	2.41199994	200	0	0
-3.20099998	6.98890018	2.4230001	200	0	0
-3.20099998	6.9890008	2.4230001	200	0	0
-3.20900011	6.98820019	2.4230001	200	0	0
-3.2019999	6.9890008	2.43400002	200	0	0
-3.2019999	6.98890018	2.43400002	200	0	0
-3.20700002	6.98820019	2.43499994	200	0	0
-3.20099998	6.98890018	2.44499993	200	0	0
-3.19899988	6.9890008	2.44499993	200	0	0
-3.19700003	6.9890008	2.44000006	200	0	0
-3.20099998	6.98890018	2.43899989	200	0	0
-3.21000004	6.98820019	2.45099998	200	0	0
-3.20900011	6.98820019	2.4460001	200	0	0
-3.20799994	6.98820019	2.44000006	200	0	0
-3.204	6.98890018	2.45099998	200	0	0
-3.2019999	6.9890008	2.45099998	200	0	0
-3.20900011	6.98820019	2.46199989	200	0	0
-3.20499992	6.98890018	2.46199989	200	0	0
-3.20499992	6.9890008	2.46199989	200	0	0
-3.21099997	6.98820019	2.47300005	200	0	0
-3.20900011	6.98820019	2.46799994	200	0	0
-3.19700003	6.98890018	2.47300005	200	0	0
-3.19899988	6.98890018	2.46700001	200	0	0
-3.20600009	6.9890008	2.46700001	200	0	0
-3.204	6.98890018	2.50099993	200	0	0
-3.20600009	6.9890008	2.50099993	200	0	0
-3.21099997	6.98820019	2.51799989	200	0	0
-3.2190001	6.98830032	2.51699996	200	0	0
-3.21099997	6.98820019	2.50699997	200	0	0
-3.2190001	6.98830032	2.50600004	200	0	0
-3.22199988	6.98830032	2.50099993	200	0	0
-3.21099997	6.98820019	2.50099993	200	0	0
-3.21199989	6.98820019	2.49600005	200	0	0
-3.20700002	6.9890008	2.50600004	200	0	0
-3.20600009	6.98890018	2.50600004	200	0	0
-3.20600009	6.9890008	2.51699996	200	0	0
-3.20300007	6.98890018	2.51699996	200	0	0
-3.21700001	6.98880005	2.52900004	200	0	0
-3.20499992	6.98890018	2.52800012	200	0	0
-3.20700002	6.9890008	2.52800012	200	0	0
-3.20700002	6.98890018	2.523	200	0	0
-3.20600009	6.9890008	2.523	200	0	0
-3.21600008	6.98830032	2.52900004	200	0	0
-3.21300006	6.98820019	2.52900004	200	0	0
-3.21099997	6.98820019	2.52399993	200	0	0
-3.21600008	6.98880005	2.53399992	200	0	0
-3.204	6.98890018	2.53399992	200	0	0
-3.21399999	6.98820019	2.546	200	0	0
-3.22000003	6.98830032	2.54500008	200	0	0
-3.22000003	6.98830032	2.53399992	200	0	0
-3.21099997	6.98820019	2.53500009	200	0	0
-3.21799994	6.98880005	2.54500008	200	0	0
-3.20499992	6.9890008	2.54500008	200	0	0
-3.20499992	6.98890018	2.54500008	200	0	0
-3.22099996	6.98830032	2.55699992	200	0	0
-3.21199989	6.98820019	2.55699992	200	0	0
-3.21499991	6.98820019	2.55200005	200	0	0
-3.21700001	6.98830032	2.55100012	200	0	0
-3.2190001	6.98880005	2.55699992	200	0	0
-3.20700002	6.9890008	2.55599999	200	0	0
-3.20499992	6.98890018	2.55599999	200	0	0
-3.22000003	6.98880005	2.55100012	200	0	0
-3.20700002	6.9890008	2.55100012	200	0	0
-3.20600009	6.98890018	2.55100012	200	0	0
-3.22099996	6.98830032	2.56200004	200	0	0
-3.21399999	6.98820019	2.56299996	200	0	0
-3.22000003	6.98880005	2.56200004	200	0	0
-3.20799994	6.9890008	2.56200004	200	0	0
-3.20600009	6.98890018	2.56200004	200	0	0
-3.21700001	6.98830032	2.579	200	0	0
-3.22199988	6.98830032	2.57299995	200	0	0
-3.22199988	6.98880005	2.58999991	200	0	0
-3.21099997	6.9890008	2.58999991	200	0	0
-3.22300005	6.98880005	2.58500004	200	0	0
-3.20499992	6.9890008	2.58400011	200	0	0
-3.21300006	6.98880005	2.579	200	0	0
-3.20600009	6.9890008	2.579	200	0	0
-3.21799994	6.98880005	2.57299995	200	0	0
-3.20799994	6.9890008	2.57299995	200	0	0
-3.20700002	6.98890018	2.57299995	200	0	0
-3.21600008	6.98820019	2.61299992	200	0	0
-3.21700001	6.98830032	2.61199999	200	0	0
-3.21499991	6.98830032	2.60700011	200	0	0
-3.21199989	6.98820019	2.60700011	200	0	0
-3.21099997	6.98820019	2.602	200	0	0
-3.21600008	6.98830032	2.60100007	200	0	0
-3.21600008	6.98820019	2.59100008	200	0	0
-3.21600008	6.98830032	2.58999991	200	0	0
-3.21499991	6.98820019	2.58500004	200	0	0
-3.21600008	6.98830032	2.58400011	200	0	0
-3.21099997	6.98820019	2.579	200	0	0
-3.21499991	6.98820019	2.57399988	200	0	0
-3.22199988	6.98869991	2.60700011	200	0	0
-3.22199988	6.98880005	2.60100007	200	0	0
-3.20700002	6.98890018	2.60100007	200	0	0
-3.21000004	6.9890008	2.60100007	200	0	0
-3.22199988	6.98880005	2.61299992	200	0	0
-3.20900011	6.98890018	2.61199999	200	0	0
-3.20900011	6.9890008	2.61199999	200	0	0
-3.22099996	6.98880005	2.60700011	200	0	0
-3.20799994	6.9890008	2.60700011	200	0	0
-3.20700002	6.98890018	2.60599995	200	0	0
-3.22199988	6.98869991	2.61299992	200	0	0
-3.20900011	6.9890008	2.61800003	200	0	0
-3.20900011	6.98890018	2.61800003	200	0	0
-3.21600008	6.98830032	2.62899995	200	0	0
-3.21300006	6.98820019	2.61899996	200	0	0
-3.2190001	6.98830032	2.61800003	200	0	0
-3.20799994	6.9890008	2.62899995	200	0	0
-3.20700002	6.98890018	2.62899995	200	0	0
-3.22000003	6.98869991	2.62899995	200	0	0
-3.21300006	6.98820019	2.64100003	200	0	0
-3.21700001	6.98830032	2.6400001	200	0	0
-3.21600008	6.98830032	2.63499999	200	0	0
-3.21300006	6.98820019	2.63499999	200	0	0
-3.21399999	6.98820019	2.63000011	200	0	0
-3.22399998	6.98869991	2.63499999	200	0	0
-3.20700002	6.9890008	2.6400001	200	0	0
-3.22300005	6.98869991	2.64100003	200	0	0
-3.20799994	6.98890018	2.6400001	200	0	0
-3.21199989	6.9890008	2.63499999	200	0	0
-3.20799994	6.98890018	2.63400006	200	0	0
-3.22099996	6.98869991	2.64599991	200	0	0
-3.21700001	6.98820019	2.64700007	200	0	0
-3.21700001	6.98830032	2.64599991	200	0	0
-3.21099997	6.9890008	2.64599991	200	0	0
-3.20900011	6.98890018	2.64599991	200	0	0
-3.21600008	6.98820019	2.65799999	200	0	0
-3.22000003	6.98830032	2.65700006	200	0	0
-3.20799994	6.9890008	2.65700006	200	0	0
-3.22600007	6.98869991	2.65799999	200	0	0
-3.20700002	6.98890018	2.65700006	200	0	0
-3.2249999	6.98869991	2.66899991	200	0	0
-3.21499991	6.98820019	2.67499995	200	0	0
-3.21499991	6.98830032	2.67400002	200	0	0
-3.2249999	6.98869991	2.66300011	200	0	0
-3.21799994	6.98820019	2.66899991	200	0	0
-3.21700001	6.98830032	2.66799998	200	0	0
-3.21399999	6.98820019	2.66300011	200	0	0
-3.21799994	6.98830032	2.66300011	200	0	0
-3.2249999	6.98859978	2.68600011	200	0	0
-3.21199989	6.9890008	2.68499994	200	0	0
-3.227	6.98869991	2.68600011	200	0	0
-3.20900011	6.98890018	2.68499994	200	0	0
-3.2249999	6.98859978	2.67499995	200	0	0
-3.21000004	6.9890008	2.67400002	200	0	0
-3.20799994	6.98890018	2.6730001	200	0	0
-3.22199988	6.98869991	2.67400002	200	0	0
-3.20900011	6.9890008	2.66799998	200	0	0
-3.20799994	6.98890018	2.66799998	200	0	0
-3.20900011	6.9890008	2.66199994	200	0	0
-3.20799994	6.98890018	2.66199994	200	0	0
-3.2249999	6.98859978	2.70300007	200	0	0
-3.2249999	6.98859978	2.69700003	200	0	0
-3.22300005	6.98869991	2.69099998	200	0	0
-3.21600008	6.98820019	2.70300007	200	0	0
-3.21399999	6.98830032	2.7019999	200	0	0
-3.2249999	6.98859978	2.69099998	200	0	0
-3.22000003	6.98830032	2.69700003	200	0	0
-3.21700001	6.98820019	2.69700003	200	0	0
-3.21799994	6.98830032	2.69099998	200	0	0
-3.21399999	6.98820019	2.69099998	200	0	0
-3.21600008	6.98820019	2.68600011	200	0	0
-3.21700001	6.98830032	2.68499994	200	0	0
-3.21000004	6.98890018	2.69000006	200	0	0
-3.20700002	6.9890008	2.70099998	200	0	0
-3.20900011	6.98890018	2.7019999	200	0	0
-3.21199989	6.9890008	2.6960001	200	0	0
-3.21099997	6.98890018	2.6960001	200	0	0
-3.21000004	6.9890008	2.69000006	200	0	0
-3.20900011	6.98890018	2.71300006	200	0	0
-3.21199989	6.9890008	2.71300006	200	0	0
-3.2190001	6.98820019	2.7249999	200	0	0
-3.21799994	6.98830032	2.7249999	200	0	0
-3.22399998	6.98859978	2.7190001	200	0	0
-3.21600008	6.98820019	2.72000003	200	0	0
-3.2249999	6.98859978	2.71399999	200	0	0
-3.2190001	6.98830032	2.7190001	200	0	0
-3.21799994	6.98820019	2.71399999	200	0	0
-3.21600008	6.98830032	2.71300006	200	0	0
-3.20900011	6.98890018	2.72399998	200	0	0
-3.21199989	6.9890008	2.72399998	200	0	0
-3.21199989	6.98890018	2.7190001	200	0	0
-3.21099997	6.9890008	2.71799994	200	0	0
-3.23099995	6.98859978	2.72600007	200	0	0
-3.22799993	6.98859978	2.73099995	200	0	0
-3.21700001	6.98820019	2.73099995	200	0	0
-3.2190001	6.98830032	2.73000002	200	0	0
-3.21099997	6.98890018	2.73000002	200	0	0
-3.21199989	6.9890008	2.73000002	200	0	0
-3.21099997	6.98890018	2.74099994	200	0	0
-3.2249999	6.98859978	2.7420001	200	0	0
-3.2190001	6.98820019	2.7420001	200	0	0
-3.21799994	6.98830032	2.74099994	200	0	0
-3.21199989	6.9890008	2.74099994	200	0	0
-3.22900009	6.98859978	2.74799991	200	0	0
-3.23300004	6.98849964	2.74799991	200	0	0
-3.22000003	6.98830032	2.75300002	200	0	0
-3.21799994	6.98820019	2.75300002	200	0	0
-3.22000003	6.98820019	2.74799991	200	0	0
-3.2190001	6.98830032	2.74699998	200	0	0
-3.23000002	6.98849964	2.75399995	200	0	0
-3.21099997	6.98890018	2.75200009	200	0	0
-3.21199989	6.9890008	2.75200009	200	0	0
-3.21199989	6.98890018	2.74699998	200	0	0
-3.20799994	6.9890008	2.74600005	200	0	0
-3.23200011	6.98859978	2.75399995	200	0	0
-3.2190001	6.98830032	2.7579999	200	0	0
-3.21199989	6.9890008	2.7579999	200	0	0
-3.227	6.98849964	2.75900006	200	0	0
-3.21300006	6.98890018	2.7579999	200	0	0
-3.23000002	6.98859978	2.75900006	200	0	0
-3.2190001	6.98830032	2.76999998	200	0	0
-3.21799994	6.98820019	2.76999998	200	0	0
-3.21799994	6.98820019	2.75900006	200	0	0
-3.22799993	6.98849964	2.76999998	200	0	0
-3.22099996	6.98830032	2.7809999	200	0	0
-3.22300005	6.98820019	2.77600002	200	0	0
-3.21700001	6.9890008	2.7750001	200	0	0
-3.23000002	6.98849964	2.78200006	200	0	0
-3.21399999	6.98890018	2.7750001	200	0	0
-3.2190001	6.98830032	2.7750001	200	0	0
