-2.91799998	6.99969959	0.82099998	0	200	0
-2.83599997	6.99989986	0.768000007	0	200	0
-2.85100007	6.99989986	0.765999973	0	200	0
-2.86199999	6.99989986	0.765999973	0	200	0
-2.86899996	6.99989986	0.774999976	0	200	0
-2.90100002	7.00010014	0.870000005	0	200	0
-2.88100004	6.99989986	0.774999976	0	200	0
-2.93899989	6.99989986	0.768000007	0	200	0
-2.94400001	6.99989986	0.772000015	0	200	0
-2.90700006	7.00010014	0.860000014	0	200	0
-2.90199995	7.00010014	0.856999993	0	200	0
-2.88800001	6.99989986	0.777999997	0	200	0
-2.898	7.00010014	0.846000016	0	200	0
-2.9000001	6.99989986	0.777999997	0	200	0
-2.9000001	7.00010014	0.838	0	200	0
-2.90300012	7.00010014	0.802999973	0	200	0
-2.898	7	0.791999996	0	200	0
-2.898	7.00010014	0.832000017	0	200	0
-2.90499997	7.00010014	0.808000028	0	200	0
-2.89899993	7	0.797999978	0	200	0
-2.92000008	7.00010014	0.813000023	0	200	0
-2.89899993	7	0.805000007	0	200	0
-2.90199995	7	0.810000002	0	200	0
-2.9000001	6.99989986	0.80400002	0	200	0
-2.91100001	7	0.818000019	0	200	0
-2.9230001	7	0.818000019	0	200	0
-2.90100002	6.99989986	0.81099999	0	200	0
-2.90400004	6.99979973	0.801999986	0	200	0
-2.90300012	6.99989986	0.823000014	0	200	0
-2.90400004	6.99969959	0.801999986	0	200	0
-2.91499996	6.99989986	0.822000027	0	200	0
-2.91499996	6.99979973	0.815999985	0	200	0
-2.921	6.99979973	0.819000006	0	200	0
-2.91300011	6.99969959	0.816999972	0	200	0
-2.91799998	6.99969959	0.82099998	0	200	0
-2.75300002	6.99989986	0.786000013	0	200	0
-2.77699995	6.99989986	0.750999987	0	200	0
-2.796	6.99989986	0.765999973	0	200	0
-2.80599999	6.99989986	0.745999992	0	200	0
-2.82399988	6.99989986	0.754999995	0	200	0
-2.83299994	6.99989986	0.763999999	0	200	0
-2.90300012	7.00010014	0.961000025	0	200	0
-2.90199995	7.00010014	0.954999983	0	200	0
-2.9000001	7.00010014	0.943000019	0	200	0
-2.90100002	7.00010014	0.93599999	0	200	0
-2.9000001	7.00010014	0.930000007	0	200	0
-2.90199995	7.00010014	0.922999978	0	200	0
-2.852	7.00030088	1.04400003	0	200	0
-2.89100003	7.00020027	1.05599999	0	200	0
-2.90400004	7.00010014	1.05599999	0	200	0
-2.90499997	7.00010014	1.04900002	0	200	0
-2.85500002	7.00030088	1.02999997	0	200	0
-2.86199999	7.00039959	1.02699995	0	200	0
-2.85500002	7.00030088	1.02400005	0	200	0
-2.88800001	7.00020027	1.03900003	0	200	0
-2.8599999	7.00039959	1.02100003	0	200	0
-2.90300012	7.00010014	1.03699994	0	200	0
-2.89700007	7.00010014	1.03400004	0	200	0
-2.85899997	7.00030088	1.01600003	0	200	0
-2.89400005	7.00020027	1.02900004	0	200	0
-2.85899997	7.00030088	1.00899994	0	200	0
-2.88899994	7.00020027	1.02499998	0	200	0
-2.89899993	7.00010014	1.02600002	0	200	0
-2.86299992	7.00039959	0.995000005	0	200	0
-2.90100002	7.00010014	1.01900005	0	200	0
-2.88199997	7.00020027	1.00999999	0	200	0
-2.89899993	7.00010014	1.00800002	0	200	0
-2.90300012	7.00010014	0.999000013	0	200	0
-2.89899993	7.00010014	0.995000005	0	200	0
-2.90100002	7.00010014	0.987999976	0	200	0
-2.89700007	7.00010014	0.976999998	0	200	0
-2.89700007	7.00010014	0.970000029	0	200	0
-2.88800001	7.00020027	1.13100004	0	200	0
-2.86199999	7.00030088	1.13800001	0	200	0
-2.90199995	7.00010014	1.11899996	0	200	0
-2.86299992	7.00030088	1.13100004	0	200	0
-2.90100002	7.00010014	1.11300004	0	200	0
-2.89199996	7.00020027	1.11699998	0	200	0
-2.90100002	7.00010014	1.10000002	0	200	0
-2.86100006	7.00030088	1.12	0	200	0
-2.90400004	7.00010014	1.09300005	0	200	0
-2.8900001	7.00020027	1.10599995	0	200	0
-2.8599999	7.00030088	1.11399996	0	200	0
-2.90300012	7.00010014	1.08700001	0	200	0
-2.8900001	7.00020027	1.10000002	0	200	0
-2.90199995	7.00010014	1.08099997	0	200	0
-2.86199999	7.00030088	1.10699999	0	200	0
-2.88899994	7.00020027	1.09399998	0	200	0
-2.90300012	7.00010014	1.06900001	0	200	0
-2.88899994	7.00020027	1.08800006	0	200	0
-2.86199999	7.00030088	1.10099995	0	200	0
-2.85899997	7.00030088	1.09000003	0	200	0
-2.89199996	7.00020027	1.06200004	0	200	0
-2.88700008	7.00020027	1.07000005	0	200	0
-2.85899997	7.00030088	1.08399999	0	200	0
-2.85800004	7.00030088	1.07799995	0	200	0
-2.8599999	7.00030088	1.07099998	0	200	0
-2.85599995	7.00030088	1.06099999	0	200	0
-2.85800004	7.00030088	1.05299997	0	200	0
-2.85599995	7.00030088	1.04799998	0	200	0
-2.89599991	7.00020027	1.15199995	0	200	0
-2.85899997	7.00030088	1.14499998	0	200	0
-2.90400004	7.00010014	1.148	0	200	0
-2.86400008	7.00039959	1.14300001	0	200	0
-2.89499998	7.00020027	1.14699996	0	200	0
-2.90499997	7.00010014	1.14199996	0	200	0
-2.89400005	7.00020027	1.13499999	0	200	0
-2.90100002	7.00010014	1.13199997	0	200	0
-2.8599999	7.00030088	1.22300005	0	200	0
-2.90300012	7.00010014	1.22099996	0	200	0
-2.89499998	7.00020027	1.21899998	0	200	0
-2.8599999	7.00030088	1.21099997	0	200	0
-2.89499998	7.00020027	1.21300006	0	200	0
-2.85700011	7.00030088	1.20599997	0	200	0
-2.9059999	7.00010014	1.20799994	0	200	0
-2.89199996	7.00020027	1.20799994	0	200	0
-2.90400004	7.00010014	1.20299995	0	200	0
-2.86100006	7.00030088	1.19799995	0	200	0
-2.86500001	7.00039959	1.19700003	0	200	0
-2.86100006	7.00030088	1.19299996	0	200	0
-2.86400008	7.00039959	1.19099998	0	200	0
-2.89199996	7.00020027	1.19599998	0	200	0
-2.85500002	7.00030088	1.18299997	0	200	0
-2.89299989	7.00020027	1.19000006	0	200	0
-2.90100002	7.00010014	1.18599999	0	200	0
-2.8599999	7.00039959	1.17499995	0	200	0
-2.85700011	7.00030088	1.176	0	200	0
-2.90400004	7.00010014	1.17900002	0	200	0
-2.8599999	7.00030088	1.16900003	0	200	0
-2.90199995	7.00010014	1.17299998	0	200	0
-2.89899993	7.00020027	1.17499995	0	200	0
-2.85899997	7.00030088	1.16299999	0	200	0
-2.85800004	7.00030088	1.15199995	0	200	0
-2.90400004	7.00010014	1.16100001	0	200	0
-2.89400005	7.00020027	1.16499996	0	200	0
-2.9000001	7.00010014	1.15600002	0	200	0
-2.89700007	7.00020027	1.15799999	0	200	0
-2.85800004	7.00030088	1.23500001	0	200	0
-2.86500001	7.00039959	1.23199999	0	200	0
-2.86199999	7.00030088	1.22800004	0	200	0
-2.90199995	7.00010014	1.24600005	0	200	0
-2.90100002	7.00020027	1.24600005	0	200	0
-2.86500001	7.00030088	1.23800004	0	200	0
-2.898	7.00020027	1.24199998	0	200	0
-2.9059999	7.00010014	1.23800004	0	200	0
-2.89899993	7.00020027	1.23500001	0	200	0
-2.90499997	7.00010014	1.23300004	0	200	0
-2.90300012	7.00010014	1.31099999	0	200	0
-2.86299992	7.00030088	1.32099998	0	200	0
-2.9000001	7.00020027	1.30599999	0	200	0
-2.86299992	7.00030088	1.31500006	0	200	0
-2.90400004	7.00010014	1.29799998	0	200	0
-2.90100002	7.00020027	1.29900002	0	200	0
-2.86299992	7.00030088	1.30900002	0	200	0
-2.86500001	7.00039959	1.30799997	0	200	0
-2.90400004	7.00010014	1.29200006	0	200	0
-2.89599991	7.00020027	1.296	0	200	0
-2.8599999	7.00030088	1.29900002	0	200	0
-2.90499997	7.00010014	1.27999997	0	200	0
-2.8599999	7.00030088	1.29299998	0	200	0
-2.90199995	7.00010014	1.27499998	0	200	0
-2.89499998	7.00020027	1.27900004	0	200	0
-2.86299992	7.00030088	1.28600001	0	200	0
-2.9000001	7.00020027	1.26999998	0	200	0
-2.90199995	7.00010014	1.26300001	0	200	0
-2.85899997	7.00030088	1.28199995	0	200	0
-2.89899993	7.00020027	1.26499999	0	200	0
-2.90100002	7.00010014	1.25199997	0	200	0
-2.86299992	7.00030088	1.26900005	0	200	0
-2.86400008	7.00030088	1.26199996	0	200	0
-2.86500001	7.00039959	1.25600004	0	200	0
-2.86400008	7.00030088	1.25600004	0	200	0
-2.86299992	7.00030088	1.25100005	0	200	0
-2.898	7.00020027	1.324	0	200	0
-2.86199999	7.00030088	1.32700002	0	200	0
-2.90100002	7.00020027	1.34099996	0	200	0
-2.90700006	7.00010014	1.33800006	0	200	0
-2.90400004	7.00020027	1.33299994	0	200	0
-2.90400004	7.00020027	1.32799995	0	200	0
-2.9059999	7.00010014	1.32700002	0	200	0
-2.9059999	7.00010014	1.32099998	0	200	0
-2.86800003	7.00039959	1.39900005	0	200	0
-2.90499997	7.00020027	1.40799999	0	200	0
-2.86100006	7.00030088	1.39600003	0	200	0
-2.90700006	7.00010014	1.40699995	0	200	0
-2.86599994	7.00039959	1.39400005	0	200	0
-2.86199999	7.00039959	1.38499999	0	200	0
-2.9000001	7.00020027	1.39900005	0	200	0
-2.86100006	7.00030088	1.38499999	0	200	0
-2.90499997	7.00010014	1.39699996	0	200	0
-2.89400005	7.00020027	1.39499998	0	200	0
-2.86400008	7.00039959	1.37800002	0	200	0
-2.90799999	7.00010014	1.38399994	0	200	0
-2.86899996	7.00030088	1.37100005	0	200	0
-2.9000001	7.00020027	1.38199997	0	200	0
-2.86599994	7.00030088	1.36600006	0	200	0
-2.91000009	7.00010014	1.37800002	0	200	0
-2.89400005	7.00030088	1.36699998	0	200	0
-2.90199995	7.00020027	1.36899996	0	200	0
-2.86400008	7.00030088	1.34899998	0	200	0
-2.86899996	7.00030088	1.35300004	0	200	0
-2.86299992	7.00030088	1.34399998	0	200	0
-2.90199995	7.00020027	1.36300004	0	200	0
-2.86299992	7.00030088	1.33800006	0	200	0
-2.89899993	7.00020027	1.35899997	0	200	0
-2.90499997	7.00010014	1.35599995	0	200	0
-2.90100002	7.00020027	1.352	0	200	0
-2.9059999	7.00010014	1.35000002	0	200	0
-2.8599999	7.00030088	1.41400003	0	200	0
-2.86199999	7.00039959	1.41299999	0	200	0
-2.86199999	7.00039959	1.40699995	0	200	0
-2.86400008	7.00030088	1.40699995	0	200	0
-2.86299992	7.00030088	1.40100002	0	200	0
-2.89599991	7.00020027	1.42299998	0	200	0
-2.9059999	7.00010014	1.41900003	0	200	0
-2.898	7.00020027	1.41700006	0	200	0
-2.91000009	7.00010014	1.41199994	0	200	0
-2.85899997	7.00030088	1.42499995	0	200	0
-2.86299992	7.00039959	1.42400002	0	200	0
-2.85899997	7.00030088	1.43099999	0	200	0
-2.86299992	7.00039959	1.42999995	0	200	0
-2.90700006	7.00010014	1.43599999	0	200	0
-2.89499998	7.00020027	1.42900002	0	200	0
-2.90499997	7.00010014	1.42499995	0	200	0
-2.86400008	7.00030088	1.49699998	0	200	0
-2.8670001	7.00039959	1.49600005	0	200	0
-2.91000009	7.00010014	1.48000002	0	200	0
-2.86100006	7.00030088	1.49199998	0	200	0
-2.90499997	7.00020027	1.48199999	0	200	0
-2.90400004	7.00010014	1.477	0	200	0
-2.89899993	7.00020027	1.47899997	0	200	0
-2.86500001	7.00030088	1.48500001	0	200	0
-2.9059999	7.00010014	1.47000003	0	200	0
-2.90199995	7.00020027	1.472	0	200	0
-2.90899992	7.00010014	1.46399999	0	200	0
-2.8670001	7.00030088	1.47899997	0	200	0
-2.90499997	7.00010014	1.454	0	200	0
-2.86400008	7.00030088	1.46800005	0	200	0
-2.9059999	7.00010014	1.44799995	0	200	0
-2.89899993	7.00020027	1.45599997	0	200	0
-2.86100006	7.00030088	1.46399999	0	200	0
-2.90700006	7.00010014	1.44200003	0	200	0
-2.89499998	7.00020027	1.45200002	0	200	0
-2.86199999	7.00030088	1.45799994	0	200	0
-2.89899993	7.00020027	1.44500005	0	200	0
-2.86100006	7.00030088	1.45299995	0	200	0
-2.89299989	7.00020027	1.44099998	0	200	0
-2.8599999	7.00030088	1.44200003	0	200	0
-2.86299992	7.00039959	1.44099998	0	200	0
-2.8599999	7.00030088	1.43599999	0	200	0
-2.86400008	7.00039959	1.43499994	0	200	0
-2.90199995	7.00020027	1.50600004	0	200	0
-2.90799999	7.00010014	1.50399995	0	200	0
-2.90700006	7.00010014	1.49899995	0	200	0
-2.90700006	7.00010014	1.49300003	0	200	0
-2.91300011	7.00020027	1.49100006	0	200	0
-2.86400008	7.00030088	1.51300001	0	200	0
-2.86400008	7.00030088	1.50699997	0	200	0
-2.86800003	7.00039959	1.50600004	0	200	0
-2.91199994	7.00010014	1.51900005	0	200	0
-2.89899993	7.00020027	1.51199996	0	200	0
-2.90899992	7.00010014	1.50899994	0	200	0
-2.86500001	7.00039959	1.52400005	0	200	0
-2.86199999	7.00039959	1.51900005	0	200	0
-2.86500001	7.00030088	1.51800001	0	200	0
-2.86199999	7.00030088	1.52499998	0	200	0
-2.9059999	7.00020027	1.53299999	0	200	0
-2.90700006	7.00010014	1.53199995	0	200	0
-2.90199995	7.00020027	1.528	0	200	0
-2.91100001	7.00010014	1.52499998	0	200	0
-2.9000001	7.00020027	1.523	0	200	0
-2.91100001	7.00010014	1.58099997	0	200	0
-2.8670001	7.00030088	1.59500003	0	200	0
-2.90499997	7.00020027	1.58299994	0	200	0
-2.91100001	7.00010014	1.57500005	0	200	0
-2.86800003	7.00030088	1.58899999	0	200	0
-2.90100002	7.00020027	1.57799995	0	200	0
-2.91300011	7.00010014	1.56299996	0	200	0
-2.86400008	7.00030088	1.579	0	200	0
-2.86800003	7.00039959	1.57799995	0	200	0
-2.90300012	7.00020027	1.56700003	0	200	0
-2.90899992	7.00010014	1.55900002	0	200	0
-2.86400008	7.00039959	1.574	0	200	0
-2.86500001	7.00030088	1.57299995	0	200	0
-2.90899992	7.00010014	1.55400002	0	200	0
-2.89599991	7.00020027	1.56400001	0	200	0
-2.91000009	7.00010014	1.54799998	0	200	0
-2.86500001	7.00030088	1.56799996	0	200	0
-2.90199995	7.00020027	1.55599999	0	200	0
-2.86400008	7.00030088	1.56299996	0	200	0
-2.90199995	7.00020027	1.54999995	0	200	0
-2.86899996	7.00039959	1.56099999	0	200	0
-2.90799999	7.00010014	1.53699994	0	200	0
-2.9000001	7.00020027	1.53999996	0	200	0
-2.86299992	7.00030088	1.55200005	0	200	0
-2.8670001	7.00039959	1.551	0	200	0
-2.86199999	7.00030088	1.54700005	0	200	0
-2.86500001	7.00030088	1.53999996	0	200	0
-2.86400008	7.00039959	1.53499997	0	200	0
-2.86100006	7.00030088	1.53600001	0	200	0
-2.90400004	7.00020027	1.60500002	0	200	0
-2.91000009	7.00010014	1.60300004	0	200	0
-2.9000001	7.00020027	1.59500003	0	200	0
-2.91100001	7.00010014	1.59200001	0	200	0
-2.91000009	7.00010014	1.58700001	0	200	0
-2.86199999	7.00030088	1.60699999	0	200	0
-2.86599994	7.00030088	1.60000002	0	200	0
-2.86899996	7.00039959	1.59899998	0	200	0
-2.90499997	7.00020027	1.61600006	0	200	0
-2.90899992	7.00010014	1.61500001	0	200	0
-2.91000009	7.00010014	1.60899997	0	200	0
-2.86899996	7.00030088	1.62100005	0	200	0
-2.87400007	7.00030088	1.61399996	0	200	0
-2.9059999	7.00020027	1.63199997	0	200	0
-2.90199995	7.00020027	1.62199998	0	200	0
-2.90899992	7.00010014	1.62	0	200	0
-2.90400004	7.00020027	1.676	0	200	0
-2.86400008	7.00030088	1.65999997	0	200	0
-2.86899996	7.00039959	1.65900004	0	200	0
-2.91199994	7.00010014	1.67400002	0	200	0
-2.87199998	7.00039959	1.653	0	200	0
-2.86800003	7.00030088	1.65400004	0	200	0
-2.91400003	7.00010014	1.66799998	0	200	0
-2.90499997	7.00020027	1.66499996	0	200	0
-2.86599994	7.00030088	1.64900005	0	200	0
-2.91599989	7.00010014	1.66199994	0	200	0
-2.90400004	7.00020027	1.65999997	0	200	0
-2.8670001	7.00030088	1.64400005	0	200	0
-2.91400003	7.00010014	1.65699995	0	200	0
-2.86199999	7.00030088	1.63399994	0	200	0
-2.86999989	7.00039959	1.63199997	0	200	0
-2.90300012	7.00020027	1.64900005	0	200	0
-2.86999989	7.00039959	1.62600005	0	200	0
-2.8670001	7.00030088	1.62699997	0	200	0
-2.91300011	7.00010014	1.64600003	0	200	0
-2.90700006	7.00020027	1.64300001	0	200	0
-2.91400003	7.00010014	1.64100003	0	200	0
-2.91100001	7.00020027	1.63600004	0	200	0
-2.91000009	7.00010014	1.63600004	0	200	0
-2.90700006	7.00020027	1.68599999	0	200	0
-2.86599994	7.00030088	1.68700004	0	200	0
-2.86999989	7.00039959	1.68599999	0	200	0
-2.86199999	7.00030088	1.68200004	0	200	0
-2.87100005	7.00039959	1.67999995	0	200	0
-2.8670001	7.00030088	1.676	0	200	0
-2.86800003	7.00039959	1.66999996	0	200	0
-2.8670001	7.00030088	1.66999996	0	200	0
-2.87100005	7.00039959	1.69599998	0	200	0
-2.91400003	7.00010014	1.70099998	0	200	0
-2.90199995	7.00020027	1.69799995	0	200	0
-2.91499996	7.00010014	1.69500005	0	200	0
-2.9000001	7.00020027	1.69400001	0	200	0
-2.91499996	7.00010014	1.68900001	0	200	0
-2.91700006	7.00010014	1.68400002	0	200	0
-2.86800003	7.00030088	1.70200002	0	200	0
-2.87199998	7.00039959	1.70099998	0	200	0
-2.86500001	7.00030088	1.69799995	0	200	0
-2.87100005	7.00039959	1.70700002	0	200	0
-2.90199995	7.00020027	1.71399999	0	200	0
-2.91700006	7.00010014	1.71099997	0	200	0
-2.86999989	7.00039959	1.71300006	0	200	0
-2.86999989	7.00030088	1.71300006	0	200	0
-2.86599994	7.00030088	1.70799994	0	200	0
-2.86899996	7.00030088	1.72399998	0	200	0
-2.90499997	7.00020027	1.73000002	0	200	0
-2.87400007	7.00039959	1.722	0	200	0
-2.91400003	7.00010014	1.72800004	0	200	0
-2.90799999	7.00020027	1.72399998	0	200	0
-2.91300011	7.00010014	1.72300005	0	200	0
-2.9059999	7.00020027	1.71899998	0	200	0
-2.91499996	7.00010014	1.71599996	0	200	0
-2.86599994	7.00030088	1.76699996	0	200	0
-2.9059999	7.00020027	1.773	0	200	0
-2.87100005	7.00039959	1.76499999	0	200	0
-2.91599989	7.00010014	1.76999998	0	200	0
-2.90499997	7.00020027	1.76800001	0	200	0
-2.91700006	7.00010014	1.76400006	0	200	0
-2.87199998	7.00039959	1.755	0	200	0
-2.86999989	7.00030088	1.755	0	200	0
-2.86800003	7.00039959	1.75	0	200	0
-2.86999989	7.00030088	1.75	0	200	0
-2.91599989	7.00010014	1.75399995	0	200	0
-2.89899993	7.00030088	1.75300002	0	200	0
-2.90899992	7.00020027	1.75100005	0	200	0
-2.91599989	7.00010014	1.74899995	0	200	0
-2.86899996	7.00030088	1.73899996	0	200	0
-2.86999989	7.00039959	1.73399997	0	200	0
-2.91599989	7.00010014	1.74300003	0	200	0
-2.91100001	7.00020027	1.74399996	0	200	0
-2.87100005	7.00030088	1.73300004	0	200	0
-2.91499996	7.00010014	1.73800004	0	200	0
-2.91199994	7.00020027	1.73899996	0	200	0
-2.87199998	7.00030088	1.72800004	0	200	0
-2.86999989	7.00039959	1.77600002	0	200	0
-2.89199996	7.00020027	1.78100002	0	200	0
-2.91599989	7.00010014	1.77600002	0	200	0
-2.8599999	7.00039959	1.78400004	0	200	0
-2.86100006	7.00030088	1.78400004	0	200	0
-2.85500002	7.00030088	1.77999997	0	200	0
-2.85899997	7.00039959	1.79499996	0	200	0
-2.85400009	7.00030088	1.79100001	0	200	0
-2.89100003	7.00020027	1.78699994	0	200	0
-2.85899997	7.00039959	1.78999996	0	200	0
-2.90799999	7.00020027	1.79900002	0	200	0
-2.90899992	7.00010014	1.79900002	0	200	0
-2.898	7.00020027	1.796	0	200	0
-2.95799994	7.00049973	1.77100003	0	200	0
-2.85700011	7.00030088	1.79499996	0	200	0
-2.8599999	7.00030088	1.80499995	0	200	0
-2.86100006	7.00039959	1.80499995	0	200	0
-2.90100002	7.00010014	1.81099999	0	200	0
-2.95799994	7.00049973	1.78699994	0	200	0
-2.89100003	7.00020027	1.80799997	0	200	0
-2.91599989	7.00020027	1.80700004	0	200	0
-2.96000004	7.00049973	1.78100002	0	200	0
-2.9000001	7.00010014	1.80599999	0	200	0
-2.95700002	7.00049973	1.79299998	0	200	0
-2.85700011	7.00030088	1.81099999	0	200	0
-2.86299992	7.00039959	1.80999994	0	200	0
-2.86800003	7.00030088	1.81900001	0	200	0
-2.85899997	7.00030088	1.81599998	0	200	0
-2.9230001	7.00010014	1.82700002	0	200	0
-2.90799999	7.00020027	1.82500005	0	200	0
-2.921	7.00010014	1.82200003	0	200	0
-2.89400005	7.00020027	1.82299995	0	200	0
-2.95700002	7.00049973	1.79799998	0	200	0
-2.91499996	7.00010014	1.81900001	0	200	0
-2.87199998	7.00039959	1.86500001	0	200	0
-2.87199998	7.00030088	1.86500001	0	200	0
-2.92000008	7.00010014	1.84399998	0	200	0
-2.90700006	7.00020027	1.852	0	200	0
-2.91799998	7.00020027	1.84399998	0	200	0
-2.87700009	7.00030088	1.85899997	0	200	0
-2.87899995	7.00039959	1.85800004	0	200	0
-2.9230001	7.00010014	1.83299994	0	200	0
-2.86999989	7.00030088	1.85500002	0	200	0
-2.86800003	7.00030088	1.84500003	0	200	0
-2.87299991	7.00039959	1.84399998	0	200	0
-2.9059999	7.00020027	1.83099997	0	200	0
-2.86999989	7.00030088	1.83899999	0	200	0
-2.87199998	7.00039959	1.83399999	0	200	0
-2.86999989	7.00030088	1.83399999	0	200	0
-2.87400007	7.00039959	1.82799995	0	200	0
-2.87100005	7.00030088	1.829	0	200	0
-2.91899991	7.00020027	1.87100005	0	200	0
-2.92000008	7.00010014	1.87	0	200	0
-2.9230001	7.00010014	1.85899997	0	200	0
-2.92000008	7.00020027	1.86000001	0	200	0
-2.921	7.00010014	1.85399997	0	200	0
-2.91700006	7.00020027	1.85500002	0	200	0
-2.92400002	7.00010014	1.84800005	0	200	0
-2.96099997	7.00049973	1.80799997	0	200	0
-2.87400007	7.00030088	1.87	0	200	0
-2.87199998	7.00039959	1.87	0	200	0
-2.91499996	7.00020027	1.87699997	0	200	0
-2.92499995	7.00010014	1.875	0	200	0
-2.87400007	7.00030088	1.88	0	200	0
-2.86999989	7.00039959	1.88100004	0	200	0
-2.86800003	7.00039959	1.89199996	0	200	0
-2.87199998	7.00030088	1.89100003	0	200	0
-2.87100005	7.00039959	1.88600004	0	200	0
-2.87299991	7.00030088	1.88499999	0	200	0
-2.92499995	7.00010014	1.88	0	200	0
-2.91300011	7.00020027	1.898	0	200	0
-2.92799997	7.00010014	1.89499998	0	200	0
-2.91300011	7.00020027	1.88800001	0	200	0
-2.9230001	7.00010014	1.88600004	0	200	0
-2.86899996	7.00030088	1.89699996	0	200	0
-2.87100005	7.00039959	1.89600003	0	200	0
-2.92400002	7.00010014	1.90600002	0	200	0
-2.91000009	7.00020027	1.90400004	0	200	0
-2.93000007	7.00010014	1.89999998	0	200	0
-2.87100005	7.00039959	1.90699995	0	200	0
-2.87199998	7.00030088	1.90600002	0	200	0
-2.86899996	7.00039959	1.91799998	0	200	0
-2.86500001	7.00030088	1.91799998	0	200	0
-2.86899996	7.00039959	1.91199994	0	200	0
-2.87199998	7.00030088	1.91199994	0	200	0
-2.93300009	7.00010014	1.926	0	200	0
-2.93799996	7.00010014	1.91999996	0	200	0
-2.90899992	7.00020027	1.91499996	0	200	0
-2.92499995	7.00010014	1.91199994	0	200	0
-2.8670001	7.00030088	1.96399999	0	200	0
-2.86899996	7.00039959	1.96399999	0	200	0
-2.94000006	7.00010014	1.92999995	0	200	0
-2.91199994	7.00020027	1.95099998	0	200	0
-2.86999989	7.00030088	1.95799994	0	200	0
-2.8900001	7.00039959	1.95500004	0	200	0
-2.91599989	7.00020027	1.93900001	0	200	0
-2.86599994	7.00030088	1.949	0	200	0
-2.86999989	7.00039959	1.94799995	0	200	0
-2.91100001	7.00020027	1.93499994	0	200	0
-2.91599989	7.00020027	1.92900002	0	200	0
-2.86599994	7.00030088	1.94400001	0	200	0
-2.86800003	7.00039959	1.94400001	0	200	0
-2.8670001	7.00039959	1.93900001	0	200	0
-2.86800003	7.00030088	1.93799996	0	200	0
-2.86500001	7.00030088	1.93400002	0	200	0
-2.88700008	7.00039959	1.92900002	0	200	0
-2.86599994	7.00030088	1.92299998	0	200	0
-2.86599994	7.00039959	1.92299998	0	200	0
-2.91000009	7.00020027	1.95599997	0	200	0
-2.94499993	7.00010014	1.93400002	0	200	0
-2.94199991	7.00010014	1.94500005	0	200	0
-2.95900011	7.00010014	1.95799994	0	200	0
-2.91499996	7.00020027	1.96099997	0	200	0
-2.87100005	7.00039959	1.96899998	0	200	0
-2.87199998	7.00030088	1.96800005	0	200	0
-2.91799998	7.00020027	1.97599995	0	200	0
-2.99399996	7.00010014	1.94099998	0	200	0
-2.8670001	7.00030088	1.97399998	0	200	0
-2.87599993	7.00039959	1.97300005	0	200	0
-2.87400007	7.00030088	1.98899996	0	200	0
-2.875	7.00039959	1.98899996	0	200	0
-2.87100005	7.00030088	1.98399997	0	200	0
-2.89199996	7.00039959	1.98000002	0	200	0
-2.96300006	7.00010014	1.96800005	0	200	0
-2.91499996	7.00020027	1.99199998	0	200	0
-2.91599989	7.00020027	1.98099995	0	200	0
-2.87199998	7.00039959	1.99399996	0	200	0
-2.87299991	7.00030088	1.99399996	0	200	0
-2.91300011	7.00020027	2.00300002	0	200	0
-2.86999989	7.00030088	2	0	200	0
-2.87199998	7.00039959	1.99899995	0	200	0
-2.87199998	7.00030088	2.0150001	0	200	0
-2.89100003	7.00039959	2.01200008	0	200	0
-2.87400007	7.00030088	2.00900006	0	200	0
-2.87299991	7.00039959	2.00900006	0	200	0
-2.91100001	7.00020027	2.01900005	0	200	0
-2.99900007	7.00010014	1.99399996	0	200	0
-3.02399993	7.00010014	1.94099998	0	200	0
-2.91199994	7.00020027	2.01300001	0	200	0
-2.9920001	7.00010014	1.98899996	0	200	0
-2.91599989	7.00020027	2.00699997	0	200	0
-2.86999989	7.00039959	2.06100011	0	200	0
-2.86800003	7.00030088	2.06100011	0	200	0
-2.91199994	7.00020027	2.04399991	0	200	0
-2.91300011	7.00020027	2.03900003	0	200	0
-2.88800001	7.00039959	2.0480001	0	200	0
-2.86899996	7.00030088	2.05100012	0	200	0
-2.91000009	7.00020027	2.03399992	0	200	0
-2.86999989	7.00039959	2.046	0	200	0
-2.91599989	7.00020027	2.02800012	0	200	0
-2.87299991	7.00030088	2.04500008	0	200	0
-2.86999989	7.00039959	2.03999996	0	200	0
-2.86999989	7.00030088	2.03999996	0	200	0
-2.86800003	7.00030088	2.03600001	0	200	0
-2.86999989	7.00039959	2.03500009	0	200	0
-2.87100005	7.00039959	2.0250001	0	200	0
-2.86899996	7.00030088	2.0250001	0	200	0
-2.87100005	7.00039959	2.01999998	0	200	0
-2.8670001	7.00030088	2.02099991	0	200	0
-2.92199993	7.00020027	2.05299997	0	200	0
-3.01799989	7.00010014	2.00099993	0	200	0
-2.91799998	7.00020027	2.05900002	0	200	0
-2.87199998	7.00030088	2.06599998	0	200	0
-2.87100005	7.00039959	2.06599998	0	200	0
-2.88700008	7.00039959	2.06800008	0	200	0
-2.91499996	7.00020027	2.06999993	0	200	0
-2.91400003	7.00020027	2.06500006	0	200	0
-2.87100005	7.00030088	2.0710001	0	200	0
-2.86899996	7.00039959	2.08599997	0	200	0
-2.87199998	7.00030088	2.08599997	0	200	0
-2.86999989	7.00039959	2.07599998	0	200	0
-2.86899996	7.00030088	2.07599998	0	200	0
-2.91899991	7.00020027	2.08999991	0	200	0
-2.92000008	7.00020027	2.08400011	0	200	0
-2.921	7.00020027	2.079	0	200	0
-2.86800003	7.00030088	2.09100008	0	200	0
-2.87100005	7.00039959	2.09100008	0	200	0
-2.9230001	7.00020027	2.0940001	0	200	0
-2.87299991	7.00039959	2.09599996	0	200	0
-2.86999989	7.00030088	2.09599996	0	200	0
-2.87599993	7.00039959	2.11100006	0	200	0
-2.87899995	7.00030088	2.1099999	0	200	0
-2.87599993	7.00039959	2.10100007	0	200	0
-2.87599993	7.00030088	2.10100007	0	200	0
-2.92799997	7.00020027	2.11400008	0	200	0
-2.93099999	7.00020027	2.10899997	0	200	0
-2.92700005	7.00020027	2.10400009	0	200	0
-2.9230001	7.00020027	2.14100003	0	200	0
-2.87100005	7.00030088	2.15199995	0	200	0
-2.87400007	7.00039959	2.15100002	0	200	0
-2.92199993	7.00020027	2.13000011	0	200	0
-2.87100005	7.00039959	2.14700007	0	200	0
-2.87400007	7.00030088	2.14599991	0	200	0
-2.87299991	7.00030088	2.14199996	0	200	0
-2.87299991	7.00039959	2.14199996	0	200	0
-2.92000008	7.00020027	2.11999989	0	200	0
-2.87199998	7.00030088	2.13700008	0	200	0
-2.87199998	7.00039959	2.13700008	0	200	0
-2.87299991	7.00030088	2.12599993	0	200	0
-2.87299991	7.00039959	2.12599993	0	200	0
-2.87400007	7.00030088	2.12100005	0	200	0
-2.87400007	7.00039959	2.12100005	0	200	0
-2.87100005	7.00030088	2.11599994	0	200	0
-2.875	7.00039959	2.11599994	0	200	0
-2.91899991	7.00020027	2.14599991	0	200	0
-2.89199996	7.00039959	2.16000009	0	200	0
-2.86899996	7.00030088	2.16199994	0	200	0
-2.91599989	7.00020027	2.16700006	0	200	0
-2.91599989	7.00020027	2.16199994	0	200	0
-2.86999989	7.00039959	2.16700006	0	200	0
-2.86999989	7.00030088	2.16700006	0	200	0
-2.86999989	7.00030088	2.17700005	0	200	0
-2.87100005	7.00039959	2.17700005	0	200	0
-2.89199996	7.00039959	2.17000008	0	200	0
-2.86999989	7.00030088	2.17199993	0	200	0
-2.91499996	7.00020027	2.18799996	0	200	0
-2.91499996	7.00020027	2.18199992	0	200	0
-2.87199998	7.00039959	2.18700004	0	200	0
-2.87199998	7.00030088	2.18700004	0	200	0
-2.92000008	7.00020027	2.19199991	0	200	0
-2.86899996	7.00030088	2.19199991	0	200	0
-2.87299991	7.00039959	2.19199991	0	200	0
-2.91599989	7.00020027	2.19799995	0	200	0
-2.86899996	7.00030088	2.2019999	0	200	0
-2.87199998	7.00039959	2.2019999	0	200	0
-2.86999989	7.00030088	2.19700003	0	200	0
-2.87100005	7.00039959	2.19700003	0	200	0
-2.9230001	7.00020027	2.21199989	0	200	0
-2.91899991	7.00020027	2.20799994	0	200	0
-2.87800002	7.00030088	2.227	0	200	0
-2.86999989	7.00030088	2.22199988	0	200	0
-2.87700009	7.00039959	2.22199988	0	200	0
-2.86999989	7.00030088	2.21700001	0	200	0
-2.92400002	7.00020027	2.23300004	0	200	0
-2.87299991	7.00039959	2.21199989	0	200	0
-2.87299991	7.00030088	2.21199989	0	200	0
-2.89599991	7.00039959	2.21499991	0	200	0
-2.92799997	7.00020027	2.22199988	0	200	0
-2.92799997	7.00020027	2.21700001	0	200	0
-2.86800003	7.00030088	2.24799991	0	200	0
-2.87199998	7.00039959	2.24699998	0	200	0
-2.87400007	7.00039959	2.2420001	0	200	0
-2.87100005	7.00030088	2.2420001	0	200	0
-2.87400007	7.00039959	2.23699999	0	200	0
-2.87599993	7.00030088	2.23699999	0	200	0
-2.87299991	7.00039959	2.227	0	200	0
-2.91899991	7.00020027	2.24300003	0	200	0
-2.91799998	7.00020027	2.24900007	0	200	0
-2.87599993	7.00030088	2.25200009	0	200	0
-2.89199996	7.00039959	2.25099993	0	200	0
-2.91499996	7.00020027	2.26399994	0	200	0
-2.91300011	7.00020027	2.25900006	0	200	0
-2.86999989	7.00039959	2.26699996	0	200	0
-2.87100005	7.00030088	2.26200008	0	200	0
-2.87199998	7.00039959	2.26200008	0	200	0
-2.86999989	7.00030088	2.27699995	0	200	0
-2.86999989	7.00039959	2.27200007	0	200	0
-2.86899996	7.00030088	2.27200007	0	200	0
-2.87100005	7.00030088	2.26699996	0	200	0
-2.91400003	7.00020027	2.28399992	0	200	0
-2.91899991	7.00020027	2.26900005	0	200	0
-2.86999989	7.00039959	2.27699995	0	200	0
-2.91499996	7.00020027	2.28900003	0	200	0
-2.86599994	7.00030088	2.28800011	0	200	0
-2.86999989	7.00039959	2.28699994	0	200	0
-2.91599989	7.00020027	2.29399991	0	200	0
-2.8670001	7.00039959	2.2980001	0	200	0
-2.86800003	7.00030088	2.2980001	0	200	0
-2.86899996	7.00039959	2.29299998	0	200	0
-2.86800003	7.00030088	2.29299998	0	200	0
-2.91300011	7.00020027	2.30999994	0	200	0
-2.88700008	7.00039959	2.30100012	0	200	0
-2.91799998	7.00020027	2.29900002	0	200	0
-2.91499996	7.00020027	2.31500006	0	200	0
-2.87199998	7.00039959	2.32200003	0	200	0
-2.86999989	7.00030088	2.32200003	0	200	0
-2.86999989	7.00039959	2.31699991	0	200	0
-2.87299991	7.00030088	2.31699991	0	200	0
-2.86999989	7.00039959	2.31200004	0	200	0
-2.86999989	7.00030088	2.31200004	0	200	0
-2.8670001	7.00030088	2.30299997	0	200	0
-2.921	7.00020027	2.32500005	0	200	0
-2.92000008	7.00020027	2.31999993	0	200	0
-2.87599993	7.00039959	2.34699988	0	200	0
-2.87100005	7.00030088	2.34699988	0	200	0
-2.88800001	7.00039959	2.34100008	0	200	0
-2.87100005	7.00030088	2.34200001	0	200	0
-2.8670001	7.00030088	2.33800006	0	200	0
-2.87299991	7.00039959	2.33699989	0	200	0
-2.86800003	7.00030088	2.32800007	0	200	0
-2.87299991	7.00039959	2.3269999	0	200	0
-2.92400002	7.00020027	2.33999991	0	200	0
-2.91799998	7.00020027	2.33500004	0	200	0
-2.92700005	7.00020027	2.34500003	0	200	0
-2.87599993	7.00030088	2.352	0	200	0
-2.87700009	7.00039959	2.352	0	200	0
-2.94499993	7.00020027	2.34899998	0	200	0
-2.875	7.00030088	2.36199999	0	200	0
-2.87199998	7.00039959	2.36199999	0	200	0
-2.87400007	7.00039959	2.37199998	0	200	0
-2.87299991	7.00030088	2.37199998	0	200	0
-2.89199996	7.00039959	2.36599994	0	200	0
-2.87400007	7.00030088	2.3670001	0	200	0
-2.9289999	7.00020027	2.36999989	0	200	0
-2.93700004	7.00020027	2.36500001	0	200	0
-2.87199998	7.00039959	2.37700009	0	200	0
-2.87199998	7.00030088	2.37700009	0	200	0
-2.92499995	7.00020027	2.38499999	0	200	0
-2.87299991	7.00039959	2.38700008	0	200	0
-2.87299991	7.00030088	2.38700008	0	200	0
-2.87199998	7.00030088	2.39700007	0	200	0
-2.87800002	7.00030088	2.39199996	0	200	0
-2.87100005	7.00039959	2.39199996	0	200	0
-2.92600012	7.00020027	2.40100002	0	200	0
-2.92600012	7.00020027	2.39599991	0	200	0
-2.87100005	7.00030088	2.40199995	0	200	0
-2.9230001	7.00020027	2.41100001	0	200	0
-2.87199998	7.00039959	2.42199993	0	200	0
-2.86899996	7.00030088	2.41700006	0	200	0
-2.86999989	7.00039959	2.41700006	0	200	0
-2.88700008	7.00039959	2.41199994	0	200	0
-2.86800003	7.00030088	2.41199994	0	200	0
-2.92000008	7.00020027	2.421	0	200	0
-2.921	7.00020027	2.41599989	0	200	0
-2.86899996	7.00030088	2.44199991	0	200	0
-2.86999989	7.00039959	2.44199991	0	200	0
-2.91899991	7.00020027	2.42600012	0	200	0
-2.86899996	7.00030088	2.43700004	0	200	0
-2.86999989	7.00039959	2.43700004	0	200	0
-2.86800003	7.00030088	2.42700005	0	200	0
-2.86899996	7.00039959	2.42700005	0	200	0
-2.8670001	7.00030088	2.42199993	0	200	0
-2.92000008	7.00020027	2.44099998	0	200	0
-2.87199998	7.00039959	2.44700003	0	200	0
-2.86899996	7.00030088	2.44700003	0	200	0
-2.92700005	7.00020027	2.4460001	0	200	0
-2.87100005	7.00039959	2.4519999	0	200	0
-2.86999989	7.00030088	2.4519999	0	200	0
-2.92799997	7.00020027	2.45099998	0	200	0
-2.89100003	7.00039959	2.46700001	0	200	0
-2.86899996	7.00030088	2.46700001	0	200	0
-2.86999989	7.00030088	2.46199989	0	200	0
-2.87100005	7.00039959	2.46199989	0	200	0
-2.92600012	7.00020027	2.46700001	0	200	0
-2.87199998	7.00030088	2.4920001	0	200	0
-2.94899988	7.00020027	2.49699998	0	200	0
-2.94700003	7.00020027	2.4920001	0	200	0
-2.86899996	7.00030088	2.49699998	0	200	0
-2.94700003	7.00020027	2.50200009	0	200	0
-2.8829999	7.00039959	2.51699996	0	200	0
-2.86999989	7.00030088	2.51699996	0	200	0
-2.86999989	7.00030088	2.51200008	0	200	0
-2.87100005	7.00039959	2.51200008	0	200	0
-2.86999989	7.00030088	2.50200009	0	200	0
-2.86999989	7.00039959	2.50200009	0	200	0
-2.9460001	7.00020027	2.51200008	0	200	0
-2.86899996	7.00039959	2.54099989	0	200	0
-2.86800003	7.00030088	2.54099989	0	200	0
-2.87100005	7.00039959	2.53699994	0	200	0
-2.86899996	7.00030088	2.53699994	0	200	0
-2.86999989	7.00039959	2.52699995	0	200	0
-2.86999989	7.00030088	2.52699995	0	200	0
-2.86999989	7.00039959	2.52200007	0	200	0
-2.87199998	7.00030088	2.52200007	0	200	0
-2.94499993	7.00020027	2.51799989	0	200	0
-2.94499993	7.00020027	2.52800012	0	200	0
-2.94799995	7.00020027	2.523	0	200	0
-2.86999989	7.00039959	2.546	0	200	0
-2.94799995	7.00020027	2.54299998	0	200	0
-2.9460001	7.00020027	2.53800011	0	200	0
-2.8670001	7.00030088	2.55100012	0	200	0
-2.87599993	7.00030088	2.54699993	0	200	0
-2.9460001	7.00020027	2.5480001	0	200	0
-2.8670001	7.00030088	2.56100011	0	200	0
-2.86999989	7.00039959	2.56100011	0	200	0
-2.88599992	7.00039959	2.55200005	0	200	0
-2.86999989	7.00039959	2.56599998	0	200	0
-2.86899996	7.00030088	2.56599998	0	200	0
-2.94400001	7.00020027	2.56299996	0	200	0
-2.94700003	7.00020027	2.55299997	0	200	0
-2.87199998	7.00039959	2.59100008	0	200	0
-2.86999989	7.00030088	2.59100008	0	200	0
-2.88100004	7.00030088	2.58699989	0	200	0
-2.87199998	7.00039959	2.58599997	0	200	0
-2.88800001	7.00039959	2.5769999	0	200	0
-2.87100005	7.00030088	2.57599998	0	200	0
-2.87100005	7.00039959	2.5710001	0	200	0
-2.87100005	7.00030088	2.5710001	0	200	0
-2.9460001	7.00020027	2.5940001	0	200	0
-2.94400001	7.00020027	2.579	0	200	0
-2.94700003	7.00020027	2.57399988	0	200	0
-2.94499993	7.00020027	2.56900001	0	200	0
-2.9000001	7.00039959	2.59699988	0	200	0
-2.88100004	7.00030088	2.59699988	0	200	0
-2.92799997	7.00030088	2.61899996	0	200	0
-2.93799996	7.00030088	2.61400008	0	200	0
-2.92499995	7.00030088	2.62400007	0	200	0
-2.93099999	7.00039959	2.63899994	0	200	0
-2.92799997	7.00030088	2.63899994	0	200	0
-2.93000007	7.00039959	2.62899995	0	200	0
-2.92499995	7.00030088	2.62899995	0	200	0
-2.93000007	7.00030088	2.64400005	0	200	0
-2.96000004	7.00039959	2.6559999	0	200	0
-2.96300006	7.00030088	2.65700006	0	200	0
-2.96399999	7.00030088	2.65199995	0	200	0
-2.97099996	7.00039959	2.68300009	0	200	0
-2.96399999	7.00030088	2.68300009	0	200	0
-2.97099996	7.00039959	2.6730001	0	200	0
-2.96399999	7.00030088	2.67199993	0	200	0
-2.97000003	7.00039959	2.70900011	0	200	0
-2.96700001	7.00030088	2.70900011	0	200	0
-2.97000003	7.00039959	2.704	0	200	0
-2.96300006	7.00030088	2.70300007	0	200	0
-2.9690001	7.00039959	2.69799995	0	200	0
-2.96499991	7.00030088	2.69799995	0	200	0
-2.97099996	7.00039959	2.69300008	0	200	0
-2.96399999	7.00030088	2.69300008	0	200	0
-2.9690001	7.00030088	2.72900009	0	200	0
-2.96700001	7.00039959	2.72399998	0	200	0
-2.96399999	7.00030088	2.72399998	0	200	0
-2.97000003	7.00039959	2.7190001	0	200	0
-2.96600008	7.00030088	2.7190001	0	200	0
-2.96499991	7.00030088	2.73399997	0	200	0
-2.94000006	7.00039959	2.773	0	200	0
-2.94199991	7.00039959	2.77900004	0	200	0
-2.94000006	7.00030088	2.77800012	0	200	0
-2.94400001	7.00030088	2.78399992	0	200	0
-2.90499997	7.00010014	2.84599996	0	200	0
-2.91700006	7.00010014	2.83200002	0	200	0
-2.93199992	7.00020027	2.91199994	0	200	0
-2.96300006	7.00030088	2.99499989	0	200	0
-2.96300006	7.00030088	2.99000001	0	200	0
-2.97099996	7.00030088	2.98600006	0	200	0
-2.96799994	7.00030088	2.98099995	0	200	0
-2.94099998	7.00020027	2.98600006	0	200	0
-2.96600008	7.00030088	2.97000003	0	200	0
-2.93799996	7.00020027	2.9749999	0	200	0
-2.96399999	7.00030088	2.96399999	0	200	0
-2.96499991	7.00030088	2.95900011	0	200	0
-2.94000006	7.00020027	2.96499991	0	200	0
-2.96700001	7.00030088	2.94300008	0	200	0
-2.96499991	7.00030088	2.93799996	0	200	0
-2.93799996	7.00020027	3.08100009	0	200	0
-2.96600008	7.00030088	3.07599998	0	200	0
-2.96499991	7.00030088	3.06999993	0	200	0
-2.94400001	7.00020027	3.06100011	0	200	0
-2.96799994	7.00030088	3.05999994	0	200	0
-2.9690001	7.00030088	3.04999995	0	200	0
-2.94199991	7.00020027	3.03900003	0	200	0
-2.93899989	7.00020027	3.03299999	0	200	0
-2.96499991	7.00030088	3.03800011	0	200	0
-2.93899989	7.00020027	3.02800012	0	200	0
-2.96700001	7.00030088	3.03299999	0	200	0
-2.9690001	7.00030088	3.023	0	200	0
-2.96600008	7.00030088	3.01699996	0	200	0
-2.96700001	7.00030088	3.01200008	0	200	0
-2.96799994	7.00030088	3.00699997	0	200	0
-2.96799994	7.00030088	3.16799998	0	200	0
-2.93799996	7.00020027	3.17199993	0	200	0
-2.93899989	7.00020027	3.16700006	0	200	0
-2.96799994	7.00030088	3.15199995	0	200	0
-2.96499991	7.00030088	3.14499998	0	200	0
-2.93899989	7.00020027	3.1500001	0	200	0
-2.96700001	7.00030088	3.14100003	0	200	0
-2.94199991	7.00020027	3.14599991	0	200	0
-2.9690001	7.00030088	3.13000011	0	200	0
-2.96600008	7.00030088	3.12400007	0	200	0
-2.96700001	7.00030088	3.11899996	0	200	0
-2.94300008	7.00020027	3.12400007	0	200	0
-2.96499991	7.00030088	3.11299992	0	200	0
-2.96499991	7.00030088	3.102	0	200	0
-2.94000006	7.00020027	3.11299992	0	200	0
-2.93899989	7.00020027	3.10800004	0	200	0
-2.96499991	7.00030088	3.2650001	0	200	0
-2.96600008	7.00030088	3.25999999	0	200	0
-2.93300009	7.00020027	3.25200009	0	200	0
-2.96600008	7.00030088	3.24900007	0	200	0
-2.96799994	7.00030088	3.23900008	0	200	0
-2.93799996	7.00020027	3.23099995	0	200	0
-2.9690001	7.00030088	3.23399997	0	200	0
-2.93600011	7.00020027	3.21399999	0	200	0
-2.96199989	7.00030088	3.22099996	0	200	0
-2.94000006	7.00020027	3.20499992	0	200	0
-2.93899989	7.00020027	3.19300008	0	200	0
-2.93700004	7.00020027	3.18799996	0	200	0
-2.97000003	7.00030088	3.20600009	0	200	0
-2.96499991	7.00030088	3.18300009	0	200	0
-2.96499991	7.00030088	3.17799997	0	200	0
-2.93700004	7.00020027	3.26900005	0	200	0
-2.96600008	7.00030088	3.3599999	0	200	0
-2.96799994	7.00030088	3.3499999	0	200	0
-2.94000006	7.00020027	3.34100008	0	200	0
-2.96199989	7.00030088	3.34200001	0	200	0
-2.93499994	7.00020027	3.33400011	0	200	0
-2.93600011	7.00020027	3.32399988	0	200	0
-2.96300006	7.00030088	3.33100009	0	200	0
-2.96399999	7.00030088	3.3210001	0	200	0
-2.93499994	7.00020027	3.30699992	0	200	0
-2.96399999	7.00030088	3.31500006	0	200	0
-2.9690001	7.00030088	3.30500007	0	200	0
-2.93899989	7.00020027	3.28600001	0	200	0
-2.96600008	7.00030088	3.29299998	0	200	0
-2.96300006	7.00030088	3.28699994	0	200	0
-2.96199989	7.00030088	3.27600002	0	200	0
-2.93400002	7.00020027	3.36199999	0	200	0
-2.93700004	7.00020027	3.4519999	0	200	0
-2.94000006	7.00020027	3.44799995	0	200	0
-2.96499991	7.00030088	3.44499993	0	200	0
-2.93799996	7.00020027	3.43600011	0	200	0
-2.97000003	7.00030088	3.43499994	0	200	0
-2.93499994	7.00020027	3.41799998	0	200	0
-2.96499991	7.00030088	3.41599989	0	200	0
-2.96399999	7.00030088	3.40499997	0	200	0
-2.97199988	7.00030088	3.40100002	0	200	0
-2.93899989	7.00020027	3.38000011	0	200	0
-2.96700001	7.00030088	3.37700009	0	200	0
-2.96099997	7.00030088	3.36999989	0	200	0
-2.96700001	7.00030088	3.49099994	0	200	0
-2.93600011	7.00010014	3.4920001	0	200	0
