-3.07500005	6.99989986	0.971000016	200	0	0
-3.06999993	6.99979973	0.966000021	200	0	0
-3.07500005	6.99989986	0.963999987	200	0	0
-3.07200003	6.99919987	0.985000014	200	0	0
-3.06999993	6.99979973	1.01300001	200	0	0
-3.07999992	6.99940014	0.995000005	200	0	0
-3.07200003	6.99919987	0.978999972	200	0	0
-3.0710001	6.99979973	1.00600004	200	0	0
-3.07500005	6.99940014	0.984000027	200	0	0
-3.0710001	6.99979973	0.999000013	200	0	0
-3.07200003	6.99989986	0.999000013	200	0	0
-3.06800008	6.99979973	0.987999976	200	0	0
-3.07299995	6.99989986	0.985000014	200	0	0
-3.06599998	6.99979973	0.981999993	200	0	0
-3.06999993	6.99989986	0.980000019	200	0	0
-3.06900001	6.99909973	0.986999989	200	0	0
-3.06699991	6.99909973	0.981000006	200	0	0
-3.06800008	6.99969959	1.01999998	200	0	0
-3.08400011	6.99950027	1.02600002	200	0	0
-3.05900002	6.99969959	1.01800001	200	0	0
-3.08200002	6.99940014	1.02699995	200	0	0
-3.0710001	6.99909973	1.01900005	200	0	0
-3.07299995	6.99919987	1.01800001	200	0	0
-3.079	6.99940014	1.01499999	200	0	0
-3.0710001	6.99909973	1.01199996	200	0	0
-3.06900001	6.99919987	1.01300001	200	0	0
-3.07999992	6.99940014	1.00800002	200	0	0
-3.07200003	6.99909973	1.005	200	0	0
-3.07399988	6.99919987	1.00399995	200	0	0
-3.07200003	6.99909973	0.999000013	200	0	0
-3.07999992	6.99940014	1.00100005	200	0	0
-3.07200003	6.99919987	0.998000026	200	0	0
-3.08400011	6.99950027	1.03299999	200	0	0
-3.07200003	6.99909973	1.03799999	200	0	0
-3.07299995	6.99919987	1.03699994	200	0	0
-3.07200003	6.99909973	1.03100002	200	0	0
-3.07399988	6.99919987	1.03100002	200	0	0
-3.06900001	6.99979973	1.01999998	200	0	0
-3.07500005	6.99989986	1.01699996	200	0	0
-3.07500005	6.99969959	1.02999997	200	0	0
-3.06999993	6.99979973	1.03199995	200	0	0
-3.07800007	6.99989986	1.02900004	200	0	0
-3.07200003	6.99919987	1.04400003	200	0	0
-3.08699989	6.99940014	1.03699994	200	0	0
-3.07999992	6.99950027	1.04100001	200	0	0
-3.07599998	6.99969959	1.03600001	200	0	0
-3.07200003	6.99979973	1.03799999	200	0	0
-3.0710001	6.99919987	1.051	200	0	0
-3.07299995	6.99909973	1.04999995	200	0	0
-3.06999993	6.99909973	1.046	200	0	0
-3.07800007	6.99950027	1.04799998	200	0	0
-3.07299995	6.99909973	1.07000005	200	0	0
-3.07399988	6.99919987	1.06900001	200	0	0
-3.08299994	6.99950027	1.05900002	200	0	0
-3.06699991	6.99969959	1.04700005	200	0	0
-3.07500005	6.99919987	1.06200004	200	0	0
-3.07500005	6.99909973	1.06200004	200	0	0
-3.07399988	6.99969959	1.06900001	200	0	0
-3.07999992	6.99950027	1.07299995	200	0	0
-3.08100009	6.99989986	1.05999994	200	0	0
-3.0710001	6.99979973	1.06400001	200	0	0
-3.07399988	6.99969959	1.06299996	200	0	0
-3.07999992	6.99950027	1.06700003	200	0	0
-3.079	6.99989986	1.04799998	200	0	0
-3.0710001	6.99979973	1.05200005	200	0	0
-3.07500005	6.99989986	1.04299998	200	0	0
-3.06999993	6.99979973	1.046	200	0	0
-3.0710001	6.99979973	1.07099998	200	0	0
-3.08500004	6.99989986	1.06500006	200	0	0
-3.07800007	6.99950027	1.08000004	200	0	0
-3.0710001	6.99909973	1.08399999	200	0	0
-3.07299995	6.99919987	1.08299994	200	0	0
-3.0710001	6.99909973	1.07700002	200	0	0
-3.0710001	6.99919987	1.07700002	200	0	0
-3.079	6.99950027	1.10599995	200	0	0
-3.07299995	6.99969959	1.10899997	200	0	0
-3.07299995	6.99979973	1.10899997	200	0	0
-3.08400011	6.99950027	1.097	200	0	0
-3.07200003	6.99979973	1.10300004	200	0	0
-3.08400011	6.99950027	1.09099996	200	0	0
-3.0710001	6.99979973	1.097	200	0	0
-3.0769999	6.99969959	1.09399998	200	0	0
-3.06999993	6.99979973	1.08399999	200	0	0
-3.07399988	6.99969959	1.08299994	200	0	0
-3.06900001	6.99979973	1.07799995	200	0	0
-3.07500005	6.99969959	1.07599998	200	0	0
-3.07500005	6.99909973	1.09500003	200	0	0
-3.07299995	6.99979973	1.11500001	200	0	0
-3.07200003	6.99969959	1.11500001	200	0	0
-3.0769999	6.99919987	1.10000002	200	0	0
-3.08200002	6.99950027	1.11099994	200	0	0
-3.08299994	6.99960041	1.11099994	200	0	0
-3.07800007	6.99919987	1.09399998	200	0	0
-3.08200002	6.99960041	1.12399995	200	0	0
-3.07399988	6.99909973	1.11500001	200	0	0
-3.08599997	6.99950027	1.12199998	200	0	0
-3.07599998	6.99919987	1.11399996	200	0	0
-3.07399988	6.99909973	1.10800004	200	0	0
-3.07299995	6.99919987	1.10800004	200	0	0
-3.07399988	6.99909973	1.102	200	0	0
-3.07599998	6.99919987	1.12600005	200	0	0
-3.08599997	6.99960041	1.12899995	200	0	0
-3.08500004	6.99950027	1.12899995	200	0	0
-3.0769999	6.99969959	1.12600005	200	0	0
-3.07599998	6.99919987	1.13300002	200	0	0
-3.07599998	6.99909973	1.13300002	200	0	0
-3.07299995	6.99909973	1.12800002	200	0	0
-3.07200003	6.99979973	1.12899995	200	0	0
-3.0710001	6.99909973	1.14100003	200	0	0
-3.07399988	6.99919987	1.13999999	200	0	0
-3.07399988	6.99979973	1.13399994	200	0	0
-3.08200002	6.99960041	1.13699996	200	0	0
-3.07299995	6.99909973	1.14699996	200	0	0
-3.08599997	6.99950027	1.14100003	200	0	0
-3.07599998	6.99919987	1.14600003	200	0	0
-3.06999993	6.99979973	1.14199996	200	0	0
-3.07399988	6.99969959	1.13999999	200	0	0
-3.08599997	6.99950027	1.15999997	200	0	0
-3.08400011	6.99960041	1.15499997	200	0	0
-3.07399988	6.99969959	1.14699996	200	0	0
-3.07399988	6.99909973	1.16499996	200	0	0
-3.0769999	6.99919987	1.16400003	200	0	0
-3.08400011	6.99950027	1.15499997	200	0	0
-3.0769999	6.99919987	1.15799999	200	0	0
-3.0769999	6.99909973	1.15799999	200	0	0
-3.0710001	6.99979973	1.148	200	0	0
-3.08200002	6.99960041	1.16799998	200	0	0
-3.07500005	6.99979973	1.16499996	200	0	0
-3.07800007	6.99969959	1.16400003	200	0	0
-3.08599997	6.99960041	1.15999997	200	0	0
-3.07599998	6.99979973	1.15799999	200	0	0
-3.0769999	6.99969959	1.15799999	200	0	0
-3.08800006	6.99950027	1.16600001	200	0	0
-3.07999992	6.99969959	1.176	200	0	0
-3.0710001	6.99979973	1.17299998	200	0	0
-3.07999992	6.99960041	1.176	200	0	0
-3.07500005	6.99919987	1.171	200	0	0
-3.07399988	6.99909973	1.17799997	200	0	0
-3.07599998	6.99919987	1.17700005	200	0	0
-3.07399988	6.99909973	1.17200005	200	0	0
-3.0769999	6.99909973	1.19599998	200	0	0
-3.0769999	6.99979973	1.19599998	200	0	0
-3.07800007	6.99919987	1.19500005	200	0	0
-3.08500004	6.99960041	1.199	200	0	0
-3.07500005	6.99909973	1.19000006	200	0	0
-3.07200003	6.99979973	1.19200003	200	0	0
-3.079	6.99969959	1.19500005	200	0	0
-3.079	6.99919987	1.18900001	200	0	0
-3.08299994	6.99960041	1.19299996	200	0	0
-3.07999992	6.99969959	1.18799996	200	0	0
-3.08400011	6.99960041	1.18700004	200	0	0
-3.07200003	6.99979973	1.17900002	200	0	0
-3.08299994	6.99960041	1.20599997	200	0	0
-3.07299995	6.99979973	1.204	200	0	0
-3.07399988	6.99979973	1.21000004	200	0	0
-3.07599998	6.99969959	1.20899999	200	0	0
-3.0769999	6.99919987	1.20200002	200	0	0
-3.08800006	6.99960041	1.22300005	200	0	0
-3.07500005	6.99909973	1.20899999	200	0	0
-3.079	6.99969959	1.22000003	200	0	0
-3.07399988	6.99919987	1.20899999	200	0	0
-3.07500005	6.99909973	1.20299995	200	0	0
-3.08599997	6.99960041	1.21700001	200	0	0
-3.07599998	6.99909973	1.22099996	200	0	0
-3.079	6.99919987	1.22000003	200	0	0
-3.0769999	6.99969959	1.227	200	0	0
-3.07500005	6.99979973	1.222	200	0	0
-3.07599998	6.99919987	1.227	200	0	0
-3.07999992	6.99909973	1.22599995	200	0	0
-3.07599998	6.99979973	1.22800004	200	0	0
-3.07599998	6.99919987	1.24000001	200	0	0
-3.07599998	6.99909973	1.24000001	200	0	0
-3.07399988	6.99919987	1.23399997	200	0	0
-3.08299994	6.99960041	1.23099995	200	0	0
-3.0769999	6.99969959	1.23300004	200	0	0
-3.08599997	6.99960041	1.23599994	200	0	0
-3.07299995	6.99979973	1.23500001	200	0	0
-3.07500005	6.99969959	1.24100006	200	0	0
-3.07299995	6.99979973	1.24100006	200	0	0
-3.07599998	6.99919987	1.25199997	200	0	0
-3.07599998	6.99979973	1.25199997	200	0	0
-3.09299994	6.99960041	1.25199997	200	0	0
-3.08599997	6.99969959	1.24800003	200	0	0
-3.09100008	6.99960041	1.24600005	200	0	0
-3.07599998	6.99919987	1.26400006	200	0	0
-3.07599998	6.99909973	1.26400006	200	0	0
-3.0769999	6.99919987	1.25800002	200	0	0
-3.08100009	6.99909973	1.25699997	200	0	0
-3.07800007	6.99909973	1.25199997	200	0	0
-3.07500005	6.99969959	1.26499999	200	0	0
-3.07599998	6.99979973	1.25899994	200	0	0
-3.06999993	6.99979973	1.27400005	200	0	0
-3.0769999	6.99969959	1.27100003	200	0	0
-3.07399988	6.99979973	1.26600003	200	0	0
-3.07500005	6.99919987	1.27100003	200	0	0
-3.07599998	6.99909973	1.27100003	200	0	0
-3.07599998	6.99909973	1.28900003	200	0	0
-3.07999992	6.99919987	1.28799999	200	0	0
-3.07500005	6.99919987	1.28299999	200	0	0
-3.07800007	6.99909973	1.28199995	200	0	0
-3.07800007	6.99969959	1.29499996	200	0	0
-3.0769999	6.99979973	1.29499996	200	0	0
-3.07500005	6.99979973	1.28999996	200	0	0
-3.08599997	6.99969959	1.28600001	200	0	0
-3.07599998	6.99969959	1.28299999	200	0	0
-3.0769999	6.99979973	1.28299999	200	0	0
-3.07299995	6.99979973	1.30299997	200	0	0
-3.07599998	6.99919987	1.296	200	0	0
-3.07599998	6.99969959	1.30200005	200	0	0
-3.07800007	6.99909973	1.301	200	0	0
-3.0769999	6.99919987	1.301	200	0	0
-3.07599998	6.99909973	1.296	200	0	0
-3.07599998	6.99979973	1.32000005	200	0	0
-3.079	6.99919987	1.31299996	200	0	0
-3.079	6.99969959	1.31900001	200	0	0
-3.0769999	6.99979973	1.31400001	200	0	0
-3.07999992	6.99969959	1.31200004	200	0	0
-3.079	6.99919987	1.31900001	200	0	0
-3.08100009	6.99909973	1.31799996	200	0	0
-3.08400011	6.99909973	1.31099999	200	0	0
-3.079	6.99969959	1.32500005	200	0	0
-3.079	6.99909973	1.32500005	200	0	0
-3.07800007	6.99919987	1.32500005	200	0	0
-3.07500005	6.99979973	1.32700002	200	0	0
-3.07800007	6.99909973	1.33200002	200	0	0
-3.07999992	6.99919987	1.33099997	200	0	0
-3.07599998	6.99979973	1.33200002	200	0	0
-3.07800007	6.99969959	1.33200002	200	0	0
-3.079	6.99919987	1.34899998	200	0	0
-3.08400011	6.99909973	1.34800005	200	0	0
-3.08200002	6.99909973	1.34200001	200	0	0
-3.08299994	6.99919987	1.34200001	200	0	0
-3.07800007	6.99979973	1.35000002	200	0	0
-3.08299994	6.99969959	1.34800005	200	0	0
-3.07599998	6.99979973	1.34399998	200	0	0
-3.08500004	6.99969959	1.34099996	200	0	0
-3.0769999	6.99909973	1.36199999	200	0	0
-3.07800007	6.99919987	1.36199999	200	0	0
-3.079	6.99919987	1.35500002	200	0	0
-3.08599997	6.99909973	1.35300004	200	0	0
-3.06699991	6.99979973	1.36000001	200	0	0
-3.07999992	6.99969959	1.35500002	200	0	0
-3.08200002	6.99979973	1.37300003	200	0	0
-3.06999993	6.99979973	1.36500001	200	0	0
-3.07800007	6.99919987	1.38600004	200	0	0
-3.07999992	6.99909973	1.38499999	200	0	0
-3.07999992	6.99919987	1.37899995	200	0	0
-3.07599998	6.99909973	1.375	200	0	0
-3.08100009	6.99919987	1.37300003	200	0	0
-3.08200002	6.99969959	1.37300003	200	0	0
-3.07800007	6.99979973	1.39199996	200	0	0
-3.08299994	6.99969959	1.38999999	200	0	0
-3.07800007	6.99979973	1.38600004	200	0	0
-3.08100009	6.99969959	1.38499999	200	0	0
-3.07599998	6.99979973	1.38100004	200	0	0
-3.08100009	6.99969959	1.37899995	200	0	0
-3.0769999	6.99919987	1.39199996	200	0	0
-3.08200002	6.99909973	1.38999999	200	0	0
-3.079	6.99979973	1.41600001	200	0	0
-3.08400011	6.99969959	1.41400003	200	0	0
-3.079	6.99979973	1.40999997	200	0	0
-3.08200002	6.99969959	1.40900004	200	0	0
-3.07999992	6.99979973	1.403	200	0	0
-3.07999992	6.99919987	1.40999997	200	0	0
-3.08800006	6.99909973	1.40699995	200	0	0
-3.07999992	6.99919987	1.403	200	0	0
-3.08299994	6.99909973	1.40199995	200	0	0
-3.079	6.99919987	1.41600001	200	0	0
-3.08299994	6.99909973	1.41400003	200	0	0
-3.07800007	6.99979973	1.42200005	200	0	0
-3.08400011	6.99969959	1.41999996	200	0	0
-3.07800007	6.99919987	1.42200005	200	0	0
-3.08999991	6.99909973	1.41799998	200	0	0
-3.08800006	6.99909973	1.43099999	200	0	0
-3.08299994	6.99969959	1.43200004	200	0	0
-3.08100009	6.99919987	1.44500005	200	0	0
-3.08400011	6.99909973	1.44400001	200	0	0
-3.08100009	6.99919987	1.43900001	200	0	0
-3.08400011	6.99909973	1.43799996	200	0	0
-3.07999992	6.99919987	1.43299997	200	0	0
-3.08899999	6.99969959	1.44799995	200	0	0
-3.079	6.99979973	1.44599998	200	0	0
-3.08299994	6.99969959	1.44400001	200	0	0
-3.08100009	6.99979973	1.43900001	200	0	0
-3.08400011	6.99969959	1.43799996	200	0	0
-3.08100009	6.99979973	1.43299997	200	0	0
-3.08599997	6.99909973	1.46099997	200	0	0
-3.07800007	6.99919987	1.45200002	200	0	0
-3.08400011	6.99909973	1.45000005	200	0	0
-3.07200003	6.99979973	1.454	200	0	0
-3.0710001	6.99979973	1.472	200	0	0
-3.08200002	6.99969959	1.46800005	200	0	0
-3.07299995	6.99979973	1.46599996	200	0	0
-3.08699989	6.99969959	1.46099997	200	0	0
-3.07999992	6.99919987	1.48099995	200	0	0
-3.08500004	6.99909973	1.47899997	200	0	0
-3.07999992	6.99919987	1.47500002	200	0	0
-3.08100009	6.99919987	1.46899998	200	0	0
-3.08500004	6.99909973	1.46700001	200	0	0
-3.08500004	6.99919987	1.46200001	200	0	0
-3.08500004	6.99969959	1.49100006	200	0	0
-3.07399988	6.99979973	1.48300004	200	0	0
-3.07999992	6.99979973	1.47500002	200	0	0
-3.08299994	6.99969959	1.47399998	200	0	0
-3.08699989	6.99909973	1.49000001	200	0	0
-3.08200002	6.99919987	1.49199998	200	0	0
-3.07999992	6.99979973	1.50999999	200	0	0
-3.08400011	6.99969959	1.50899994	200	0	0
-3.08100009	6.99979973	1.50399995	200	0	0
-3.08500004	6.99969959	1.50300002	200	0	0
-3.08100009	6.99979973	1.49800003	200	0	0
-3.08800006	6.99969959	1.49600005	200	0	0
-3.08100009	6.99979973	1.49199998	200	0	0
-3.08400011	6.99919987	1.49699998	200	0	0
-3.08299994	6.99919987	1.50399995	200	0	0
-3.08699989	6.99909973	1.50199997	200	0	0
-3.08599997	6.99909973	1.49699998	200	0	0
-3.08100009	6.99919987	1.50999999	200	0	0
-3.08299994	6.99979973	1.52100003	200	0	0
-3.08400011	6.99919987	1.52100003	200	0	0
-3.08800006	6.99909973	1.51999998	200	0	0
-3.08400011	6.99919987	1.52699995	200	0	0
-3.08899999	6.99909973	1.52499998	200	0	0
-3.08299994	6.99979973	1.52699995	200	0	0
-3.08699989	6.99969959	1.52600002	200	0	0
-3.08299994	6.99919987	1.53900003	200	0	0
-3.08599997	6.99909973	1.53799999	200	0	0
-3.08500004	6.99909973	1.53199995	200	0	0
-3.08599997	6.99919987	1.53199995	200	0	0
-3.08100009	6.99979973	1.53999996	200	0	0
-3.08200002	6.99969959	1.53900003	200	0	0
-3.08100009	6.99979973	1.53400004	200	0	0
-3.08699989	6.99969959	1.53199995	200	0	0
-3.08999991	6.99909973	1.55999994	200	0	0
-3.08500004	6.99919987	1.55599999	200	0	0
-3.08699989	6.99909973	1.55499995	200	0	0
-3.08400011	6.99919987	1.54999995	200	0	0
-3.08599997	6.99909973	1.54900002	200	0	0
-3.08299994	6.99979973	1.551	200	0	0
-3.08599997	6.99969959	1.54999995	200	0	0
-3.08100009	6.99979973	1.56900001	200	0	0
-3.09100008	6.99969959	1.56599998	200	0	0
-3.08400011	6.99969959	1.56200004	200	0	0
-3.079	6.99979973	1.56299996	200	0	0
-3.08400011	6.99979973	1.55599999	200	0	0
-3.08599997	6.99969959	1.55499995	200	0	0
-3.08599997	6.99919987	1.579	200	0	0
-3.08899999	6.99909973	1.57799995	200	0	0
-3.08500004	6.99919987	1.56700003	200	0	0
-3.08899999	6.99909973	1.56599998	200	0	0
-3.08299994	6.99919987	1.56200004	200	0	0
-3.08699989	6.99969959	1.59000003	200	0	0
-3.09699988	6.99960041	1.58700001	200	0	0
-3.08400011	6.99979973	1.58500004	200	0	0
-3.08899999	6.99969959	1.58399999	200	0	0
-3.09800005	6.99960041	1.58099997	200	0	0
-3.08400011	6.99979973	1.579	200	0	0
-3.09699988	6.99960041	1.57599998	200	0	0
-3.09299994	6.99969959	1.57700002	200	0	0
-3.08400011	6.99919987	1.58500004	200	0	0
-3.08899999	6.99909973	1.58399999	200	0	0
-3.08200002	6.99919987	1.59099996	200	0	0
-3.08800006	6.99909973	1.59000003	200	0	0
-3.08500004	6.99979973	1.60800004	200	0	0
-3.08800006	6.99969959	1.60699999	200	0	0
-3.09800005	6.99960041	1.59300005	200	0	0
-3.08200002	6.99979973	1.597	200	0	0
-3.09200001	6.99969959	1.59500003	200	0	0
-3.08200002	6.99979973	1.59200001	200	0	0
-3.08599997	6.99909973	1.59599996	200	0	0
-3.08400011	6.99919987	1.597	200	0	0
-3.08699989	6.99919987	1.60699999	200	0	0
-3.08699989	6.99969959	1.61899996	200	0	0
-3.09299994	6.99960041	1.61699998	200	0	0
-3.08599997	6.99979973	1.61899996	200	0	0
-3.08299994	6.99979973	1.61399996	200	0	0
-3.09500003	6.99960041	1.61099994	200	0	0
-3.09599996	6.99969959	1.61099994	200	0	0
-3.08400011	6.99919987	1.62	200	0	0
-3.08599997	6.99909973	1.61899996	200	0	0
-3.08500004	6.99919987	1.61399996	200	0	0
-3.08899999	6.99909973	1.61300004	200	0	0
-3.08599997	6.99919987	1.625	200	0	0
-3.09100008	6.99909973	1.62399995	200	0	0
-3.08299994	6.99979973	1.62600005	200	0	0
-3.0940001	6.99960041	1.62300003	200	0	0
-3.08800006	6.99969959	1.625	200	0	0
-3.08999991	6.99909973	1.63600004	200	0	0
-3.08899999	6.99919987	1.63600004	200	0	0
-3.0940001	6.99960041	1.63499999	200	0	0
-3.08999991	6.99969959	1.63600004	200	0	0
-3.08699989	6.99979973	1.63600004	200	0	0
-3.09800005	6.99950027	1.65100002	200	0	0
-3.09500003	6.99960041	1.64600003	200	0	0
-3.08599997	6.99919987	1.65400004	200	0	0
-3.09500003	6.99960041	1.63999999	200	0	0
-3.08599997	6.99909973	1.65400004	200	0	0
-3.08699989	6.99919987	1.648	200	0	0
-3.08699989	6.99919987	1.64199996	200	0	0
-3.09200001	6.99909973	1.64100003	200	0	0
-3.08999991	6.99969959	1.64100003	200	0	0
-3.08299994	6.99979973	1.64900005	200	0	0
-3.08699989	6.99969959	1.648	200	0	0
-3.08400011	6.99979973	1.64300001	200	0	0
-3.08599997	6.99979973	1.66600001	200	0	0
-3.09500003	6.99960041	1.66299999	200	0	0
-3.09100008	6.99969959	1.66400003	200	0	0
-3.0940001	6.99960041	1.65199995	200	0	0
-3.08500004	6.99979973	1.65400004	200	0	0
-3.0999999	6.99950027	1.67299998	200	0	0
-3.10299993	6.99960041	1.66700006	200	0	0
-3.08699989	6.99919987	1.67700005	200	0	0
-3.09100008	6.99909973	1.67499995	200	0	0
-3.10299993	6.99950027	1.66700006	200	0	0
-3.08800006	6.99919987	1.671	200	0	0
-3.09100008	6.99909973	1.66999996	200	0	0
-3.08800006	6.99909973	1.66499996	200	0	0
-3.08800006	6.99919987	1.66499996	200	0	0
-3.08400011	6.99979973	1.68299997	200	0	0
-3.10100007	6.99950027	1.67900002	200	0	0
-3.09599996	6.99960041	1.67999995	200	0	0
-3.08500004	6.99979973	1.67700005	200	0	0
-3.08699989	6.99969959	1.67700005	200	0	0
-3.0999999	6.99960041	1.67299998	200	0	0
-3.08800006	6.99979973	1.671	200	0	0
-3.08599997	6.99969959	1.671	200	0	0
-3.08800006	6.99919987	1.68200004	200	0	0
-3.08999991	6.99909973	1.68099999	200	0	0
-3.08400011	6.99979973	1.70599997	200	0	0
-3.08899999	6.99969959	1.70500004	200	0	0
-3.0999999	6.99950027	1.69599998	200	0	0
-3.08500004	6.99979973	1.70000005	200	0	0
-3.09899998	6.99960041	1.69599998	200	0	0
-3.09100008	6.99969959	1.69799995	200	0	0
-3.09899998	6.99950027	1.69099998	200	0	0
-3.08699989	6.99979973	1.69400001	200	0	0
-3.09100008	6.99969959	1.69299996	200	0	0
-3.0999999	6.99960041	1.69000006	200	0	0
-3.09699988	6.99950027	1.70299995	200	0	0
-3.08599997	6.99919987	1.69400001	200	0	0
-3.09500003	6.99909973	1.69200003	200	0	0
-3.08500004	6.99919987	1.70599997	200	0	0
-3.09299994	6.99909973	1.704	200	0	0
-3.08999991	6.99919987	1.699	200	0	0
-3.09200001	6.99909973	1.69799995	200	0	0
-3.09599996	6.99950027	1.70899999	200	0	0
-3.08599997	6.99979973	1.71099997	200	0	0
-3.08999991	6.99969959	1.71000004	200	0	0
-3.08800006	6.99919987	1.71099997	200	0	0
-3.08999991	6.99909973	1.71000004	200	0	0
-3.09800005	6.99950027	1.71899998	200	0	0
-3.08800006	6.99919987	1.722	200	0	0
-3.08999991	6.99909973	1.72099996	200	0	0
-3.08800006	6.99979973	1.722	200	0	0
-3.09299994	6.99969959	1.72099996	200	0	0
-3.08699989	6.99919987	1.73399997	200	0	0
-3.09800005	6.99950027	1.72500002	200	0	0
-3.09200001	6.99909973	1.73199999	200	0	0
-3.09100008	6.99919987	1.727	200	0	0
-3.0940001	6.99909973	1.72599995	200	0	0
-3.0999999	6.99950027	1.73000002	200	0	0
-3.08699989	6.99979973	1.72800004	200	0	0
-3.09299994	6.99969959	1.72599995	200	0	0
-3.08599997	6.99979973	1.73399997	200	0	0
-3.09899998	6.99950027	1.74800003	200	0	0
-3.08999991	6.99909973	1.73800004	200	0	0
-3.08699989	6.99979973	1.73899996	200	0	0
-3.08899999	6.99919987	1.73899996	200	0	0
-3.09200001	6.99969959	1.73800004	200	0	0
-3.09699988	6.99950027	1.73699999	200	0	0
-3.09100008	6.99919987	1.75	200	0	0
-3.0940001	6.99909973	1.74899995	200	0	0
-3.10100007	6.99950027	1.75899994	200	0	0
-3.08800006	6.99979973	1.76199996	200	0	0
-3.08999991	6.99969959	1.76100004	200	0	0
-3.102	6.99950027	1.75300002	200	0	0
-3.08599997	6.99979973	1.75699997	200	0	0
-3.09200001	6.99969959	1.755	200	0	0
-3.09100008	6.99969959	1.75	200	0	0
-3.08800006	6.99979973	1.75	200	0	0
-3.08899999	6.99919987	1.76699996	200	0	0
-3.0940001	6.99909973	1.75999999	200	0	0
-3.0940001	6.99969959	1.76600003	200	0	0
-3.08999991	6.99919987	1.76100004	200	0	0
-3.09899998	6.99950027	1.76499999	200	0	0
-3.09100008	6.99909973	1.755	200	0	0
-3.08999991	6.99919987	1.755	200	0	0
-3.09899998	6.99950027	1.77600002	200	0	0
-3.08999991	6.99969959	1.778	200	0	0
-3.08999991	6.99979973	1.778	200	0	0
-3.08599997	6.99979973	1.76800001	200	0	0
-3.08899999	6.99919987	1.778	200	0	0
-3.09500003	6.99909973	1.77699995	200	0	0
-3.08999991	6.99919987	1.78400004	200	0	0
-3.09899998	6.99940014	1.79299998	200	0	0
-3.09899998	6.99940014	1.78699994	200	0	0
-3.08699989	6.99979973	1.796	200	0	0
-3.09200001	6.99969959	1.79499996	200	0	0
-3.10400009	6.99950027	1.78600001	200	0	0
-3.10100007	6.99940014	1.78100002	200	0	0
-3.08800006	6.99979973	1.78999996	200	0	0
-3.09100008	6.99969959	1.78900003	200	0	0
-3.10100007	6.99950027	1.78100002	200	0	0
-3.0940001	6.99969959	1.78299999	200	0	0
-3.08999991	6.99979973	1.78400004	200	0	0
-3.08800006	6.99919987	1.78999996	200	0	0
-3.09200001	6.99909973	1.78299999	200	0	0
-3.09500003	6.99909973	1.79400003	200	0	0
-3.08999991	6.99919987	1.79499996	200	0	0
-3.09299994	6.99969959	1.80599999	200	0	0
-3.10100007	6.99940014	1.80400002	200	0	0
-3.08899999	6.99979973	1.80700004	200	0	0
-3.09100008	6.99919987	1.80599999	200	0	0
-3.09599996	6.99909973	1.80499995	200	0	0
-3.0999999	6.99909973	1.80999994	200	0	0
-3.08899999	6.99979973	1.81200004	200	0	0
-3.09100008	6.99919987	1.81200004	200	0	0
-3.09899998	6.99940014	1.81599998	200	0	0
-3.08999991	6.99969959	1.81200004	200	0	0
-3.0999999	6.99940014	1.80999994	200	0	0
-3.0940001	6.99909973	1.81700003	200	0	0
-3.08999991	6.99919987	1.81700003	200	0	0
-3.08800006	6.99979973	1.81799996	200	0	0
-3.09200001	6.99969959	1.81700003	200	0	0
-3.09500003	6.99909973	1.83299994	200	0	0
-3.10500002	6.9993	1.83099997	200	0	0
-3.10100007	6.99940014	1.82099998	200	0	0
-3.08899999	6.99919987	1.82299995	200	0	0
-3.09299994	6.99969959	1.82200003	200	0	0
-3.08899999	6.99979973	1.82299995	200	0	0
-3.09299994	6.99969959	1.84500003	200	0	0
-3.08999991	6.99979973	1.84000003	200	0	0
-3.09200001	6.99919987	1.84000003	200	0	0
-3.10500002	6.9993	1.84200001	200	0	0
-3.10100007	6.99940014	1.84300005	200	0	0
-3.09500003	6.99969959	1.83899999	200	0	0
-3.08999991	6.99979973	1.83399999	200	0	0
-3.09100008	6.99919987	1.83399999	200	0	0
-3.10500002	6.9993	1.83700001	200	0	0
-3.10500002	6.99940014	1.83700001	200	0	0
-3.09899998	6.99940014	1.83200002	200	0	0
-3.09299994	6.99909973	1.84500003	200	0	0
-3.09200001	6.99919987	1.84500003	200	0	0
-3.08699989	6.99979973	1.852	200	0	0
-3.09100008	6.99919987	1.85099995	200	0	0
-3.08800006	6.99979973	1.84599996	200	0	0
-3.10400009	6.99940014	1.84800005	200	0	0
-3.09699988	6.99909973	1.86600006	200	0	0
-3.10299993	6.9993	1.86500001	200	0	0
-3.10299993	6.99940014	1.86000001	200	0	0
-3.09100008	6.99919987	1.86199999	200	0	0
-3.09599996	6.99909973	1.86099994	200	0	0
-3.10500002	6.9993	1.85899997	200	0	0
-3.09100008	6.99909973	1.85099995	200	0	0
-3.09100008	6.99979973	1.86199999	200	0	0
-3.09800005	6.99969959	1.86099994	200	0	0
-3.09500003	6.99969959	1.87300003	200	0	0
-3.08899999	6.99979973	1.86800003	200	0	0
-3.10100007	6.9993	1.87100005	200	0	0
-3.09100008	6.99919987	1.86800003	200	0	0
-3.0940001	6.99969959	1.86699998	200	0	0
-3.10500002	6.99940014	1.86500001	200	0	0
-3.08999991	6.99979973	1.87399995	200	0	0
-3.08800006	6.99919987	1.87399995	200	0	0
-3.09599996	6.99909973	1.87199998	200	0	0
-3.08999991	6.99919987	1.87899995	200	0	0
-3.09899998	6.9993	1.87699997	200	0	0
-3.09200001	6.99919987	1.88999999	200	0	0
-3.10100007	6.9993	1.88800001	200	0	0
-3.09100008	6.99979973	1.87899995	200	0	0
-3.09500003	6.99969959	1.89499998	200	0	0
-3.08999991	6.99979973	1.88999999	200	0	0
-3.09599996	6.99969959	1.88900006	200	0	0
-3.09599996	6.99909973	1.88900006	200	0	0
-3.09899998	6.99909973	1.89400005	200	0	0
-3.10100007	6.9993	1.89300001	200	0	0
-3.09200001	6.99979973	1.90100002	200	0	0
-3.09500003	6.99969959	1.89999998	200	0	0
-3.08999991	6.99979973	1.89600003	200	0	0
-3.09299994	6.99919987	1.90100002	200	0	0
-3.102	6.9993	1.89900005	200	0	0
-3.09500003	6.99919987	1.89499998	200	0	0
-3.09200001	6.99969959	1.90600002	200	0	0
-3.10299993	6.9993	1.90400004	200	0	0
-3.09800005	6.99909973	1.89999998	200	0	0
-3.09299994	6.99919987	1.90600002	200	0	0
-3.09100008	6.99979973	1.90699995	200	0	0
-3.10400009	6.9993	1.91499996	200	0	0
-3.09299994	6.99969959	1.91700006	200	0	0
-3.09299994	6.99979973	1.91700006	200	0	0
-3.10599995	6.9993	1.926	200	0	0
-3.0940001	6.99919987	1.92799997	200	0	0
-3.10599995	6.9993	1.921	200	0	0
-3.09500003	6.99919987	1.92299998	200	0	0
-3.09599996	6.99909973	1.92200005	200	0	0
-3.09500003	6.99919987	1.91700006	200	0	0
-3.09500003	6.99909973	1.91700006	200	0	0
-3.10400009	6.9993	1.93200004	200	0	0
-3.09299994	6.99979973	1.93400002	200	0	0
-3.09500003	6.99969959	1.93400002	200	0	0
-3.09200001	6.99979973	1.92900002	200	0	0
-3.09599996	6.99969959	1.92799997	200	0	0
-3.09299994	6.99979973	1.92299998	200	0	0
-3.09200001	6.99969959	1.92299998	200	0	0
-3.09599996	6.99909973	1.93299997	200	0	0
-3.09699988	6.99919987	1.93299997	200	0	0
-3.10800004	6.9993	1.94200003	200	0	0
-3.0999999	6.99909973	1.94400001	200	0	0
-3.09599996	6.99969959	1.95000005	200	0	0
-3.09500003	6.99979973	1.95000005	200	0	0
-3.09599996	6.99969959	1.94500005	200	0	0
-3.09200001	6.99979973	1.94500005	200	0	0
-3.09500003	6.99919987	1.95000005	200	0	0
-3.0999999	6.99909973	1.949	200	0	0
-3.10700011	6.9993	1.94799995	200	0	0
-3.09500003	6.99919987	1.94500005	200	0	0
-3.08800006	6.99919987	1.96300006	200	0	0
-3.11299992	6.9993	1.95799994	200	0	0
-3.09599996	6.99909973	1.96099997	200	0	0
-3.09100008	6.99919987	1.95700002	200	0	0
-3.09899998	6.9993	1.95500004	200	0	0
-3.10100007	6.99909973	1.95500004	200	0	0
-3.09699988	6.99969959	1.95500004	200	0	0
-3.10700011	7.00010014	1.954	200	0	0
-3.09299994	6.99979973	1.95599997	200	0	0
-3.09599996	7.00010014	1.95000005	200	0	0
-3.09800005	6.99969959	1.972	200	0	0
-3.11899996	7.00010014	1.95700002	200	0	0
-3.0940001	6.99979973	1.96200001	200	0	0
-3.0940001	6.99969959	1.96200001	200	0	0
-3.09299994	6.99979973	1.97300005	200	0	0
-3.09899998	6.99909973	1.972	200	0	0
-3.09899998	6.99909973	1.977	200	0	0
-3.08400011	6.99919987	1.97399998	200	0	0
-3.09500003	6.99919987	1.98899996	200	0	0
-3.09899998	6.99909973	1.98800004	200	0	0
-3.09500003	6.99919987	1.98300004	200	0	0
-3.10100007	6.99909973	1.98199999	200	0	0
-3.08699989	6.99919987	1.97899997	200	0	0
-3.09500003	6.99969959	1.97800004	200	0	0
-3.0940001	6.99979973	1.97800004	200	0	0
-3.09299994	6.99979973	1.98899996	200	0	0
-3.09100008	6.99979973	1.98399997	200	0	0
-3.09599996	6.99969959	1.98300004	200	0	0
-3.09299994	6.99979973	2	200	0	0
-3.09899998	6.99969959	1.99899995	200	0	0
-3.09500003	6.99919987	2	200	0	0
-3.09899998	6.99909973	1.99899995	200	0	0
-3.09500003	6.99979973	2.00500011	200	0	0
-3.0999999	6.99909973	2.00500011	200	0	0
-3.09500003	6.99919987	2.00500011	200	0	0
-3.0999999	6.99909973	2.00999999	200	0	0
-3.0940001	6.99919987	2.01099992	200	0	0
-3.09500003	6.99979973	2.01600003	200	0	0
-3.09500003	6.99969959	2.01600003	200	0	0
-3.0940001	6.99979973	2.01099992	200	0	0
-3.09599996	6.99969959	2.01099992	200	0	0
-3.09599996	6.99909973	2.01600003	200	0	0
-3.09500003	6.99919987	2.01600003	200	0	0
-3.102	6.99909973	2.02600002	200	0	0
-3.09299994	6.99919987	2.02800012	200	0	0
-3.09699988	6.99969959	2.03299999	200	0	0
-3.09699988	6.99979973	2.03299999	200	0	0
-3.09699988	6.99969959	2.02699995	200	0	0
-3.09500003	6.99979973	2.02699995	200	0	0
-3.10100007	6.99909973	2.03200006	200	0	0
-3.09500003	6.99919987	2.03800011	200	0	0
-3.09500003	6.99919987	2.03299999	200	0	0
-3.10100007	6.99909973	2.04299998	200	0	0
-3.09500003	6.99979973	2.04399991	200	0	0
-3.09899998	6.99969959	2.04299998	200	0	0
-3.09599996	6.99979973	2.03800011	200	0	0
-3.09500003	6.99969959	2.03800011	200	0	0
-3.09500003	6.99919987	2.04399991	200	0	0
-3.102	6.99909973	2.05900002	200	0	0
-3.09699988	6.99919987	2.05999994	200	0	0
-3.10100007	6.99909973	2.0539999	200	0	0
-3.0999999	6.99919987	2.0539999	200	0	0
-3.0940001	6.99979973	2.05500007	200	0	0
-3.09699988	6.99979973	2.0710001	200	0	0
-3.09800005	6.99969959	2.0710001	200	0	0
-3.09800005	7.00010014	2.05999994	200	0	0
-3.0940001	6.99979973	2.06599998	200	0	0
-3.09800005	6.99969959	2.06500006	200	0	0
-3.09699988	6.99979973	2.05999994	200	0	0
-3.09599996	6.99969959	2.05999994	200	0	0
-3.09699988	6.99919987	2.0710001	200	0	0
-3.09899998	6.99909973	2.0710001	200	0	0
-3.09599996	6.99919987	2.06599998	200	0	0
-3.0999999	6.99909973	2.06500006	200	0	0
-3.09899998	6.99919987	2.08699989	200	0	0
-3.09699988	6.99919987	2.08200002	200	0	0
-3.102	6.99909973	2.08100009	200	0	0
-3.09500003	6.99979973	2.08800006	200	0	0
-3.09899998	6.99969959	2.08699989	200	0	0
-3.09599996	6.99979973	2.08200002	200	0	0
-3.10100007	6.99969959	2.08100009	200	0	0
-3.0999999	6.99969959	2.09800005	200	0	0
-3.09699988	6.99979973	2.09800005	200	0	0
-3.09899998	6.99969959	2.09299994	200	0	0
-3.09699988	6.99979973	2.09299994	200	0	0
-3.09899998	6.99909973	2.09800005	200	0	0
-3.09699988	6.99919987	2.09800005	200	0	0
-3.09699988	6.99919987	2.09299994	200	0	0
-3.10100007	6.99909973	2.09200001	200	0	0
-3.09899998	6.99919987	2.10899997	200	0	0
-3.10100007	6.99909973	2.10899997	200	0	0
-3.09800005	6.99979973	2.11500001	200	0	0
-3.102	6.99969959	2.11400008	200	0	0
-3.10100007	6.99969959	2.10899997	200	0	0
-3.09500003	6.99979973	2.10899997	200	0	0
-3.09899998	6.99919987	2.11400008	200	0	0
-3.10299993	6.99909973	2.125	200	0	0
-3.09699988	6.99919987	2.11999989	200	0	0
-3.102	6.99909973	2.11899996	200	0	0
-3.09200001	6.99919987	2.12599993	200	0	0
-3.0999999	6.99969959	2.125	200	0	0
-3.09500003	6.99979973	2.11999989	200	0	0
-3.09100008	6.99919987	2.13700008	200	0	0
-3.10400009	6.99909973	2.13599992	200	0	0
-3.10100007	6.99909973	2.14100003	200	0	0
-3.09899998	6.99979973	2.14199996	200	0	0
-3.10500002	6.99969959	2.14100003	200	0	0
-3.10100007	6.99969959	2.13599992	200	0	0
-3.09100008	6.99919987	2.14199996	200	0	0
-3.09899998	6.99919987	2.15199995	200	0	0
-3.10500002	6.99909973	2.15199995	200	0	0
-3.09699988	6.99919987	2.14700007	200	0	0
-3.10100007	6.99909973	2.14700007	200	0	0
-3.0999999	6.99969959	2.15199995	200	0	0
-3.09899998	6.99979973	2.15199995	200	0	0
-3.10299993	6.99969959	2.14700007	200	0	0
-3.09899998	6.99979973	2.14700007	200	0	0
-3.09699988	6.99979973	2.16899991	200	0	0
-3.10299993	6.99969959	2.16799998	200	0	0
-3.10299993	6.99969959	2.16300011	200	0	0
-3.09899998	6.99979973	2.16300011	200	0	0
-3.09699988	6.99919987	2.16899991	200	0	0
-3.10299993	6.99909973	2.16799998	200	0	0
-3.11100006	6.9993	2.16700006	200	0	0
-3.102	6.99909973	2.16300011	200	0	0
-3.11100006	6.9993	2.16199994	200	0	0
-3.0999999	6.99919987	2.16300011	200	0	0
-3.09899998	6.99919987	2.18000007	200	0	0
-3.10299993	6.99909973	2.1789999	200	0	0
-3.1099999	6.9993	2.17799997	200	0	0
-3.102	6.99909973	2.17400002	200	0	0
-3.1099999	6.9993	2.1730001	200	0	0
-3.09800005	6.99919987	2.17400002	200	0	0
-3.09599996	6.99979973	2.18000007	200	0	0
-3.09899998	6.99969959	2.17400002	200	0	0
-3.09899998	6.99979973	2.17400002	200	0	0
-3.09800005	6.99979973	2.1960001	200	0	0
-3.10299993	6.99969959	2.1960001	200	0	0
-3.09800005	6.99979973	2.19099998	200	0	0
-3.10400009	6.99969959	2.19000006	200	0	0
-3.11199999	6.9993	2.19499993	200	0	0
-3.09899998	6.99919987	2.1960001	200	0	0
-3.10500002	6.99909973	2.19499993	200	0	0
-3.0999999	6.99919987	2.19000006	200	0	0
-3.10700011	6.99909973	2.19000006	200	0	0
-3.11199999	6.9993	2.20600009	200	0	0
-3.0999999	6.99919987	2.20700002	200	0	0
-3.10400009	6.99909973	2.20600009	200	0	0
-3.102	6.99909973	2.20099998	200	0	0
-3.1099999	6.9993	2.20000005	200	0	0
-3.10100007	6.99919987	2.20099998	200	0	0
-3.0999999	6.99979973	2.20700002	200	0	0
-3.10299993	6.99969959	2.20600009	200	0	0
-3.10100007	6.99969959	2.20099998	200	0	0
-3.09899998	6.99979973	2.20099998	200	0	0
-3.1099999	6.9993	2.22199988	200	0	0
-3.0999999	6.99919987	2.22300005	200	0	0
-3.10500002	6.99909973	2.22199988	200	0	0
-3.1099999	6.9993	2.21700001	200	0	0
-3.0999999	6.99919987	2.21700001	200	0	0
-3.10500002	6.99909973	2.21700001	200	0	0
-3.09899998	6.99979973	2.22300005	200	0	0
-3.102	6.99969959	2.22300005	200	0	0
-3.09599996	6.99979973	2.21799994	200	0	0
-3.102	6.99969959	2.21700001	200	0	0
-3.11100006	6.9993	2.23300004	200	0	0
-3.10100007	6.99909973	2.23399997	200	0	0
-3.09899998	6.99919987	2.23399997	200	0	0
-3.11100006	6.9993	2.227	200	0	0
-3.10400009	6.99909973	2.22799993	200	0	0
-3.0999999	6.99919987	2.22799993	200	0	0
-3.10299993	6.99969959	2.23399997	200	0	0
-3.10100007	6.99979973	2.23399997	200	0	0
-3.10400009	6.99969959	2.22799993	200	0	0
-3.0999999	6.99979973	2.22799993	200	0	0
-3.11299992	6.9993	2.24900007	200	0	0
-3.102	6.99919987	2.25	200	0	0
-3.10700011	6.99909973	2.24900007	200	0	0
-3.11100006	6.9993	2.24399996	200	0	0
-3.10100007	6.99919987	2.24399996	200	0	0
-3.0999999	6.99979973	2.25	200	0	0
-3.10500002	6.99969959	2.25	200	0	0
-3.0999999	6.99979973	2.24499989	200	0	0
-3.10400009	6.99969959	2.24399996	200	0	0
-3.10700011	6.9993	2.25500011	200	0	0
-3.11299992	6.99940014	2.25399995	200	0	0
-3.102	6.99969959	2.26099992	200	0	0
-3.09800005	6.99979973	2.26099992	200	0	0
-3.102	6.99969959	2.25500011	200	0	0
-3.09899998	6.99979973	2.25500011	200	0	0
-3.11400008	6.99940014	2.25999999	200	0	0
-3.10299993	6.99909973	2.26099992	200	0	0
-3.10400009	6.99909973	2.25500011	200	0	0
-3.10100007	6.99919987	2.25500011	200	0	0
-3.11500001	6.99940014	2.27600002	200	0	0
-3.10599995	6.99909973	2.27699995	200	0	0
-3.11100006	6.9993	2.27600002	200	0	0
-3.10299993	6.99919987	2.27699995	200	0	0
-3.11100006	6.99940014	2.27099991	200	0	0
-3.11199999	6.9993	2.27099991	200	0	0
-3.10899997	6.99909973	2.27099991	200	0	0
-3.10400009	6.99919987	2.27099991	200	0	0
-3.10500002	6.99969959	2.27699995	200	0	0
-3.10100007	6.99979973	2.27699995	200	0	0
-3.10100007	6.99979973	2.27200007	200	0	0
-3.11299992	6.99940014	2.28200006	200	0	0
-3.10299993	6.99969959	2.28800011	200	0	0
-3.0999999	6.99979973	2.28800011	200	0	0
-3.102	6.99969959	2.28200006	200	0	0
-3.10100007	6.99979973	2.28200006	200	0	0
-3.10100007	6.99919987	2.28200006	200	0	0
-3.10299993	6.99909973	2.28800011	200	0	0
-3.10299993	6.99919987	2.28800011	200	0	0
-3.11400008	6.9993	2.28699994	200	0	0
-3.10800004	6.99909973	2.28200006	200	0	0
-3.10400009	6.99919987	2.3039999	200	0	0
-3.11199999	6.99940014	2.30299997	200	0	0
-3.11199999	6.9993	2.30299997	200	0	0
-3.10299993	6.99909973	2.2980001	200	0	0
-3.10400009	6.99919987	2.2980001	200	0	0
-3.11199999	6.99940014	2.2980001	200	0	0
-3.11400008	6.9993	2.2980001	200	0	0
-3.10500002	6.99909973	2.3039999	200	0	0
-3.10299993	6.99969959	2.3039999	200	0	0
-3.0999999	6.99979973	2.3039999	200	0	0
-3.10700011	6.99969959	2.2980001	200	0	0
-3.10299993	6.99979973	2.2980001	200	0	0
-3.10500002	6.99969959	2.30900002	200	0	0
-3.10700011	6.99909973	2.31399989	200	0	0
-3.10299993	6.99919987	2.31500006	200	0	0
-3.11199999	6.99940014	2.31399989	200	0	0
-3.10599995	6.99909973	2.30900002	200	0	0
-3.102	6.99919987	2.30900002	200	0	0
-3.10500002	6.99969959	2.31500006	200	0	0
-3.102	6.99979973	2.31500006	200	0	0
-3.10100007	6.99979973	2.30900002	200	0	0
-3.10299993	6.99919987	2.33100009	200	0	0
-3.11100006	6.99940014	2.32999992	200	0	0
-3.10299993	6.99919987	2.32500005	200	0	0
-3.11199999	6.99940014	2.32500005	200	0	0
-3.10400009	6.99909973	2.33100009	200	0	0
-3.10100007	6.99979973	2.33100009	200	0	0
-3.10299993	6.99969959	2.33100009	200	0	0
-3.102	6.99979973	2.32500005	200	0	0
-3.10700011	6.99969959	2.32500005	200	0	0
-3.1099999	6.99909973	2.34100008	200	0	0
-3.11299992	6.99950027	2.34100008	200	0	0
-3.10299993	6.99919987	2.34200001	200	0	0
-3.11100006	6.99940014	2.34100008	200	0	0
-3.10500002	6.99919987	2.33599997	200	0	0
-3.1099999	6.99940014	2.33599997	200	0	0
-3.102	6.99979973	2.34200001	200	0	0
-3.10599995	6.99969959	2.34100008	200	0	0
-3.10100007	6.99979973	2.33599997	200	0	0
-3.11599994	6.99950027	2.352	200	0	0
-3.10700011	6.99909973	2.352	200	0	0
-3.11100006	6.99940014	2.352	200	0	0
-3.10500002	6.99919987	2.352	200	0	0
-3.10400009	6.99979973	2.35800004	200	0	0
-3.10299993	6.99979973	2.352	200	0	0
-3.10500002	6.99969959	2.352	200	0	0
-3.11500001	6.99940014	2.35700011	200	0	0
-3.10700011	6.99919987	2.35800004	200	0	0
-3.10599995	6.99909973	2.35800004	200	0	0
-3.10599995	6.99909973	2.36800003	200	0	0
-3.10899997	6.99969959	2.36800003	200	0	0
-3.10400009	6.99979973	2.36299992	200	0	0
-3.10800004	6.99919987	2.36800003	200	0	0
-3.10400009	6.99969959	2.36299992	200	0	0
-3.11400008	6.99950027	2.36800003	200	0	0
-3.10800004	6.99909973	2.36299992	200	0	0
-3.11400008	6.99940014	2.36800003	200	0	0
-3.10500002	6.99919987	2.36299992	200	0	0
-3.11400008	6.99950027	2.36299992	200	0	0
-3.11599994	6.99940014	2.36299992	200	0	0
-3.102	6.99979973	2.36899996	200	0	0
-3.10400009	6.99919987	2.37899995	200	0	0
-3.11599994	6.99950027	2.37899995	200	0	0
-3.11500001	6.99940014	2.37899995	200	0	0
-3.11400008	6.99950027	2.38400006	200	0	0
-3.10400009	6.99979973	2.38499999	200	0	0
-3.10700011	6.99969959	2.38499999	200	0	0
-3.10100007	6.99979973	2.37899995	200	0	0
-3.10400009	6.99969959	2.37899995	200	0	0
-3.1099999	6.99909973	2.37899995	200	0	0
-3.10599995	6.99919987	2.38499999	200	0	0
-3.11100006	6.99909973	2.38400006	200	0	0
-3.11199999	6.99940014	2.38400006	200	0	0
-3.10400009	6.99969959	2.3900001	200	0	0
-3.11500001	6.99950027	2.39499998	200	0	0
-3.1170001	6.99940014	2.39499998	200	0	0
-3.11500001	6.99950027	2.3900001	200	0	0
-3.10599995	6.99909973	2.39499998	200	0	0
-3.10599995	6.99919987	2.39499998	200	0	0
-3.11599994	6.99940014	2.3900001	200	0	0
-3.1099999	6.99909973	2.3900001	200	0	0
-3.10500002	6.99919987	2.3900001	200	0	0
-3.10500002	6.99969959	2.39499998	200	0	0
-3.10299993	6.99979973	2.3900001	200	0	0
-3.10599995	6.99979973	2.39499998	200	0	0
-3.11299992	6.99950027	2.4059999	200	0	0
-3.10400009	6.99979973	2.4059999	200	0	0
-3.10599995	6.99969959	2.4059999	200	0	0
-3.10500002	6.99919987	2.41199994	200	0	0
-3.1099999	6.99909973	2.41199994	200	0	0
-3.10400009	6.99919987	2.4059999	200	0	0
-3.10800004	6.99909973	2.4059999	200	0	0
-3.11400008	6.99950027	2.41100001	200	0	0
-3.10500002	6.99979973	2.41199994	200	0	0
-3.10400009	6.99969959	2.41199994	200	0	0
-3.11500001	6.99950027	2.42199993	200	0	0
-3.11500001	6.99950027	2.41700006	200	0	0
-3.10800004	6.99919987	2.42199993	200	0	0
-3.10899997	6.99909973	2.41700006	200	0	0
-3.10700011	6.99919987	2.41700006	200	0	0
-3.10400009	6.99969959	2.42199993	200	0	0
-3.10299993	6.99979973	2.41700006	200	0	0
-3.102	6.99979973	2.42199993	200	0	0
-3.10700011	6.99919987	2.43899989	200	0	0
-3.10800004	6.99909973	2.43899989	200	0	0
-3.10400009	6.99919987	2.43300009	200	0	0
-3.10899997	6.99909973	2.43300009	200	0	0
-3.11599994	6.99960041	2.43799996	200	0	0
-3.10400009	6.99979973	2.43300009	200	0	0
-3.1170001	6.99950027	2.43799996	200	0	0
-3.10500002	6.99969959	2.43300009	200	0	0
-3.11500001	6.99950027	2.43300009	200	0	0
-3.10400009	6.99979973	2.43899989	200	0	0
-3.10599995	6.99969959	2.44899988	200	0	0
-3.11400008	6.99960041	2.44899988	200	0	0
-3.10400009	6.99919987	2.44400001	200	0	0
-3.10500002	6.99979973	2.44400001	200	0	0
-3.1170001	6.99950027	2.44899988	200	0	0
-3.10599995	6.99969959	2.44400001	200	0	0
-3.11599994	6.99960041	2.44400001	200	0	0
-3.1170001	6.99950027	2.44400001	200	0	0
-3.10800004	6.99919987	2.44899988	200	0	0
-3.10800004	6.99909973	2.44899988	200	0	0
-3.10500002	6.99979973	2.44899988	200	0	0
-3.10599995	6.99919987	2.46600008	200	0	0
-3.1099999	6.99909973	2.46499991	200	0	0
-3.10800004	6.99919987	2.46000004	200	0	0
-3.10899997	6.99909973	2.46000004	200	0	0
-3.11800003	6.99950027	2.46499991	200	0	0
-3.10500002	6.99979973	2.46600008	200	0	0
-3.1170001	6.99960041	2.46499991	200	0	0
-3.1099999	6.99969959	2.46499991	200	0	0
-3.11999989	6.99950027	2.46000004	200	0	0
-3.1170001	6.99960041	2.46000004	200	0	0
-3.10700011	6.99979973	2.46000004	200	0	0
-3.1099999	6.99969959	2.46000004	200	0	0
-3.11100006	6.99969959	2.47099996	200	0	0
-3.10800004	6.99969959	2.4920001	200	0	0
-3.11100006	6.99960041	2.4920001	200	0	0
-3.10800004	6.99919987	2.4920001	200	0	0
-3.1099999	6.99909973	2.4920001	200	0	0
-3.10599995	6.99979973	2.4920001	200	0	0
-3.10700011	6.99969959	2.50300002	200	0	0
-3.11800003	6.99960041	2.50300002	200	0	0
-3.10700011	6.99979973	2.49799991	200	0	0
-3.10899997	6.99919987	2.49799991	200	0	0
-3.10899997	6.99969959	2.49799991	200	0	0
-3.11899996	6.99960041	2.49799991	200	0	0
-3.10800004	6.99979973	2.50300002	200	0	0
-3.1099999	6.99909973	2.50300002	200	0	0
-3.1099999	6.99919987	2.50300002	200	0	0
-3.10899997	6.99909973	2.49799991	200	0	0
-3.10700011	6.99969959	2.51900005	200	0	0
-3.1170001	6.99960041	2.51999998	200	0	0
-3.10599995	6.99979973	2.51399994	200	0	0
-3.1099999	6.99919987	2.51399994	200	0	0
-3.10899997	6.99969959	2.51399994	200	0	0
-3.1170001	6.99960041	2.51399994	200	0	0
-3.11299992	6.99909973	2.51900005	200	0	0
-3.1099999	6.99919987	2.51900005	200	0	0
-3.11100006	6.99909973	2.51399994	200	0	0
-3.10700011	6.99979973	2.51900005	200	0	0
-3.1170001	6.99960041	2.52999997	200	0	0
-3.10700011	6.99969959	2.5250001	200	0	0
-3.1170001	6.99960041	2.5250001	200	0	0
-3.11199999	6.99909973	2.52999997	200	0	0
-3.10899997	6.99919987	2.52999997	200	0	0
-3.11100006	6.99909973	2.5250001	200	0	0
-3.1099999	6.99919987	2.5250001	200	0	0
-3.10599995	6.99979973	2.52999997	200	0	0
-3.10899997	6.99969959	2.52999997	200	0	0
-3.10599995	6.99979973	2.5250001	200	0	0
-3.1170001	6.99960041	2.54699993	200	0	0
-3.11100006	6.99979973	2.546	200	0	0
-3.11199999	6.99969959	2.546	200	0	0
-3.10800004	6.99979973	2.54099989	200	0	0
-3.10700011	6.99969959	2.54099989	200	0	0
-3.11299992	6.99909973	2.54099989	200	0	0
-3.1099999	6.99919987	2.54099989	200	0	0
-3.17600012	7.00049973	2.43799996	200	0	0
-3.17600012	7.00049973	2.44899988	200	0	0
-3.11400008	6.99909973	2.54699993	200	0	0
-3.10899997	6.99919987	2.546	200	0	0
-3.11100006	6.99969959	2.55200005	200	0	0
-3.11800003	6.99960041	2.55200005	200	0	0
-3.11299992	6.99909973	2.55699992	200	0	0
-3.10899997	6.99919987	2.55699992	200	0	0
-3.11199999	6.99909973	2.55200005	200	0	0
-3.11199999	6.99919987	2.55200005	200	0	0
-3.1099999	6.99979973	2.55699992	200	0	0
-3.1099999	6.99969959	2.55699992	200	0	0
-3.10899997	6.99979973	2.55200005	200	0	0
-3.11899996	6.99960041	2.56800008	200	0	0
-3.10700011	6.99979973	2.56800008	200	0	0
-3.11899996	6.99969959	2.56800008	200	0	0
-3.11500001	6.99909973	2.56800008	200	0	0
-3.1099999	6.99919987	2.57299995	200	0	0
-3.11899996	6.99960041	2.58500004	200	0	0
-3.10899997	6.99979973	2.58400011	200	0	0
-3.11199999	6.99969959	2.58400011	200	0	0
-3.11100006	6.99919987	2.56800008	200	0	0
-3.12299991	6.99960041	2.579	200	0	0
-3.10899997	6.99979973	2.579	200	0	0
-3.10899997	6.99969959	2.579	200	0	0
-3.12100005	6.99960041	2.57399988	200	0	0
-3.10899997	6.99979973	2.57299995	200	0	0
-3.10599995	6.99969959	2.57299995	200	0	0
-3.11400008	6.99909973	2.57399988	200	0	0
-3.11100006	6.99919987	2.579	200	0	0
-3.11299992	6.99909973	2.58400011	200	0	0
-3.11100006	6.99919987	2.58400011	200	0	0
-3.11500001	6.99909973	2.579	200	0	0
-3.10800004	6.99979973	2.5999999	200	0	0
-3.11100006	6.99969959	2.5999999	200	0	0
-3.10800004	6.99979973	2.59500003	200	0	0
-3.11100006	6.99969959	2.59500003	200	0	0
-3.11100006	6.99919987	2.59500003	200	0	0
-3.11299992	6.99909973	2.60100007	200	0	0
-3.1099999	6.99919987	2.5999999	200	0	0
-3.10800004	6.99979973	2.61100006	200	0	0
-3.11100006	6.99969959	2.61100006	200	0	0
-3.11999989	6.99969959	2.60599995	200	0	0
-3.10800004	6.99979973	2.60599995	200	0	0
-3.11299992	6.99909973	2.60599995	200	0	0
-3.11199999	6.99919987	2.61100006	200	0	0
-3.11299992	6.99919987	2.60599995	200	0	0
-3.10700011	6.99979973	2.62700009	200	0	0
-3.11999989	6.99969959	2.62800002	200	0	0
-3.11100006	6.99979973	2.62199998	200	0	0
-3.11100006	6.99969959	2.62199998	200	0	0
-3.11100006	6.99919987	2.62800002	200	0	0
-3.11400008	6.99909973	2.62800002	200	0	0
-3.11199999	6.99919987	2.62199998	200	0	0
-3.11299992	6.99909973	2.62199998	200	0	0
-3.11400008	6.99909973	2.6329999	200	0	0
-3.11199999	6.99919987	2.63800001	200	0	0
-3.11199999	6.99919987	2.6329999	200	0	0
-3.11299992	6.99979973	2.63800001	200	0	0
-3.10899997	6.99969959	2.63800001	200	0	0
-3.10599995	6.99979973	2.6329999	200	0	0
-3.11100006	6.99969959	2.6329999	200	0	0
-3.13800001	7.00039959	2.61199999	200	0	0
-3.1170001	6.99909973	2.63899994	200	0	0
-3.11100006	6.99979973	2.64899993	200	0	0
-3.11299992	6.99969959	2.64899993	200	0	0
-3.11100006	6.99919987	2.65499997	200	0	0
-3.11400008	6.99909973	2.65499997	200	0	0
-3.11199999	6.99919987	2.64899993	200	0	0
-3.11500001	6.99909973	2.64899993	200	0	0
-3.11100006	6.99979973	2.65499997	200	0	0
-3.1099999	6.99969959	2.65400004	200	0	0
-3.10899997	6.99979973	2.66499996	200	0	0
-3.1099999	6.99969959	2.66499996	200	0	0
-3.11100006	6.99979973	2.66000009	200	0	0
-3.11299992	6.99919987	2.66599989	200	0	0
-3.11299992	6.99909973	2.66599989	200	0	0
-3.11299992	6.99919987	2.66000009	200	0	0
-3.11400008	6.99909973	2.66000009	200	0	0
-3.11400008	6.99919987	2.67600012	200	0	0
-3.11100006	6.99979973	2.68199992	200	0	0
-3.11100006	6.99969959	2.68199992	200	0	0
-3.11299992	6.99979973	2.67600012	200	0	0
-3.11299992	6.99969959	2.67600012	200	0	0
-3.11500001	6.99909973	2.67700005	200	0	0
-3.11199999	6.99919987	2.68199992	200	0	0
-3.11599994	6.99909973	2.68199992	200	0	0
-3.11500001	6.99969959	2.69300008	200	0	0
-3.11299992	6.99979973	2.69300008	200	0	0
-3.10599995	7.00030088	2.67600012	200	0	0
-3.1099999	6.99969959	2.68700004	200	0	0
-3.1099999	6.99979973	2.68700004	200	0	0
-3.1170001	6.99909973	2.69300008	200	0	0
-3.11100006	6.99919987	2.69300008	200	0	0
-3.11500001	6.99909973	2.68700004	200	0	0
-3.11299992	6.99919987	2.68700004	200	0	0
-3.11199999	6.99969959	2.70900011	200	0	0
-3.11199999	6.99979973	2.70900011	200	0	0
-3.11400008	6.99969959	2.704	200	0	0
-3.10899997	6.99979973	2.70300007	200	0	0
-3.10599995	7.00030088	2.68700004	200	0	0
-3.11400008	6.99919987	2.704	200	0	0
-3.11400008	6.99909973	2.704	200	0	0
-3.11299992	6.99909973	2.70900011	200	0	0
-3.11199999	6.99919987	2.70900011	200	0	0
-3.11299992	6.99969959	2.72000003	200	0	0
-3.11400008	6.99979973	2.72000003	200	0	0
-3.11500001	6.99969959	2.71399999	200	0	0
-3.11400008	6.99979973	2.71399999	200	0	0
-3.11299992	6.99919987	2.71399999	200	0	0
-3.11500001	6.99909973	2.72000003	200	0	0
-3.11299992	6.99919987	2.72000003	200	0	0
-3.11400008	6.99909973	2.71399999	200	0	0
-3.11400008	6.99919987	2.73099995	200	0	0
-3.11599994	6.99909973	2.73099995	200	0	0
-3.11500001	6.99909973	2.73600006	200	0	0
-3.11500001	6.99919987	2.73600006	200	0	0
-3.11299992	6.99969959	2.73600006	200	0	0
-3.11299992	6.99979973	2.73600006	200	0	0
-3.11299992	6.99969959	2.73099995	200	0	0
-3.11299992	6.99979973	2.73099995	200	0	0
-3.11500001	6.99969959	2.74699998	200	0	0
-3.1099999	6.99979973	2.74699998	200	0	0
-3.11400008	6.99969959	2.7420001	200	0	0
-3.11199999	6.99979973	2.74099994	200	0	0
-3.11599994	6.99909973	2.74699998	200	0	0
-3.11599994	6.99919987	2.74699998	200	0	0
-3.11599994	6.99909973	2.7420001	200	0	0
-3.11599994	6.99919987	2.7420001	200	0	0
-3.11299992	6.99969959	2.76300001	200	0	0
-3.10800004	6.99979973	2.76300001	200	0	0
-3.12400007	6.99979973	2.75900006	200	0	0
-3.1170001	6.99969959	2.7579999	200	0	0
-3.11999989	6.99909973	2.76399994	200	0	0
-3.1170001	6.99919987	2.76399994	200	0	0
-3.11999989	6.99909973	2.7579999	200	0	0
-3.11400008	6.99919987	2.7579999	200	0	0
-3.11899996	6.99909973	2.7750001	200	0	0
-3.11400008	6.99919987	2.77399993	200	0	0
-3.11800003	6.99909973	2.76900005	200	0	0
-3.11599994	6.99919987	2.76900005	200	0	0
-3.14199996	7.00039959	2.74900007	200	0	0
-3.11299992	6.99969959	2.77399993	200	0	0
-3.11599994	6.99979973	2.77399993	200	0	0
-3.11599994	6.99969959	2.76900005	200	0	0
-3.1099999	6.99979973	2.76799989	200	0	0
-3.11100006	6.99979973	2.78999996	200	0	0
-3.11199999	6.99969959	2.78999996	200	0	0
-3.11199999	6.99979973	2.78500009	200	0	0
-3.11400008	6.99969959	2.78500009	200	0	0
-3.11299992	6.99919987	2.79099989	200	0	0
-3.1170001	6.99909973	2.79099989	200	0	0
-3.11999989	6.99909973	2.78600001	200	0	0
-3.11599994	6.99919987	2.78500009	200	0	0
-3.11500001	6.99969959	2.80200005	200	0	0
