-12.5570002	6.90509987	0.0670000017	200	0	0
-12.559	6.90599966	0.0240000002	200	0	0
-12.5279999	6.90549994	-0.0179999992	200	0	0
-12.54	6.9053998	-0.0199999996	200	0	0
-12.559	6.90599966	0.0460000001	200	0	0
-12.5410004	6.90530109	-0.0209999997	200	0	0
-12.5570002	6.9052	-0.0240000002	200	0	0
-12.5579996	6.90509987	-0.0240000002	200	0	0
-12.5450001	6.90590096	0.0260000005	200	0	0
-12.5410004	6.90590096	0.0500000007	200	0	0
-12.5530005	6.90580034	0.0250000004	200	0	0
-12.5469999	6.90590096	0.0710000023	200	0	0
-12.5340004	6.90580034	0.050999999	200	0	0
-12.5500002	6.90580034	0.0930000022	200	0	0
-12.5459995	6.90570021	0.0260000005	200	0	0
-12.5530005	6.90580034	0.0700000003	200	0	0
-12.5389996	6.90560007	0.0270000007	200	0	0
-12.5570002	6.90570021	0.0920000002	200	0	0
-12.5369997	6.90570021	0.0729999989	200	0	0
-12.5469999	6.90570021	0.0489999987	200	0	0
-12.5340004	6.90560007	0.0960000008	200	0	0
-12.5369997	6.90549994	0.0260000005	200	0	0
-12.533	6.9053998	0.0260000005	200	0	0
-12.5439997	6.90560007	0.0489999987	200	0	0
-12.5780001	6.90509987	0.0170000009	200	0	0
-12.5550003	6.90560007	0.0700000003	200	0	0
-12.5550003	6.90530109	0.0219999999	200	0	0
-12.5489998	6.9052	0.023	200	0	0
-12.5500002	6.90549994	0.0460000001	200	0	0
-12.5640001	6.90549994	0.0879999995	200	0	0
-12.5600004	6.90549994	0.0659999996	200	0	0
-12.5530005	6.9053998	0.0900000036	200	0	0
-12.5489998	6.9053998	0.0460000001	200	0	0
-12.5450001	6.9053998	0.0689999983	200	0	0
-12.5459995	6.90530109	0.0460000001	200	0	0
-12.566	6.90509987	0.0430000015	200	0	0
-12.5559998	6.9052	0.0450000018	200	0	0
-12.5629997	6.90530109	0.0659999996	200	0	0
-12.5690002	6.9052	0.0649999976	200	0	0
-12.5570002	6.90509987	0.0670000017	200	0	0
-12.5480003	6.90530109	-0.0450000018	200	0	0
-12.5459995	6.90679979	0.0719999969	200	0	0
-12.5530005	6.90689993	0.0480000004	200	0	0
-12.5559998	6.90679979	-0.0209999997	200	0	0
-12.5509996	6.9053998	-0.0450000018	200	0	0
-12.5430002	6.90689993	0.0270000007	200	0	0
-12.5579996	6.90549994	-0.0469999984	200	0	0
-12.526	6.90669966	-0.0149999997	200	0	0
-12.5410004	6.90679979	0.0500000007	200	0	0
-12.5559998	6.90650082	0.0920000002	200	0	0
-12.552	6.90669966	0.0700000003	200	0	0
-12.5360003	6.90679979	0.0280000009	200	0	0
-12.5340004	6.90659952	-0.0170000009	200	0	0
-12.5450001	6.90669966	0.0489999987	200	0	0
-12.5430002	6.90570021	-0.0419999994	200	0	0
-12.5620003	6.90630007	0.0909999982	200	0	0
-12.5240002	6.9060998	-0.0379999988	200	0	0
-12.5459995	6.90669966	0.0260000005	200	0	0
-12.5410004	6.90580034	-0.0410000011	200	0	0
-12.5500002	6.90650082	-0.0199999996	200	0	0
-12.5509996	6.90659952	0.0480000004	200	0	0
-12.5389996	6.90659952	0.0270000007	200	0	0
-12.5489998	6.9064002	0.0710000023	200	0	0
-12.5340004	6.90650082	0.050999999	200	0	0
-12.5369997	6.90630007	0.0729999989	200	0	0
-12.54	6.90560007	-0.0179999992	200	0	0
-12.5349998	6.90650082	0.0280000009	200	0	0
-12.5389996	6.90630007	-0.0179999992	200	0	0
-12.5410004	6.90570021	-0.0179999992	200	0	0
-12.5319996	6.90580034	-0.0170000009	200	0	0
-12.5489998	6.90619993	0.0710000023	200	0	0
-12.5509996	6.90619993	-0.0199999996	200	0	0
-12.5500002	6.9064002	0.0480000004	200	0	0
-12.552	6.9060998	-0.0209999997	200	0	0
-12.5539999	6.90599966	-0.0209999997	200	0	0
-12.5469999	6.9064002	0.0260000005	200	0	0
-12.5489998	6.90630007	0.0480000004	200	0	0
-12.5439997	6.90630007	0.0260000005	200	0	0
-12.533	6.9060998	0.0289999992	200	0	0
-12.5500002	6.90619993	0.0250000004	200	0	0
-12.5600004	6.90509987	-0.0700000003	200	0	0
-12.559	6.9052	-0.0700000003	200	0	0
-12.5579996	6.90509987	-0.0469999984	200	0	0
-12.5480003	6.90530109	-0.0680000037	200	0	0
-12.5439997	6.9053998	-0.0670000017	200	0	0
-12.5050001	6.90570021	-0.0560000017	200	0	0
-12.5480003	6.9052	-0.0450000018	200	0	0
-12.5369997	6.90689993	0.0729999989	200	0	0
-12.5360003	6.9071002	-0.0170000009	200	0	0
-12.5600004	6.90759993	0.0240000002	200	0	0
-12.5550003	6.90770006	0.0469999984	200	0	0
-12.5469999	6.90700006	-0.0189999994	200	0	0
-12.5620003	6.90770006	0.0680000037	200	0	0
-12.5539999	6.90759993	0.0469999984	200	0	0
-12.5419998	6.90749979	0.0270000007	200	0	0
-12.559	6.90759993	0.0689999983	200	0	0
-12.5670004	6.90740013	0.0219999999	200	0	0
-12.533	6.9073	0.0289999992	200	0	0
-12.5690002	6.90740013	0.0670000017	200	0	0
-12.5469999	6.90740013	0.0489999987	200	0	0
-12.5349998	6.90719986	0.0280000009	200	0	0
-12.559	6.9073	0.0460000001	200	0	0
-12.5439997	6.9071002	0.0270000007	200	0	0
-12.5380001	6.9073	0.0729999989	200	0	0
-12.5480003	6.90700006	0.0260000005	200	0	0
-12.5509996	6.90719986	0.0480000004	200	0	0
-12.5670004	6.9071002	0.0900000036	200	0	0
-12.5380001	6.90700006	0.0500000007	200	0	0
-12.5670004	6.90700006	0.0680000037	200	0	0
-12.5629997	6.90689993	0.0909999982	200	0	0
-12.5290003	6.90759993	-0.0160000008	200	0	0
-12.5530005	6.90780067	0.0250000004	200	0	0
-12.5319996	6.9071002	-0.0390000008	200	0	0
-12.5480003	6.90700006	-0.0419999994	200	0	0
-12.5699997	6.90740013	-0.0240000002	200	0	0
-12.5489998	6.9073	-0.0199999996	200	0	0
-12.526	6.90700006	-0.0610000007	200	0	0
-12.5459995	6.90789986	0.0260000005	200	0	0
-12.5550003	6.90849972	0.0489999987	200	0	0
-12.5699997	6.90840101	0.0689999983	200	0	0
-12.5629997	6.90849972	0.0250000004	200	0	0
-12.5380001	6.9083004	0.075000003	200	0	0
-12.573	6.9083004	-0.0219999999	200	0	0
-12.559	6.90840101	0.0260000005	200	0	0
-12.5579996	6.9083004	0.0489999987	200	0	0
-12.5839996	6.90789986	0.0869999975	200	0	0
-12.5500002	6.9083004	0.0270000007	200	0	0
-12.5649996	6.90820026	0.0450000018	200	0	0
-12.5609999	6.90799999	0.0689999983	200	0	0
-12.5690002	6.90810013	0.0439999998	200	0	0
-12.5480003	6.90810013	0.0260000005	200	0	0
-12.5550003	6.90789986	0.0469999984	200	0	0
-12.5489998	6.90859985	0.0729999989	200	0	0
-12.54	6.90859985	0.0289999992	200	0	0
-12.552	6.90859985	0.0500000007	200	0	0
-12.5530005	6.90849972	0.0719999969	200	0	0
-12.5559998	6.90869999	0.050999999	200	0	0
-12.5480003	6.90939999	0.057	200	0	0
-12.5489998	6.90929985	0.057	200	0	0
-12.5469999	6.90919971	0.0769999996	200	0	0
-12.5439997	6.90919971	0.0549999997	200	0	0
-12.5539999	6.90900087	0.0989999995	200	0	0
-12.5629997	6.90909958	0.0520000011	200	0	0
-12.5629997	6.90900087	0.075000003	200	0	0
-12.5670004	6.90869999	0.0939999968	200	0	0
-12.5579996	6.90900087	0.0529999994	200	0	0
-12.5640001	6.90890026	0.0719999969	200	0	0
-12.552	6.90890026	0.0289999992	200	0	0
-12.5509996	6.90890026	0.0520000011	200	0	0
-12.5690002	6.90880013	0.0710000023	200	0	0
-12.5600004	6.90950012	0.0540000014	200	0	0
-12.5380001	6.90950012	0.0810000002	200	0	0
-12.5459995	6.90960026	0.057	200	0	0
-12.5240002	6.91020012	0.105999999	200	0	0
-12.5459995	6.91030073	0.0340000018	200	0	0
-12.5579996	6.91030073	0.0769999996	200	0	0
-12.5500002	6.91030073	0.0560000017	200	0	0
-12.5419998	6.91020012	0.0799999982	200	0	0
-12.5439997	6.91020012	0.0350000001	200	0	0
-12.5489998	6.91009998	0.0560000017	200	0	0
-12.5500002	6.90999985	0.0340000018	200	0	0
-12.5469999	6.90999985	0.0790000036	200	0	0
-12.5600004	6.90989971	0.0320000015	200	0	0
-12.5509996	6.90989971	0.0790000036	200	0	0
-12.5620003	6.90989971	0.0540000014	200	0	0
-12.5539999	6.90960026	0.101000004	200	0	0
-12.5459995	6.90979958	0.057	200	0	0
-12.5509996	6.90969992	0.0560000017	200	0	0
-12.5459995	6.91039991	0.0799999982	200	0	0
-12.5509996	6.91039991	0.0560000017	200	0	0
-12.5380001	6.91050005	0.0829999968	200	0	0
-12.5340004	6.91039991	0.104000002	200	0	0
-12.5459995	6.91050005	0.0359999985	200	0	0
-12.5480003	6.91050005	0.0579999983	200	0	0
-12.5740004	6.91099977	0.101000004	200	0	0
-12.5450001	6.91099977	0.0610000007	200	0	0
-12.5530005	6.91099977	0.0820000023	200	0	0
-12.552	6.91079998	0.0599999987	200	0	0
-12.5279999	6.91060019	0.0399999991	200	0	0
-12.5489998	6.91069984	0.0599999987	200	0	0
-12.5550003	6.91060019	0.057	200	0	0
-12.5450001	6.91079998	0.105999999	200	0	0
-12.5459995	6.91060019	0.0820000023	200	0	0
-12.5530005	6.91120005	0.0590000004	200	0	0
-12.5469999	6.91109991	0.0610000007	200	0	0
-12.5629997	6.91130018	0.103	200	0	0
-12.5530005	6.91130018	0.0820000023	200	0	0
-12.5600004	6.91140032	0.0579999983	200	0	0
-12.5389996	6.91140032	0.0850000009	200	0	0
-12.5509996	6.91169977	0.0370000005	200	0	0
-12.5430002	6.91179991	0.063000001	200	0	0
-12.5579996	6.91190004	0.0829999968	200	0	0
-12.5679998	6.91190004	0.104000002	200	0	0
-12.5489998	6.91169977	0.0599999987	200	0	0
-12.5570002	6.91179991	0.0829999968	200	0	0
-12.5500002	6.91159964	0.0599999987	200	0	0
-12.5539999	6.91169977	0.0810000002	200	0	0
-12.5459995	6.91150093	0.0599999987	200	0	0
-12.5509996	6.91150093	0.104999997	200	0	0
-12.5439997	6.91179991	0.0399999991	200	0	0
-12.5430002	6.91210032	0.0879999995	200	0	0
-12.5469999	6.91210032	0.0419999994	200	0	0
-12.5550003	6.91200018	0.0850000009	200	0	0
-12.5609999	6.91200018	0.0390000008	200	0	0
-12.5439997	6.91200018	0.0649999976	200	0	0
-12.5419998	6.9121995	0.0670000017	200	0	0
-12.5509996	6.91229963	0.0430000015	200	0	0
-12.5419998	6.91260004	0.0689999983	200	0	0
-12.5579996	6.9124999	0.0890000015	200	0	0
-12.5459995	6.91239977	0.0890000015	200	0	0
-12.5559998	6.9124999	0.0670000017	200	0	0
-12.5539999	6.91239977	0.0649999976	200	0	0
-12.5319996	6.91270018	0.0939999968	200	0	0
-12.5640001	6.91260004	0.111000001	200	0	0
-12.5389996	6.91270018	0.0469999984	200	0	0
-12.5500002	6.91270018	0.0680000037	200	0	0
-12.5570002	6.91260004	0.0890000015	200	0	0
-12.5509996	6.91280079	0.0450000018	200	0	0
-12.5629997	6.91280079	0.111000001	200	0	0
-12.5480003	6.91280079	0.0680000037	200	0	0
-12.5530005	6.91280079	0.0900000036	200	0	0
-12.559	6.91300011	0.0659999996	200	0	0
-12.5389996	6.91289997	0.0700000003	200	0	0
-12.54	6.91309977	0.0700000003	200	0	0
-12.5489998	6.9131999	0.0680000037	200	0	0
-12.5310001	6.9131999	0.0489999987	200	0	0
-12.5550003	6.91349983	0.0900000036	200	0	0
-12.5459995	6.91349983	0.0689999983	200	0	0
-12.5430002	6.91340065	0.0469999984	200	0	0
-12.5439997	6.9131999	0.114	200	0	0
-12.5509996	6.91330004	0.0450000018	200	0	0
-12.5500002	6.91330004	0.0680000037	200	0	0
-12.5500002	6.91359997	0.0680000037	200	0	0
-12.5489998	6.91349983	0.114	200	0	0
-12.54	6.9137001	0.0469999984	200	0	0
-12.5469999	6.9137001	0.0689999983	200	0	0
-12.5530005	6.9137001	0.0900000036	200	0	0
-12.5299997	6.91390038	0.0489999987	200	0	0
-12.5469999	6.91390038	0.0909999982	200	0	0
-12.5450001	6.91380024	0.0920000002	200	0	0
-12.54	6.91380024	0.0469999984	200	0	0
-12.5530005	6.91380024	0.0670000017	200	0	0
-12.5600004	6.91400099	0.0909999982	200	0	0
-12.5439997	6.91390038	0.114	200	0	0
-12.5319996	6.91409969	0.0960000008	200	0	0
-12.5340004	6.91409969	0.050999999	200	0	0
-12.5410004	6.9144001	0.0489999987	200	0	0
-12.5539999	6.9144001	0.115000002	200	0	0
-12.526	6.91429996	0.0520000011	200	0	0
-12.5509996	6.9144001	0.0700000003	200	0	0
-12.5509996	6.9144001	0.0920000002	200	0	0
-12.5369997	6.91429996	0.118000001	200	0	0
-12.5550003	6.91419983	0.0460000001	200	0	0
-12.5509996	6.91429996	0.0920000002	200	0	0
-12.5459995	6.91419983	0.0710000023	200	0	0
-12.5450001	6.91450024	0.0480000004	200	0	0
-12.5450001	6.91460037	0.0729999989	200	0	0
-12.5459995	6.91450024	0.00300000003	200	0	0
-12.5439997	6.91460037	0.050999999	200	0	0
-12.5410004	6.9144001	0.00400000019	200	0	0
-12.5450001	6.91460037	0.0960000008	200	0	0
-12.5550003	6.91450024	0.114	200	0	0
-12.5609999	6.91469955	0.0930000022	200	0	0
-12.5319996	6.91479969	0.0529999994	200	0	0
-12.5410004	6.91469955	0.074000001	200	0	0
-12.5290003	6.91469955	0.0540000014	200	0	0
-12.5439997	6.91479969	0.0960000008	200	0	0
-12.5670004	6.91469955	0.114	200	0	0
-12.5299997	6.91499996	0.0529999994	200	0	0
-12.5509996	6.91499996	0.0719999969	200	0	0
-12.533	6.91530085	0.00700000022	200	0	0
-12.5360003	6.91520023	0.0979999974	200	0	0
-12.5509996	6.91530085	0.0719999969	200	0	0
-12.5530005	6.91520023	0.00400000019	200	0	0
-12.5509996	6.91530085	0.0489999987	200	0	0
-12.5450001	6.9151001	0.0960000008	200	0	0
-12.5439997	6.91520023	0.0729999989	200	0	0
-12.5270004	6.9151001	0.00899999961	200	0	0
-12.5369997	6.91520023	0.0520000011	200	0	0
-12.5380001	6.9151001	0.074000001	200	0	0
-12.5310001	6.9151001	0.0529999994	200	0	0
-12.5279999	6.91530085	0.0989999995	200	0	0
-12.5430002	6.91520023	0.119000003	200	0	0
-12.5340004	6.91539955	0.0529999994	200	0	0
-12.5369997	6.91549969	0.0970000029	200	0	0
-12.533	6.91549969	0.0529999994	200	0	0
-12.5410004	6.91549969	0.074000001	200	0	0
-12.5450001	6.91539955	0.0960000008	200	0	0
-12.5389996	6.91559982	0.119999997	200	0	0
-12.533	6.91559982	0.075000003	200	0	0
-12.5419998	6.91559982	0.0960000008	200	0	0
-12.5319996	6.91569996	0.0759999976	200	0	0
-12.5469999	6.91569996	0.0500000007	200	0	0
-12.5389996	6.91580009	0.00600000005	200	0	0
-12.5410004	6.91590071	0.074000001	200	0	0
-12.5469999	6.91590071	0.0500000007	200	0	0
-12.5319996	6.91580009	0.0529999994	200	0	0
-12.5570002	6.91620016	0.00300000003	200	0	0
-12.5360003	6.91610003	0.0520000011	200	0	0
-12.5389996	6.91599989	0.0520000011	200	0	0
-12.5380001	6.91610003	0.00600000005	200	0	0
-12.5509996	6.91610003	0.0719999969	200	0	0
-12.5310001	6.91610003	0.120999999	200	0	0
-12.5459995	6.91610003	0.0960000008	200	0	0
-12.5629997	6.91599989	0.115000002	200	0	0
-12.5299997	6.91620016	0.0529999994	200	0	0
-12.5509996	6.91620016	0.0719999969	200	0	0
-12.5389996	6.91629982	0.074000001	200	0	0
-12.5459995	6.91629982	0.0500000007	200	0	0
-12.5369997	6.91639996	0.075000003	200	0	0
-12.5349998	6.91639996	0.0979999974	200	0	0
-12.5439997	6.91629982	0.0960000008	200	0	0
-12.5380001	6.91639996	0.0520000011	200	0	0
-12.5539999	6.91650105	0.116999999	200	0	0
-12.5439997	6.91650105	0.050999999	200	0	0
-12.5349998	6.91650105	0.075000003	200	0	0
-12.5539999	6.91659975	0.0939999968	200	0	0
-12.5380001	6.91659975	0.0520000011	200	0	0
-12.5410004	6.91659975	0.074000001	200	0	0
-12.5550003	6.91680002	0.0979999974	200	0	0
-12.552	6.91680002	0.0540000014	200	0	0
-12.5430002	6.91680002	0.0780000016	200	0	0
-12.5620003	6.91669989	0.0469999984	200	0	0
-12.5439997	6.91669989	0.0729999989	200	0	0
-12.5509996	6.91700029	0.0560000017	200	0	0
-12.5310001	6.91690016	0.0579999983	200	0	0
-12.5389996	6.91700029	0.0810000002	200	0	0
-12.533	6.91680002	0.125	200	0	0
-12.5270004	6.91710043	0.063000001	200	0	0
-12.5360003	6.91710043	0.105999999	200	0	0
-12.5450001	6.91719961	0.061999999	200	0	0
-12.5340004	6.91719961	0.0860000029	200	0	0
-12.5629997	6.91719961	0.126000002	200	0	0
-12.5480003	6.91729975	0.105999999	200	0	0
-12.5439997	6.91729975	0.061999999	200	0	0
-12.54	6.91729975	0.0850000009	200	0	0
-12.5340004	6.91739988	0.0860000029	200	0	0
-12.5360003	6.91739988	0.063000001	200	0	0
-12.5360003	6.91750002	0.063000001	200	0	0
-12.5240002	6.91750002	0.0199999996	200	0	0
-12.5360003	6.91770029	0.063000001	200	0	0
-12.5649996	6.91770029	0.126000002	200	0	0
-12.5559998	6.91770029	0.0820000023	200	0	0
-12.5550003	6.91770029	0.104999997	200	0	0
-12.5419998	6.91760015	0.061999999	200	0	0
-12.5369997	6.91760015	0.108000003	200	0	0
-12.5469999	6.91760015	0.0839999989	200	0	0
-12.5290003	6.91770029	0.0189999994	200	0	0
-12.5249996	6.91760015	0.0199999996	200	0	0
-12.5279999	6.91789961	0.0189999994	200	0	0
-12.5310001	6.91789961	0.0869999975	200	0	0
-12.5279999	6.91770029	-0.00300000003	200	0	0
-12.5600004	6.9178009	0.104000002	200	0	0
-12.5249996	6.9178009	0.0199999996	200	0	0
-12.5360003	6.91789961	0.063000001	200	0	0
-12.5290003	6.9178009	0.0869999975	200	0	0
-12.526	6.9178009	0.0649999976	200	0	0
-12.5450001	6.91799974	0.0839999989	200	0	0
-12.54	6.91799974	0.061999999	200	0	0
-12.5500002	6.91789961	0.128999993	200	0	0
-12.5310001	6.91809988	0.0869999975	200	0	0
-12.5319996	6.91799974	0.0189999994	200	0	0
-12.54	6.91809988	0.061999999	200	0	0
-12.5380001	6.91809988	0.108000003	200	0	0
-12.5500002	6.91820002	0.0599999987	200	0	0
-12.5559998	6.91830015	0.104999997	200	0	0
-12.5340004	6.91830015	0.064000003	200	0	0
-12.5279999	6.91830015	0.0869999975	200	0	0
-12.5439997	6.91820002	0.0160000008	200	0	0
-12.5279999	6.91820002	-0.00300000003	200	0	0
-12.5469999	6.91840076	0.0829999968	200	0	0
-12.5179996	6.91830015	0.0209999997	200	0	0
-12.5270004	6.91840076	0.0649999976	200	0	0
-12.5530005	6.91840076	0.0140000004	200	0	0
-12.5419998	6.91860008	0.0839999989	200	0	0
-12.5539999	6.91849995	0.104999997	200	0	0
-12.5249996	6.91860008	0.0649999976	200	0	0
-12.5410004	6.91849995	0.0850000009	200	0	0
-12.5430002	6.91840076	0.107000001	200	0	0
-12.5419998	6.91849995	0.061999999	200	0	0
-12.5340004	6.91860008	0.108999997	200	0	0
-12.5600004	6.91849995	0.126000002	200	0	0
-12.5299997	6.91869974	0.0189999994	200	0	0
-12.5369997	6.91860008	0.0170000009	200	0	0
-12.5279999	6.91849995	-0.00400000019	200	0	0
-12.5500002	6.91879988	-0.00800000038	200	0	0
-12.5500002	6.91869974	0.0599999987	200	0	0
-12.5340004	6.91879988	0.0179999992	200	0	0
-12.5419998	6.91869974	-0.00600000005	200	0	0
-12.5349998	6.91879988	0.063000001	200	0	0
-12.5310001	6.91879988	0.108999997	200	0	0
-12.5439997	6.91879988	0.0839999989	200	0	0
-12.5509996	6.91869974	0.104999997	200	0	0
-12.5340004	6.91869974	0.0860000029	200	0	0
-12.5389996	6.91890001	0.108000003	200	0	0
-12.5380001	6.91890001	0.063000001	200	0	0
-12.526	6.91890001	0.0869999975	200	0	0
-12.5290003	6.91909981	0.0869999975	200	0	0
-12.5360003	6.91900063	0.063000001	200	0	0
-12.5530005	6.91900063	0.0820000023	200	0	0
-12.5360003	6.91890001	-0.00499999989	200	0	0
-12.5200005	6.91890001	0.0209999997	200	0	0
-12.5220003	6.91900063	0.0199999996	200	0	0
-12.5290003	6.91909981	0.064000003	200	0	0
-12.5270004	6.91919994	0.109999999	200	0	0
-12.5439997	6.91919994	0.0839999989	200	0	0
-12.5469999	6.91909981	0.105999999	200	0	0
-12.5270004	6.91900063	-0.00300000003	200	0	0
-12.526	6.91909981	0.0189999994	200	0	0
-12.5279999	6.91919994	0.064000003	200	0	0
-12.526	6.91909981	-0.00300000003	200	0	0
-12.5249996	6.91930008	0.109999999	200	0	0
-12.5430002	6.91930008	0.0610000007	200	0	0
-12.5340004	6.91930008	0.0860000029	200	0	0
-12.5389996	6.91919994	-0.00600000005	200	0	0
-12.5360003	6.91919994	0.0179999992	200	0	0
-12.5270004	6.91930008	0.0189999994	200	0	0
-12.5410004	6.91930008	-0.00600000005	200	0	0
-12.5279999	6.91950035	0.061999999	200	0	0
-12.5600004	6.91940022	0.123999998	200	0	0
-12.5310001	6.91950035	0.0839999989	200	0	0
-12.5299997	6.91940022	0.061999999	200	0	0
-12.5539999	6.91940022	0.103	200	0	0
-12.5279999	6.91940022	0.0170000009	200	0	0
-12.5290003	6.91960001	-0.00600000005	200	0	0
-12.5360003	6.91960001	0.0149999997	200	0	0
-12.5299997	6.91940022	-0.0289999992	200	0	0
-12.5290003	6.91950035	-0.00600000005	200	0	0
-12.5229998	6.91950035	0.0179999992	200	0	0
-12.5480003	6.91969967	0.0130000003	200	0	0
-12.5229998	6.91960001	0.063000001	200	0	0
-12.5430002	6.91960001	0.0820000023	200	0	0
-12.54	6.91969967	0.0599999987	200	0	0
-12.5469999	6.91969967	0.104000002	200	0	0
-12.5310001	6.91969967	0.0839999989	200	0	0
-12.5559998	6.91960001	0.125	200	0	0
-12.5430002	6.9197998	0.0820000023	200	0	0
-12.5389996	6.9197998	0.0599999987	200	0	0
-12.5310001	6.9197998	0.0160000008	200	0	0
-12.5229998	6.92000008	0.063000001	200	0	0
-12.5380001	6.92000008	0.0829999968	200	0	0
-12.5410004	6.91989994	0.0599999987	200	0	0
-12.5360003	6.91989994	0.105999999	200	0	0
-12.5319996	6.91989994	0.0839999989	200	0	0
-12.5279999	6.9197998	-0.00600000005	200	0	0
-12.5200005	6.91989994	0.0189999994	200	0	0
-12.5419998	6.91989994	-0.00800000038	200	0	0
-12.5509996	6.92010021	0.0810000002	200	0	0
-12.54	6.92010021	0.104999997	200	0	0
-12.5459995	6.92010021	0.0590000004	200	0	0
-12.526	6.92000008	-0.00499999989	200	0	0
-12.5299997	6.92000008	0.0170000009	200	0	0
-12.5249996	6.92000008	-0.0280000009	200	0	0
-12.5430002	6.92020035	0.127000004	200	0	0
-12.5220003	6.92020035	0.0860000029	200	0	0
-12.5469999	6.92020035	0.104000002	200	0	0
-12.526	6.92010021	0.0170000009	200	0	0
-12.533	6.92020035	0.0610000007	200	0	0
-12.5319996	6.92010021	-0.00600000005	200	0	0
-12.5270004	6.92020035	-0.00499999989	200	0	0
-12.526	6.92020035	0.0170000009	200	0	0
-12.5380001	6.92020035	-0.0299999993	200	0	0
-12.5469999	6.92030096	0.104000002	200	0	0
-12.5279999	6.92039967	0.061999999	200	0	0
-12.5459995	6.92030096	0.0810000002	200	0	0
-12.5450001	6.92030096	0.0590000004	200	0	0
-12.5310001	6.92039967	0.107000001	200	0	0
-12.533	6.9204998	0.0160000008	200	0	0
-12.5340004	6.9204998	-0.00700000022	200	0	0
-12.533	6.92039967	0.0160000008	200	0	0
-12.5369997	6.92059994	-0.00800000038	200	0	0
-12.5410004	6.9204998	0.0599999987	200	0	0
-12.5489998	6.9204998	0.0810000002	200	0	0
-12.5550003	6.9204998	0.101999998	200	0	0
-12.5419998	6.92039967	0.127000004	200	0	0
-12.54	6.92059994	0.0829999968	200	0	0
-12.5299997	6.92059994	0.061999999	200	0	0
-12.5570002	6.92070007	0.101999998	200	0	0
-12.5459995	6.92070007	0.0590000004	200	0	0
-12.5459995	6.92070007	0.0810000002	200	0	0
-12.5389996	6.92070007	-0.00800000038	200	0	0
-12.5229998	6.92059994	-0.0280000009	200	0	0
-12.5299997	6.92070007	0.0170000009	200	0	0
-12.5439997	6.92090082	0.0820000023	200	0	0
-12.5480003	6.92080021	0.104000002	200	0	0
-12.5139999	6.92080021	0.0199999996	200	0	0
-12.526	6.92090082	0.061999999	200	0	0
-12.5389996	6.92080021	0.0829999968	200	0	0
-12.5349998	6.92080021	0.0610000007	200	0	0
-12.5419998	6.92090082	0.104999997	200	0	0
-12.5489998	6.92080021	-0.00999999978	200	0	0
-12.5349998	6.92099953	0.105999999	200	0	0
-12.54	6.92099953	0.0599999987	200	0	0
-12.5410004	6.92099953	0.0820000023	200	0	0
-12.5439997	6.92109966	0.104000002	200	0	0
-12.5530005	6.92109966	0.0799999982	200	0	0
-12.5349998	6.92109966	0.0610000007	200	0	0
-12.5439997	6.92109966	0.0140000004	200	0	0
-12.5389996	6.9211998	0.0829999968	200	0	0
-12.5679998	6.9211998	0.100000001	200	0	0
-12.5489998	6.9211998	0.0130000003	200	0	0
-12.5240002	6.92129993	0.0850000009	200	0	0
-12.5340004	6.92129993	0.0610000007	200	0	0
-12.5279999	6.9211998	0.061999999	200	0	0
-12.5209999	6.92129993	0.108999997	200	0	0
-12.5480003	6.9211998	-0.00999999978	200	0	0
-12.5380001	6.92150068	0.0149999997	200	0	0
-12.5459995	6.92140007	0.0810000002	200	0	0
-12.5290003	6.92140007	0.061999999	200	0	0
-12.5290003	6.92140007	0.107000001	200	0	0
-12.54	6.92159986	0.0820000023	200	0	0
-12.5360003	6.92150068	0.0599999987	200	0	0
-12.5249996	6.92150068	0.0850000009	200	0	0
-12.5290003	6.92159986	0.061999999	200	0	0
-12.5209999	6.92159986	0.108999997	200	0	0
-12.5290003	6.92159986	0.0160000008	200	0	0
-12.5459995	6.92229986	0.0579999983	200	0	0
-12.5480003	6.9224	0.0810000002	200	0	0
-12.5430002	6.92229986	0.0820000023	200	0	0
-12.5279999	6.9224	0.061999999	200	0	0
-12.5389996	6.92250013	0.104999997	200	0	0
-12.5450001	6.9224	0.127000004	200	0	0
-12.5349998	6.92250013	0.0829999968	200	0	0
-12.5209999	6.92320013	0.0860000029	200	0	0
-12.5310001	6.92309999	0.0839999989	200	0	0
-12.5369997	6.92299986	0.104999997	200	0	0
-12.5459995	6.92270041	0.126000002	200	0	0
-12.5360003	6.92299986	0.0829999968	200	0	0
-12.5550003	6.92280102	0.101999998	200	0	0
-12.5469999	6.92289972	0.0810000002	200	0	0
-12.559	6.92270041	0.101000004	200	0	0
-12.533	6.92280102	0.0829999968	200	0	0
-12.5200005	6.92270041	0.063000001	200	0	0
-12.54	6.92270041	0.0820000023	200	0	0
-12.5290003	6.92260027	0.0839999989	200	0	0
-12.5450001	6.92260027	0.0579999983	200	0	0
-12.5410004	6.92330027	0.104000002	200	0	0
-12.5389996	6.92330027	0.0820000023	200	0	0
-12.5299997	6.92320013	0.107000001	200	0	0
-12.54	6.92309999	0.127000004	200	0	0
-12.54	6.92349958	0.104999997	200	0	0
-12.5439997	6.92390013	0.104000002	200	0	0
-12.5369997	6.92390013	0.0829999968	200	0	0
-12.5459995	6.92359972	0.126000002	200	0	0
-12.552	6.92369986	0.101999998	200	0	0
-12.5360003	6.92369986	0.0829999968	200	0	0
-12.54	6.92359972	0.104999997	200	0	0
-12.5439997	6.92359972	0.0810000002	200	0	0
-12.5419998	6.92349958	0.0820000023	200	0	0
-12.5170002	6.92420006	0.108999997	200	0	0
-12.54	6.92420006	0.0820000023	200	0	0
-12.5249996	6.92439985	0.0850000009	200	0	0
-12.5509996	6.92439985	0.103	200	0	0
-12.5299997	6.92429972	0.105999999	200	0	0
-12.5369997	6.92460012	0.0820000023	200	0	0
-12.5550003	6.92460012	0.101999998	200	0	0
-12.5410004	6.92449999	0.127000004	200	0	0
-12.5550003	6.92449999	0.101999998	200	0	0
-12.5579996	6.92500019	0.123999998	200	0	0
-12.5369997	6.92580032	0.0820000023	200	0	0
-12.5469999	6.92590094	0.126000002	200	0	0
-12.5430002	6.92580032	0.104000002	200	0	0
-12.5469999	6.92570019	0.103	200	0	0
-12.5310001	6.92630005	0.128999993	200	0	0
-12.5500002	6.92640018	0.103	200	0	0
-12.5419998	6.92640018	0.0810000002	200	0	0
-12.5360003	6.92630005	0.0829999968	200	0	0
-12.5450001	6.92619991	0.104000002	200	0	0
-12.5579996	6.92619991	0.0780000016	200	0	0
-12.5319996	6.92609978	0.105999999	200	0	0
-12.5539999	6.92599964	0.101999998	200	0	0
-12.5340004	6.92590094	0.0829999968	200	0	0
-12.5430002	6.92679977	0.104000002	200	0	0
-12.5369997	6.92710018	0.0820000023	200	0	0
-12.5579996	6.92700005	0.0780000016	200	0	0
-12.5340004	6.92710018	0.128000006	200	0	0
-12.5419998	6.92689991	0.0810000002	200	0	0
-12.5310001	6.92679977	0.0829999968	200	0	0
-12.5310001	6.92719984	0.0829999968	200	0	0
-12.5419998	6.92799997	0.105999999	200	0	0
-12.5539999	6.92799997	0.0810000002	200	0	0
-12.5340004	6.92810011	0.0850000009	200	0	0
-12.5620003	6.92890024	0.125	200	0	0
-12.5369997	6.92880011	0.0850000009	200	0	0
-12.5609999	6.92869997	0.125	200	0	0
-12.5389996	6.92869997	0.0839999989	200	0	0
-12.5240002	6.92869997	0.109999999	200	0	0
-12.5539999	6.92900085	0.104000002	200	0	0
-12.5340004	6.92980003	0.108000003	200	0	0
-12.5360003	6.92960024	0.0850000009	200	0	0
-12.5290003	6.92960024	0.108999997	200	0	0
-12.533	6.9295001	0.0850000009	200	0	0
-12.5410004	6.9291997	0.0839999989	200	0	0
-12.5360003	6.9291997	0.107000001	200	0	0
-12.5369997	6.92980003	0.0850000009	200	0	0
-12.5500002	6.92999983	0.104999997	200	0	0
-12.5360003	6.9307003	0.0829999968	200	0	0
-12.5299997	6.93050003	0.0860000029	200	0	0
-12.54	6.93050003	0.107000001	200	0	0
-12.5279999	6.93039989	0.108999997	200	0	0
-12.5489998	6.92999983	0.0820000023	200	0	0
-12.5419998	6.93090105	0.0820000023	200	0	0
-12.5389996	6.93090105	0.104999997	200	0	0
-12.5469999	6.93079996	0.103	200	0	0
-12.5480003	6.93159962	0.0989999995	200	0	0
-12.5360003	6.93150091	0.0560000017	200	0	0
-12.5489998	6.93150091	0.0989999995	200	0	0
-12.5369997	6.93150091	0.0790000036	200	0	0
-12.5369997	6.9314003	0.103	200	0	0
-12.5419998	6.93130016	0.0799999982	200	0	0
-12.5389996	6.93120003	0.0799999982	200	0	0
-12.5419998	6.93109989	0.101999998	200	0	0
-12.5410004	6.93109989	0.0799999982	200	0	0
-12.5389996	6.93099976	0.104999997	200	0	0
-12.5279999	6.93179989	0.0579999983	200	0	0
-12.5349998	6.93169975	0.101999998	200	0	0
-12.5369997	6.93169975	0.0790000036	200	0	0
-12.54	6.93249989	0.0759999976	200	0	0
-12.5299997	6.93239975	0.0549999997	200	0	0
-12.5290003	6.93229961	0.0549999997	200	0	0
-12.5319996	6.93239975	0.100000001	200	0	0
-12.5430002	6.93219948	0.0529999994	200	0	0
-12.5389996	6.93229961	0.0759999976	200	0	0
-12.5360003	6.93219948	0.0769999996	200	0	0
-12.5340004	6.93200016	0.057	200	0	0
-12.5340004	6.93190002	0.057	200	0	0
-12.5340004	6.93200016	0.101999998	200	0	0
-12.5349998	6.93190002	0.0790000036	200	0	0
-12.5450001	6.93270016	0.0520000011	200	0	0
-12.533	6.93260002	0.0549999997	200	0	0
-12.5279999	6.93340111	0.0579999983	200	0	0
-12.5279999	6.93340111	0.0810000002	200	0	0
-12.5089998	6.93319988	0.107000001	200	0	0
-12.5299997	6.93330002	0.0799999982	200	0	0
-12.5279999	6.93309975	0.0780000016	200	0	0
-12.5410004	6.93300009	0.0989999995	200	0	0
-12.533	6.93289995	0.0549999997	200	0	0
-12.5290003	6.93280077	0.0549999997	200	0	0
-12.5439997	6.93280077	0.075000003	200	0	0
-12.5319996	6.93359995	0.0799999982	200	0	0
-12.5310001	6.93359995	0.057	200	0	0
-12.5249996	6.93409967	0.0590000004	200	0	0
-12.5360003	6.93390036	0.0790000036	200	0	0
-12.5249996	6.93390036	0.0590000004	200	0	0
-12.5170002	6.93359995	0.0149999997	200	0	0
-12.5340004	6.93380022	0.0799999982	200	0	0
-12.5299997	6.93380022	0.057	200	0	0
-12.54	6.93440008	0.101000004	200	0	0
-12.5249996	6.93499994	0.0810000002	200	0	0
-12.5360003	6.93499994	0.0560000017	200	0	0
-12.5389996	6.93479967	0.0790000036	200	0	0
-12.5179996	6.93469954	0.0829999968	200	0	0
-12.5299997	6.93460035	0.0799999982	200	0	0
-12.5290003	6.93530083	0.0799999982	200	0	0
-12.5489998	6.93530083	0.0989999995	200	0	0
-12.5450001	6.93510008	0.0549999997	200	0	0
-12.5270004	6.93510008	0.0810000002	200	0	0
-12.5299997	6.93499994	0.103	200	0	0
-12.5229998	6.93590069	0.0590000004	200	0	0
-12.5319996	6.9355998	0.0120000001	200	0	0
-12.5369997	6.93590069	0.0790000036	200	0	0
-12.5249996	6.93580008	0.0810000002	200	0	0
-12.5419998	6.93569994	0.0549999997	200	0	0
-12.5389996	6.93569994	0.101000004	200	0	0
-12.5340004	6.9355998	0.0799999982	200	0	0
-12.5349998	6.93540001	0.0790000036	200	0	0
-12.533	6.93530083	0.057	200	0	0
-12.5200005	6.93580008	0.0140000004	200	0	0
-12.526	6.93599987	0.0130000003	200	0	0
-12.5310001	6.93620014	0.0799999982	200	0	0
-12.5229998	6.93610001	0.0590000004	200	0	0
-12.5360003	6.93610001	0.0790000036	200	0	0
-12.526	6.93599987	0.104000002	200	0	0
-12.5240002	6.93599987	0.0590000004	200	0	0
-12.5340004	6.93599987	0.0799999982	200	0	0
-12.5190001	6.93690014	0.0599999987	200	0	0
-12.5450001	6.93669987	0.100000001	200	0	0
-12.5279999	6.93669987	0.0130000003	200	0	0
-12.5279999	6.9368	0.0579999983	200	0	0
-12.5340004	6.93659973	0.0109999999	200	0	0
-12.5209999	6.93669987	0.0820000023	200	0	0
-12.5389996	6.93669987	0.0560000017	200	0	0
-12.5240002	6.93650103	0.0130000003	200	0	0
-12.5270004	6.93659973	0.0810000002	200	0	0
-12.5389996	6.93639994	0.0109999999	200	0	0
-12.5299997	6.93659973	0.057	200	0	0
-12.5109997	6.93610001	-0.00700000022	200	0	0
-12.5220003	6.93639994	0.104000002	200	0	0
-12.5209999	6.93650103	0.0820000023	200	0	0
-12.5380001	6.93650103	0.0560000017	200	0	0
-12.5209999	6.93630028	0.0140000004	200	0	0
-12.5469999	6.93639994	0.0769999996	200	0	0
-12.5340004	6.93620014	0.0109999999	200	0	0
-12.5200005	6.93639994	0.0599999987	200	0	0
-12.5209999	6.93630028	0.0820000023	200	0	0
-12.5220003	6.93630028	0.0590000004	200	0	0
-12.5139999	6.93690014	-0.00700000022	200	0	0
-12.5430002	6.93690014	0.00999999978	200	0	0
-12.5310001	6.9368	0.0120000001	200	0	0
-12.5349998	6.93710041	0.057	200	0	0
-12.5170002	6.93710041	0.0829999968	200	0	0
-12.526	6.93700027	0.0810000002	200	0	0
-12.5279999	6.93690014	0.0810000002	200	0	0
-12.5319996	6.9375	-0.0109999999	200	0	0
-12.5129995	6.93780088	0.0829999968	200	0	0
-12.5129995	6.93770027	0.0160000008	200	0	0
-12.5360003	6.93770027	0.0790000036	200	0	0
-12.5190001	6.93770027	0.0599999987	200	0	0
-12.5120001	6.93719959	-0.00700000022	200	0	0
-12.5270004	6.93760014	0.0810000002	200	0	0
-12.5340004	6.93760014	0.057	200	0	0
-12.5310001	6.93739986	0.0120000001	200	0	0
-12.5220003	6.93700027	-0.00899999961	200	0	0
-12.5170002	6.9375	0.0829999968	200	0	0
-12.5419998	6.93729973	0.101000004	200	0	0
-12.5209999	6.9375	0.0590000004	200	0	0
-12.5480003	6.93700027	0.00899999961	200	0	0
-12.5450001	6.93739986	0.0549999997	200	0	0
-12.5380001	6.93710041	0.0109999999	200	0	0
-12.5249996	6.93719959	0.0130000003	200	0	0
-12.5200005	6.93739986	0.0820000023	200	0	0
-12.5360003	6.93729973	0.0790000036	200	0	0
-12.54	6.93729973	0.0560000017	200	0	0
-12.54	6.93719959	0.0780000016	200	0	0
-12.5430002	6.93719959	0.0549999997	200	0	0
-12.5310001	6.93780088	0.0120000001	200	0	0
-12.5100002	6.93789959	0.0160000008	200	0	0
-12.5279999	6.93799973	0.0579999983	200	0	0
-12.5220003	6.93789959	0.0820000023	200	0	0
-12.5450001	6.93799973	0.100000001	200	0	0
-12.5249996	6.9382	0.0579999983	200	0	0
-12.5209999	6.93869972	0.0839999989	200	0	0
-12.533	6.93860006	0.104000002	200	0	0
-12.5299997	6.93860006	0.0599999987	200	0	0
-12.5100002	6.93860006	0.0860000029	200	0	0
-12.5249996	6.93849993	0.0610000007	200	0	0
-12.5179996	6.93849993	0.0850000009	200	0	0
-12.5310001	6.93840075	0.057	200	0	0
-12.5139999	6.93840075	0.0829999968	200	0	0
-12.5200005	6.93830013	0.0590000004	200	0	0
-12.5290003	6.9382	0.0799999982	200	0	0
-12.5170002	6.93809986	0.104999997	200	0	0
-12.5340004	6.93869972	0.0130000003	200	0	0
-12.5120001	6.93879986	0.0179999992	200	0	0
-12.5139999	6.93889999	0.0179999992	200	0	0
-12.5139999	6.93889999	0.063000001	200	0	0
-12.5229998	6.93879986	0.0610000007	200	0	0
-12.5159998	6.93909979	0.064000003	200	0	0
-12.5270004	6.93900108	0.0850000009	200	0	0
-12.5389996	6.93900108	0.0599999987	200	0	0
-12.5459995	6.93959999	0.109999999	200	0	0
-12.5340004	6.93959999	0.0670000017	200	0	0
-12.5369997	6.93950033	0.112000003	200	0	0
-12.5319996	6.93950033	0.0680000037	200	0	0
-12.5240002	6.93950033	0.0920000002	200	0	0
-12.5209999	6.9394002	0.0900000036	200	0	0
-12.526	6.93930006	0.0890000015	200	0	0
-12.5270004	6.93919992	0.0659999996	200	0	0
-12.5109997	6.93919992	0.0920000002	200	0	0
-12.5179996	6.93969965	0.0719999969	200	0	0
-12.5229998	6.93969965	0.116999999	200	0	0
-12.526	6.93979979	0.0939999968	200	0	0
-12.5310001	6.93969965	0.0930000022	200	0	0
-12.5270004	6.94049978	0.0960000008	200	0	0
-12.5200005	6.94039965	0.0970000029	200	0	0
-12.5319996	6.94030094	0.0949999988	200	0	0
-12.5319996	6.94010019	0.0700000003	200	0	0
-12.5349998	6.94000006	0.115000002	200	0	0
-12.5360003	6.94070005	0.0939999968	200	0	0
-12.5290003	6.94140005	0.0729999989	200	0	0
-12.5340004	6.94140005	0.0939999968	200	0	0
-12.5450001	6.94129992	0.115000002	200	0	0
-12.5299997	6.94129992	0.0719999969	200	0	0
-12.5310001	6.94129992	0.0949999988	200	0	0
-12.526	6.94119978	0.0960000008	200	0	0
-12.5319996	6.94109964	0.116999999	200	0	0
-12.5319996	6.94109964	0.0949999988	200	0	0
-12.5469999	6.94099998	0.114	200	0	0
-12.5380001	6.94099998	0.0939999968	200	0	0
-12.5159998	6.9409008	0.075000003	200	0	0
-12.5319996	6.9409008	0.0949999988	200	0	0
-12.5179996	6.94080019	0.075000003	200	0	0
-12.5319996	6.94080019	0.0949999988	200	0	0
-12.5150003	6.94159985	0.0979999974	200	0	0
-12.526	6.94129992	0.0280000009	200	0	0
-12.5349998	6.94150066	0.116999999	200	0	0
-12.5340004	6.94150066	0.0719999969	200	0	0
-12.5200005	6.94150066	0.0970000029	200	0	0
-12.5179996	6.94219971	0.0320000015	200	0	0
-12.5340004	6.94229984	0.074000001	200	0	0
-12.5100002	6.94199991	0.0109999999	200	0	0
-12.5360003	6.94210005	0.119000003	200	0	0
-12.526	6.94219971	0.0759999976	200	0	0
-12.5200005	6.94210005	0.0989999995	200	0	0
-12.5159998	6.94199991	0.0320000015	200	0	0
-12.5290003	6.94159985	0.00499999989	200	0	0
-12.5089998	6.94199991	0.101000004	200	0	0
-12.5319996	6.94140005	0.00400000019	200	0	0
-12.5279999	6.94190025	0.119999997	200	0	0
-12.5349998	6.94180012	0.119000003	200	0	0
-12.5150003	6.94180012	0.0320000015	200	0	0
-12.54	6.94190025	0.0949999988	200	0	0
-12.5419998	6.94159985	0.0250000004	200	0	0
-12.5249996	6.94180012	0.0979999974	200	0	0
-12.5170002	6.94150066	0.0299999993	200	0	0
-12.5150003	6.94169998	0.100000001	200	0	0
-12.5430002	6.94180012	0.0719999969	200	0	0
-12.5120001	6.94250011	0.126000002	200	0	0
-12.5209999	6.94250011	0.101000004	200	0	0
-12.5270004	6.94239998	0.123000003	200	0	0
-12.5200005	6.94239998	0.0790000036	200	0	0
-12.5319996	6.94239998	0.0989999995	200	0	0
-12.5089998	6.94219971	0.0109999999	200	0	0
-12.5170002	6.94239998	0.0340000018	200	0	0
-12.5349998	6.94229984	0.0280000009	200	0	0
-12.5430002	6.94299984	0.0769999996	200	0	0
-12.5360003	6.942801	0.101000004	200	0	0
-12.5120001	6.94270039	0.104999997	200	0	0
-12.5229998	6.94299984	0.0350000001	200	0	0
-12.5249996	6.94260025	0.101000004	200	0	0
-12.5170002	6.942801	0.0820000023	200	0	0
-12.526	6.9428997	0.0350000001	200	0	0
-12.5229998	6.94270039	0.0810000002	200	0	0
-12.493	6.942801	0.0410000011	200	0	0
-12.5039997	6.94260025	0.0820000023	200	0	0
-12.5120001	6.942801	0.0149999997	200	0	0
-12.5089998	6.94270039	0.0149999997	200	0	0
-12.5129995	6.94270039	0.0370000005	200	0	0
-12.5150003	6.94260025	0.0350000001	200	0	0
-12.5089998	6.94250011	0.0130000003	200	0	0
-12.5120001	6.94250011	0.0350000001	200	0	0
-12.5139999	6.94229984	0.00999999978	200	0	0
-12.5150003	6.94320011	0.104999997	200	0	0
-12.5159998	6.94320011	0.0820000023	200	0	0
-12.5200005	6.94299984	0.126000002	200	0	0
-12.5360003	6.94309998	0.101000004	200	0	0
-12.5170002	6.9428997	0.127000004	200	0	0
-12.5240002	6.94299984	0.103	200	0	0
-12.5389996	6.942801	0.123000003	200	0	0
-12.5200005	6.94260025	0.123999998	200	0	0
-12.5150003	6.94340086	0.104999997	200	0	0
-12.5290003	6.94340086	0.125	200	0	0
-12.5319996	6.94330025	0.101999998	200	0	0
-12.5229998	6.94320011	0.148000002	200	0	0
-12.5150003	6.94340086	0.0820000023	200	0	0
-12.5299997	6.94390011	0.0790000036	200	0	0
-12.5229998	6.94369984	0.126000002	200	0	0
-12.533	6.94369984	0.101000004	200	0	0
-12.5179996	6.9435997	0.104000002	200	0	0
-12.54	6.94369984	0.0769999996	200	0	0
-12.5310001	6.94349957	0.101999998	200	0	0
-12.5150003	6.94390011	0.127000004	200	0	0
-12.5369997	6.94420004	0.0780000016	200	0	0
-12.5270004	6.94420004	0.125	200	0	0
-12.5369997	6.9447999	0.0970000029	200	0	0
-12.5100002	6.94469976	0.0790000036	200	0	0
-12.533	6.94460011	0.119999997	200	0	0
-12.4960003	6.94439983	0.0390000008	200	0	0
-12.5319996	6.94460011	0.075000003	200	0	0
-12.5270004	6.94449997	0.0780000016	200	0	0
-12.5290003	6.94500017	0.0960000008	200	0	0
-12.5290003	6.94490004	0.0979999974	200	0	0
-12.5179996	6.9454999	0.0960000008	200	0	0
-12.5209999	6.94530106	0.118000001	200	0	0
