-0.280000001	6.78849983	-0.25	0	200	0
-0.280999988	6.7887001	-0.209999993	0	200	0
-0.270999998	6.78859997	-0.247999996	0	200	0
-0.27700001	6.7887001	-0.210999995	0	200	0
-0.26699999	6.7887001	-0.209999993	0	200	0
-0.257999986	6.7887001	-0.210999995	0	200	0
-0.252999991	6.7887001	-0.210999995	0	200	0
-0.244000003	6.7887001	-0.211999997	0	200	0
-0.233999997	6.7887001	-0.214000002	0	200	0
-0.230000004	6.7887001	-0.215000004	0	200	0
-0.219999999	6.7887001	-0.214000002	0	200	0
-0.223000005	6.78969955	-0.248999998	0	200	0
-0.210999995	6.78989983	-0.217999995	0	200	0
-0.206	6.78989983	-0.218999997	0	200	0
-0.192000002	6.78989983	-0.218999997	0	200	0
0.0160000008	6.78900099	-0.25	0	200	0
-0.282999992	6.78900099	-0.277999997	0	200	0
-0.280999988	6.7894001	-0.209999993	0	200	0
-0.308999985	6.7887001	-0.207000002	0	200	0
-0.27700001	6.7894001	-0.214000002	0	200	0
-0.305000007	6.7887001	-0.209000006	0	200	0
-0.300000012	6.7887001	-0.209999993	0	200	0
-0.239999995	6.78960037	-0.279000014	0	200	0
-0.648000002	6.78929996	-0.125	0	200	0
-0.605000019	6.78950024	-0.232999995	0	200	0
-0.593999982	6.78950024	-0.230000004	0	200	0
-0.583999991	6.78950024	-0.229000002	0	200	0
-0.601999998	6.78960037	-0.264999986	0	200	0
-0.579999983	6.78950024	-0.232999995	0	200	0
-0.591000021	6.78960037	-0.263999999	0	200	0
-0.569999993	6.78960037	-0.282999992	0	200	0
-0.587000012	6.78960037	-0.264999986	0	200	0
-0.31400001	6.78929996	-0.207000002	0	200	0
-0.300000012	6.78929996	-0.207000002	0	200	0
-0.250999987	6.78909969	-0.30399999	0	200	0
-0.261000007	6.78909969	-0.300999999	0	200	0
-0.287999988	6.78900099	-0.277999997	0	200	0
-0.314999998	6.7887001	-0.210999995	0	200	0
-0.363000005	6.78960037	-0.289000005	0	200	0
-0.34799999	6.78960037	-0.287999988	0	200	0
-0.344000012	6.78960037	-0.294	0	200	0
-0.284999996	6.78960037	-0.294999987	0	200	0
-0.338999987	6.78960037	-0.293000013	0	200	0
-0.298999995	6.78960037	-0.284000009	0	200	0
-0.323000014	6.78960037	-0.282999992	0	200	0
-0.317999989	6.78960037	-0.280999988	0	200	0
-0.617999971	6.78989983	-0.162	0	200	0
-0.577000022	6.79039955	-0.195999995	0	200	0
-0.563000023	6.79039955	-0.195999995	0	200	0
-0.568000019	6.79039955	-0.197999999	0	200	0
-0.573000014	6.79039955	-0.200000003	0	200	0
-0.549000025	6.79039955	-0.202000007	0	200	0
-0.609000027	6.78989983	-0.165000007	0	200	0
-0.61500001	6.78989983	-0.170000002	0	200	0
-0.605000019	6.78989983	-0.165000007	0	200	0
-0.577000022	6.79020023	-0.268000007	0	200	0
-0.537	6.79020023	-0.240999997	0	200	0
-0.560000002	6.79020023	-0.254999995	0	200	0
-0.546999991	6.79020023	-0.239999995	0	200	0
-0.550999999	6.79020023	-0.238000005	0	200	0
-0.634000003	6.78989983	-0.164000005	0	200	0
-0.592000008	6.79039955	-0.194999993	0	200	0
-0.628000021	6.78989983	-0.160999998	0	200	0
-0.601000011	6.79039955	-0.193000004	0	200	0
-0.63499999	6.78999996	-0.128999993	0	200	0
-0.65200001	6.78989983	-0.138999999	0	200	0
-0.630999982	6.78989983	-0.130999997	0	200	0
-0.638999999	6.78989983	-0.147	0	200	0
0.137999997	6.78880024	-0.216000006	0	200	0
0.0970000029	6.78900099	-0.246000007	0	200	0
0.0920000002	6.78900099	-0.241999999	0	200	0
0.134000003	6.78880024	-0.216999993	0	200	0
0.143000007	6.7887001	-0.215000004	0	200	0
0.0689999983	6.78900099	-0.246999994	0	200	0
0.137999997	6.7887001	-0.216000006	0	200	0
0.123999998	6.78880024	-0.216000006	0	200	0
0.119999997	6.78880024	-0.216999993	0	200	0
0.115000002	6.78880024	-0.216999993	0	200	0
0.115000002	6.7887001	-0.215000004	0	200	0
0.0960000008	6.78880024	-0.217999995	0	200	0
0.0860000029	6.78880024	-0.216000006	0	200	0
0.0719999969	6.78880024	-0.218999997	0	200	0
0.0680000037	6.7887001	-0.214000002	0	200	0
0.643000007	6.78960037	-0.223000005	0	200	0
0.617999971	6.78960037	-0.268999994	0	200	0
0.559000015	6.78969955	-0.275000006	0	200	0
0.587000012	6.78960037	-0.264999986	0	200	0
0.628000021	6.78969955	-0.266000003	0	200	0
0.630999982	6.78969955	-0.261000007	0	200	0
0.640999973	6.78969955	-0.259000003	0	200	0
0.30399999	6.78880024	-0.211999997	0	200	0
0.312999994	6.78929996	-0.204999998	0	200	0
0.291999996	6.78900099	-0.275999993	0	200	0
0.308999985	6.78880024	-0.209000006	0	200	0
0.312999994	6.7887001	-0.208000004	0	200	0
0.296999991	6.78900099	-0.277999997	0	200	0
0.323000014	6.78880024	-0.208000004	0	200	0
0.328000009	6.7887001	-0.208000004	0	200	0
0.307000011	6.78900099	-0.27700001	0	200	0
0.333000004	6.7887001	-0.209000006	0	200	0
0.337000012	6.7887001	-0.206	0	200	0
0.337000012	6.78929996	-0.206	0	200	0
0.312000006	6.78900099	-0.279000014	0	200	0
0.345999986	6.7887001	-0.206	0	200	0
0.351000011	6.78929996	-0.203999996	0	200	0
0.316000015	6.78900099	-0.268999994	0	200	0
0.356000006	6.7887001	-0.204999998	0	200	0
0.361000001	6.7887001	-0.204999998	0	200	0
0.363000005	6.78919983	-0.224999994	0	200	0
0.377999991	6.78900099	-0.263000011	0	200	0
0.469999999	6.79039955	-0.223000005	0	200	0
0.460000008	6.79039955	-0.222000003	0	200	0
0.456	6.79039955	-0.226999998	0	200	0
0.462000012	6.79030085	-0.231999993	0	200	0
0.416000009	6.79020023	-0.282000005	0	200	0
0.493000001	6.79039955	-0.216000006	0	200	0
0.497999996	6.79039955	-0.216999993	0	200	0
0.485000014	6.79039955	-0.223000005	0	200	0
0.535000026	6.79020023	-0.229000002	0	200	0
0.50999999	6.79030085	-0.229000002	0	200	0
-0.246999994	6.79030085	-0.307999998	0	200	0
-0.187999994	6.79020023	-0.30399999	0	200	0
-0.192000002	6.79020023	-0.294	0	200	0
-0.196999997	6.79020023	-0.293000013	0	200	0
-0.211999997	6.79020023	-0.300999999	0	200	0
-0.0979999974	6.79030085	-0.254000008	0	200	0
0.101999998	6.78900099	-0.247999996	0	200	0
-0.656000018	6.79020023	-0.218999997	0	200	0
-0.65200001	6.79020023	-0.222000003	0	200	0
-0.460999995	6.78960037	-0.287	0	200	0
-0.342000008	6.79039955	-0.237000003	0	200	0
-0.361000001	6.79039955	-0.238000005	0	200	0
-0.356000006	6.79039955	-0.238999993	0	200	0
-0.409999996	6.78950024	-0.243000001	0	200	0
-0.412	6.78960037	-0.289000005	0	200	0
-0.556999981	6.79049969	-0.169	0	200	0
-0.561999977	6.79049969	-0.169	0	200	0
-0.565999985	6.79049969	-0.166999996	0	200	0
-0.57099998	6.79049969	-0.166999996	0	200	0
-0.632000029	6.79049969	-0.158999994	0	200	0
-0.629000008	6.79049969	-0.165000007	0	200	0
-0.609000027	6.79049969	-0.163000003	0	200	0
-0.614000022	6.79049969	-0.165000007	0	200	0
-0.617999971	6.79049969	-0.159999996	0	200	0
-0.504000008	6.79080009	-0.248999998	0	200	0
-0.514999986	6.79080009	-0.252999991	0	200	0
-0.601999998	6.79090071	-0.268000007	0	200	0
-0.647000015	6.79080009	-0.224000007	0	200	0
-0.628000021	6.79080009	-0.248999998	0	200	0
-0.575999975	6.79080009	-0.263999999	0	200	0
-0.504000008	6.79059982	-0.192000002	0	200	0
-0.595000029	6.79090071	-0.280999988	0	200	0
-0.660000026	6.79080009	-0.234999999	0	200	0
0.157000005	6.78880024	-0.215000004	0	200	0
0.148000002	6.78880024	-0.216999993	0	200	0
0.143000007	6.78880024	-0.216999993	0	200	0
0.577000022	6.79030085	-0.221000001	0	200	0
0.531000018	6.79039955	-0.209999993	0	200	0
0.52700001	6.79039955	-0.213	0	200	0
0.574000001	6.79039955	-0.207000002	0	200	0
0.541000009	6.79039955	-0.209000006	0	200	0
0.564999998	6.79039955	-0.207000002	0	200	0
0.555000007	6.79039955	-0.208000004	0	200	0
0.569999993	6.79039955	-0.209000006	0	200	0
0.546000004	6.79039955	-0.209999993	0	200	0
0.550999999	6.79039955	-0.209999993	0	200	0
0.578999996	6.79039955	-0.206	0	200	0
0.287999988	6.78900099	-0.282999992	0	200	0
0.282999992	6.78900099	-0.279000014	0	200	0
0.273000002	6.78900099	-0.273999989	0	200	0
0.256999999	6.78929996	-0.211999997	0	200	0
0.266000003	6.78929996	-0.213	0	200	0
0.280000001	6.78929996	-0.209000006	0	200	0
0.284999996	6.78929996	-0.208000004	0	200	0
0.252000004	6.7887001	-0.213	0	200	0
0.289999992	6.78929996	-0.209999993	0	200	0
0.279000014	6.78909969	-0.245000005	0	200	0
0.298999995	6.78929996	-0.209999993	0	200	0
0.256000012	6.7887001	-0.209999993	0	200	0
0.261000007	6.7887001	-0.211999997	0	200	0
0.266000003	6.7887001	-0.214000002	0	200	0
0.284999996	6.7887001	-0.209999993	0	200	0
0.289999992	6.7887001	-0.209000006	0	200	0
0.298999995	6.7887001	-0.209000006	0	200	0
0.30399999	6.7887001	-0.209000006	0	200	0
0.289999992	6.78960037	-0.296999991	0	200	0
0.25999999	6.78960037	-0.298999995	0	200	0
0.270000011	6.78960037	-0.294999987	0	200	0
0.407000005	6.79080009	-0.287999988	0	200	0
0.529999971	6.79090071	-0.280000001	0	200	0
0.533999979	6.79090071	-0.272000015	0	200	0
0.421000004	6.79090071	-0.284999996	0	200	0
0.542999983	6.79049969	-0.172999993	0	200	0
0.537999988	6.79049969	-0.174999997	0	200	0
0.470999986	6.79120016	-0.199000001	0	200	0
0.535000026	6.79049969	-0.180999994	0	200	0
0.526000023	6.79049969	-0.185000002	0	200	0
0.521000028	6.79049969	-0.185000002	0	200	0
0.515999973	6.79049969	-0.185000002	0	200	0
0.418000013	6.79049969	-0.200000003	0	200	0
0.512000024	6.79049969	-0.189999998	0	200	0
0.521000028	6.79039955	-0.208000004	0	200	0
0.515999973	6.79039955	-0.209999993	0	200	0
0.503000021	6.79049969	-0.192000002	0	200	0
0.499000013	6.79049969	-0.194000006	0	200	0
0.493000001	6.79049969	-0.192000002	0	200	0
0.507000029	6.79039955	-0.215000004	0	200	0
0.449999988	6.79049969	-0.194999993	0	200	0
0.488999993	6.79049969	-0.194999993	0	200	0
0.479000002	6.79049969	-0.194999993	0	200	0
0.474999994	6.79049969	-0.195999995	0	200	0
0.344000012	6.79080009	-0.298999995	0	200	0
0.552999973	6.79090071	-0.268000007	0	200	0
0.542999983	6.79090071	-0.270000011	0	200	0
-0.163000003	6.79080009	-0.298999995	0	200	0
-0.31400001	6.79080009	-0.291000009	0	200	0
-0.308999985	6.79080009	-0.291000009	0	200	0
-0.275999993	6.79080009	-0.305999994	0	200	0
-0.221000001	6.79080009	-0.298000008	0	200	0
-0.160999998	6.79090071	-0.261000007	0	200	0
-0.152999997	6.79080009	-0.300999999	0	200	0
-0.338	6.79080009	-0.293000013	0	200	0
-0.38499999	6.79049969	-0.200000003	0	200	0
-0.379999995	6.79049969	-0.201000005	0	200	0
-0.375999987	6.79049969	-0.202999994	0	200	0
-0.370999992	6.79049969	-0.202000007	0	200	0
-0.384000003	6.79039955	-0.231999993	0	200	0
-0.361000001	6.79049969	-0.202000007	0	200	0
-0.34799999	6.79049969	-0.207000002	0	200	0
-0.657000005	6.79110003	-0.119999997	0	200	0
0.628000021	6.79080009	-0.245000005	0	200	0
0.612999976	6.79049969	-0.163000003	0	200	0
0.307999998	6.79030085	-0.286000013	0	200	0
0.319000006	6.79080009	-0.296000004	0	200	0
0.324000001	6.79080009	-0.293000013	0	200	0
0.389999986	6.79139996	-0.239999995	0	200	0
0.600000024	6.79139996	-0.252000004	0	200	0
0.38499999	6.79169989	-0.207000002	0	200	0
0.342000008	6.79159975	-0.239999995	0	200	0
0.289999992	6.79090071	-0.301999986	0	200	0
-0.223000005	6.79150105	-0.261999995	0	200	0
-0.152999997	6.79139996	-0.30399999	0	200	0
-0.232999995	6.79150105	-0.257999986	0	200	0
-0.238000005	6.79150105	-0.259000003	0	200	0
-0.595000029	6.79169989	-0.166999996	0	200	0
-0.605000019	6.79169989	-0.167999998	0	200	0
-0.60799998	6.79169989	-0.160999998	0	200	0
-0.632000029	6.79169989	-0.157000005	0	200	0
-0.638000011	6.79169989	-0.143999994	0	200	0
-0.654999971	6.79169989	-0.135000005	0	200	0
0.634000003	6.79120016	-0.165999994	0	200	0
0.629000008	6.79120016	-0.166999996	0	200	0
0.629000008	6.79110003	-0.127000004	0	200	0
0.623000026	6.79110003	-0.141000003	0	200	0
0.333000004	6.79169989	-0.210999995	0	200	0
0.370999992	6.79169989	-0.207000002	0	200	0
0.351000011	6.79159975	-0.238000005	0	200	0
0.375999987	6.79169989	-0.211999997	0	200	0
0.533999979	6.79210043	-0.275000006	0	200	0
0.619000018	6.79169989	-0.163000003	0	200	0
0.551999986	6.79210043	-0.214000002	0	200	0
0.572000027	6.79210043	-0.218999997	0	200	0
0.294	6.79210043	-0.289999992	0	200	0
0.300000012	6.79210043	-0.294999987	0	200	0
-0.623000026	6.79200029	-0.250999987	0	200	0
-0.60799998	6.79200029	-0.250999987	0	200	0
-0.630999982	6.79200029	-0.243000001	0	200	0
-0.612999976	6.79200029	-0.248999998	0	200	0
-0.63499999	6.79239988	-0.172000006	0	200	0
-0.595000029	6.79210043	-0.233999997	0	200	0
-0.589999974	6.79169989	-0.167999998	0	200	0
-0.606000006	6.79200029	-0.263000011	0	200	0
0.55400002	6.79270029	-0.224999994	0	200	0
0.572000027	6.79260015	-0.263000011	0	200	0
0.569000006	6.79260015	-0.270000011	0	200	0
0.558000028	6.79260015	-0.264999986	0	200	0
0.510999978	6.79260015	-0.284999996	0	200	0
0.629999995	6.79260015	-0.252999991	0	200	0
0.298999995	6.79270029	-0.287999988	0	200	0
-0.56099999	6.79270029	-0.238000005	0	200	0
-0.56099999	6.79260015	-0.263999999	0	200	0
-0.565999985	6.79260015	-0.26699999	0	200	0
-0.542999983	6.79200029	-0.273000002	0	200	0
-0.577000022	6.79260015	-0.268999994	0	200	0
-0.58099997	6.79260015	-0.263999999	0	200	0
-0.55400002	6.79200029	-0.277999997	0	200	0
-0.558000028	6.79200029	-0.275000006	0	200	0
-0.601999998	6.79260015	-0.26699999	0	200	0
-0.588	6.79200029	-0.273000002	0	200	0
-0.591000021	6.79200029	-0.263999999	0	200	0
-0.601000011	6.79200029	-0.266000003	0	200	0
-0.643999994	6.79289961	-0.128999993	0	200	0
-0.635999978	6.79289961	-0.136999995	0	200	0
0.504999995	6.79320002	-0.280000001	0	200	0
0.51700002	6.79320002	-0.287999988	0	200	0
0.523000002	6.79320002	-0.291000009	0	200	0
0.574999988	6.79320002	-0.231999993	0	200	0
0.638999999	6.79330015	-0.270000011	0	200	0
0.633000016	6.79330015	-0.26699999	0	200	0
0.256000012	6.79320002	-0.250999987	0	200	0
0.270999998	6.79320002	-0.247999996	0	200	0
0.280999988	6.79320002	-0.254999995	0	200	0
-0.592000008	6.79330015	-0.293000013	0	200	0
-0.61500001	6.79320002	-0.282999992	0	200	0
-0.593999982	6.79330015	-0.280999988	0	200	0
-0.601999998	6.79330015	-0.270999998	0	200	0
-0.583999991	6.79330015	-0.280999988	0	200	0
-0.528999984	6.79320002	-0.280000001	0	200	0
-0.638999999	6.79349995	-0.148000002	0	200	0
0.432999998	6.79369974	-0.233999997	0	200	0
0.605000019	6.79360008	-0.165999994	0	200	0
-0.49000001	6.79330015	-0.282999992	0	200	0
-0.477999985	6.79390001	-0.243000001	0	200	0
-0.474000007	6.79390001	-0.25	0	200	0
-0.634000003	6.79419994	-0.167999998	0	200	0
-0.626999974	6.79409981	-0.162	0	200	0
-0.632000029	6.79409981	-0.159999996	0	200	0
-0.54400003	6.79450035	-0.282999992	0	200	0
-0.476999998	6.79450035	-0.300000012	0	200	0
-0.523999989	6.79450035	-0.256000012	0	200	0
-0.49000001	6.79450035	-0.287999988	0	200	0
-0.589999974	6.79489994	-0.214000002	0	200	0
-0.595000029	6.79489994	-0.214000002	0	200	0
-0.671999991	6.79450035	-0.246000007	0	200	0
-0.598999977	6.79489994	-0.210999995	0	200	0
-0.637000024	6.79450035	-0.246000007	0	200	0
-0.646000028	6.79450035	-0.240999997	0	200	0
-0.593999982	6.7947998	-0.167999998	0	200	0
-0.60799998	6.7947998	-0.162	0	200	0
-0.614000022	6.7947998	-0.169	0	200	0
-0.643000007	6.79440022	-0.273999989	0	200	0
-0.638999999	6.79440022	-0.279000014	0	200	0
-0.633000016	6.79440022	-0.275999993	0	200	0
-0.600000024	6.79500008	-0.240999997	0	200	0
-0.579999983	6.79489994	-0.216000006	0	200	0
-0.628000021	6.79440022	-0.273999989	0	200	0
-0.574999988	6.79489994	-0.215000004	0	200	0
-0.57099998	6.79489994	-0.216999993	0	200	0
-0.566999972	6.79489994	-0.221000001	0	200	0
-0.583000004	6.79510021	-0.254999995	0	200	0
-0.619000018	6.79440022	-0.280999988	0	200	0
-0.504999995	6.79489994	-0.231999993	0	200	0
-0.551999986	6.79489994	-0.219999999	0	200	0
-0.556999981	6.79489994	-0.222000003	0	200	0
-0.546999991	6.79489994	-0.222000003	0	200	0
-0.542999983	6.79489994	-0.223000005	0	200	0
-0.614000022	6.79450035	-0.280000001	0	200	0
-0.519999981	6.79489994	-0.231999993	0	200	0
-0.528999984	6.79489994	-0.229000002	0	200	0
-0.523999989	6.79489994	-0.231000006	0	200	0
-0.533999979	6.79489994	-0.229000002	0	200	0
-0.572000027	6.79500008	-0.246999994	0	200	0
-0.561999977	6.79500008	-0.245000005	0	200	0
-0.529999971	6.79510021	-0.289999992	0	200	0
-0.546000004	6.79510021	-0.293000013	0	200	0
-0.560000002	6.79450035	-0.287	0	200	0
-0.555000007	6.79450035	-0.286000013	0	200	0
-0.405999988	6.79510021	-0.286000013	0	200	0
-0.409999996	6.79510021	-0.282000005	0	200	0
-0.493999988	6.7947998	-0.196999997	0	200	0
-0.651000023	6.79440022	-0.264999986	0	200	0
-0.638999999	6.79530096	-0.150000006	0	200	0
-0.630999982	6.79539967	-0.156000003	0	200	0
-0.626999974	6.79539967	-0.159999996	0	200	0
-0.666999996	6.79510021	-0.226999998	0	200	0
-0.617999971	6.79539967	-0.164000005	0	200	0
-0.564999998	6.79539967	-0.166999996	0	200	0
-0.60799998	6.79539967	-0.164000005	0	200	0
-0.602999985	6.79539967	-0.164000005	0	200	0
-0.583999991	6.79539967	-0.165999994	0	200	0
-0.579999983	6.79539967	-0.166999996	0	200	0
-0.593999982	6.79539967	-0.166999996	0	200	0
-0.588999987	6.79539967	-0.166999996	0	200	0
-0.65200001	6.79530096	-0.143000007	0	200	0
-0.646000028	6.79539967	-0.141000003	0	200	0
-0.54400003	6.79570007	-0.284999996	0	200	0
-0.660000026	6.79570007	-0.240999997	0	200	0
-0.652999997	6.79570007	-0.250999987	0	200	0
-0.541000009	6.79570007	-0.294999987	0	200	0
-0.508000016	6.79570007	-0.305000007	0	200	0
-0.513000011	6.79570007	-0.303000003	0	200	0
-0.338999987	6.79450035	-0.305000007	0	200	0
-0.44600001	6.79570007	-0.289000005	0	200	0
-0.382999986	6.79570007	-0.298000008	0	200	0
-0.42899999	6.79570007	-0.277999997	0	200	0
-0.361999989	6.79510021	-0.287999988	0	200	0
-0.391000003	6.79510021	-0.287	0	200	0
-0.625	6.79599953	-0.155000001	0	200	0
-0.632000029	6.79599953	-0.162	0	200	0
-0.60799998	6.79629993	-0.256000012	0	200	0
-0.514999986	6.79640007	-0.319000006	0	200	0
-0.300999999	6.79450035	-0.319000006	0	200	0
-0.375	6.79650068	-0.239999995	0	200	0
-0.435000002	6.79650068	-0.221000001	0	200	0
-0.430000007	6.79650068	-0.224999994	0	200	0
-0.398000002	6.79650068	-0.234999999	0	200	0
-0.407000005	6.79650068	-0.231000006	0	200	0
-0.402999997	6.79650068	-0.234999999	0	200	0
-0.412	6.79650068	-0.231999993	0	200	0
-0.421999991	6.79650068	-0.230000004	0	200	0
-0.425999999	6.79650068	-0.230000004	0	200	0
-0.310000002	6.79530096	-0.223000005	0	200	0
-0.546999991	6.79659986	-0.171000004	0	200	0
-0.555999994	6.79659986	-0.170000002	0	200	0
-0.560000002	6.79659986	-0.166999996	0	200	0
-0.564999998	6.79659986	-0.166999996	0	200	0
-0.569000006	6.79659986	-0.165000007	0	200	0
-0.578999996	6.79659986	-0.166999996	0	200	0
-0.583999991	6.79659986	-0.165999994	0	200	0
-0.588	6.79659986	-0.164000005	0	200	0
-0.593999982	6.79659986	-0.167999998	0	200	0
-0.603999972	6.79659986	-0.167999998	0	200	0
-0.60799998	6.79659986	-0.163000003	0	200	0
-0.635999978	6.79659986	-0.141000003	0	200	0
-0.629000008	6.79659986	-0.170000002	0	200	0
-0.619000018	6.79659986	-0.169	0	200	0
-0.612999976	6.79659986	-0.164000005	0	200	0
-0.633000016	6.79659986	-0.166999996	0	200	0
-0.661000013	6.79699993	-0.243000001	0	200	0
-0.651000023	6.79699993	-0.243000001	0	200	0
-0.561999977	6.7968998	-0.272000015	0	200	0
-0.626999974	6.7968998	-0.225999996	0	200	0
-0.503000021	6.7968998	-0.252000004	0	200	0
-0.499000013	6.7968998	-0.256000012	0	200	0
-0.509000003	6.7968998	-0.256999999	0	200	0
-0.495999992	6.79699993	-0.296000004	0	200	0
-0.210999995	6.79440022	-0.296999991	0	200	0
-0.458999991	6.79659986	-0.193000004	0	200	0
-0.455000013	6.79659986	-0.196999997	0	200	0
-0.289999992	6.79659986	-0.209000006	0	200	0
-0.298999995	6.79659986	-0.206	0	200	0
-0.444999993	6.79659986	-0.196999997	0	200	0
-0.441000015	6.79659986	-0.197999999	0	200	0
-0.331999987	6.7968998	-0.287999988	0	200	0
-0.430999994	6.79659986	-0.200000003	0	200	0
-0.381999999	6.7968998	-0.296000004	0	200	0
-0.426999986	6.79659986	-0.200000003	0	200	0
-0.421999991	6.79659986	-0.200000003	0	200	0
-0.323000014	6.79659986	-0.208000004	0	200	0
-0.416999996	6.79659986	-0.199000001	0	200	0
-0.326999992	6.79659986	-0.207000002	0	200	0
-0.331999987	6.79659986	-0.207000002	0	200	0
-0.407999992	6.79659986	-0.201000005	0	200	0
-0.337000012	6.79659986	-0.207000002	0	200	0
-0.402999997	6.79659986	-0.202000007	0	200	0
-0.398000002	6.79659986	-0.201000005	0	200	0
-0.345999986	6.79659986	-0.206	0	200	0
-0.393000007	6.79659986	-0.201000005	0	200	0
-0.351000011	6.79659986	-0.204999998	0	200	0
-0.360000014	6.79659986	-0.202999994	0	200	0
-0.356000006	6.79659986	-0.204999998	0	200	0
-0.370000005	6.79659986	-0.202999994	0	200	0
-0.384000003	6.79659986	-0.203999996	0	200	0
-0.375	6.79659986	-0.202999994	0	200	0
-0.379000008	6.79659986	-0.204999998	0	200	0
-0.384000003	6.79650068	-0.238000005	0	200	0
-0.379000008	6.79650068	-0.237000003	0	200	0
-0.523999989	6.79659986	-0.181999996	0	200	0
-0.519999981	6.79659986	-0.186000004	0	200	0
-0.515999973	6.79659986	-0.188999996	0	200	0
-0.510999978	6.79659986	-0.188999996	0	200	0
-0.501999974	6.79659986	-0.188999996	0	200	0
-0.488000005	6.79659986	-0.194000006	0	200	0
-0.479000002	6.79659986	-0.194999993	0	200	0
-0.469000012	6.79659986	-0.194000006	0	200	0
-0.232999995	6.79510021	-0.268999994	0	200	0
-0.218999997	6.79539967	-0.215000004	0	200	0
-0.219999999	6.79530096	-0.231999993	0	200	0
-0.229000002	6.79539967	-0.214000002	0	200	0
-0.230000004	6.79530096	-0.226999998	0	200	0
-0.234999999	6.79530096	-0.236000001	0	200	0
-0.244000003	6.79530096	-0.225999996	0	200	0
-0.252999991	6.79530096	-0.225999996	0	200	0
-0.257999986	6.79530096	-0.223000005	0	200	0
-0.27700001	6.79530096	-0.223000005	0	200	0
-0.61500001	6.79729986	-0.174999997	0	200	0
-0.533999979	6.79659986	-0.179000005	0	200	0
-0.537999988	6.79659986	-0.177000001	0	200	0
-0.541999996	6.79659986	-0.172999993	0	200	0
-0.619000018	6.79729986	-0.171000004	0	200	0
-0.634000003	6.79729986	-0.172999993	0	200	0
-0.644999981	6.7974	-0.177000001	0	200	0
-0.643999994	6.79750013	-0.194999993	0	200	0
-0.58099997	6.79750013	-0.272000015	0	200	0
-0.59799999	6.79760027	-0.257999986	0	200	0
-0.603999972	6.79760027	-0.259000003	0	200	0
-0.657000005	6.79760027	-0.230000004	0	200	0
-0.123000003	6.79450035	-0.300000012	0	200	0
-0.133000001	6.79450035	-0.294999987	0	200	0
-0.224999994	6.79390001	-0.282999992	0	200	0
-0.201000005	6.79390001	-0.296000004	0	200	0
-0.221000001	6.79390001	-0.296999991	0	200	0
-0.191	6.79440022	-0.289000005	0	200	0
-0.201000005	6.79440022	-0.298000008	0	200	0
-0.275999993	6.79659986	-0.211999997	0	200	0
-0.280000001	6.79659986	-0.209000006	0	200	0
-0.36500001	6.79760027	-0.246000007	0	200	0
-0.354999989	6.79760027	-0.241999999	0	200	0
-0.360000014	6.79760027	-0.245000005	0	200	0
-0.349999994	6.79760027	-0.244000003	0	200	0
-0.328000009	6.79750013	-0.25999999	0	200	0
-0.144999996	6.79530096	-0.237000003	0	200	0
-0.158000007	6.79539967	-0.217999995	0	200	0
-0.162	6.79539967	-0.216999993	0	200	0
-0.177000001	6.79570007	-0.30399999	0	200	0
-0.172000006	6.79539967	-0.216000006	0	200	0
-0.158999994	6.79530096	-0.233999997	0	200	0
-0.25	6.79570007	-0.301999986	0	200	0
-0.216000006	6.79570007	-0.296999991	0	200	0
-0.209999993	6.79539967	-0.216000006	0	200	0
-0.196999997	6.79530096	-0.236000001	0	200	0
-0.206	6.79530096	-0.234999999	0	200	0
-0.143999994	6.7947998	-0.216999993	0	200	0
-0.129999995	6.79530096	-0.233999997	0	200	0
-0.135000005	6.79530096	-0.238000005	0	200	0
-0.134000003	6.79539967	-0.216999993	0	200	0
-0.140000001	6.79530096	-0.236000001	0	200	0
-0.138999999	6.79539967	-0.216000006	0	200	0
-0.148000002	6.79539967	-0.216000006	0	200	0
-0.656000018	6.79789972	-0.143999994	0	200	0
-0.649999976	6.79789972	-0.138999999	0	200	0
-0.653999984	6.79820013	-0.259000003	0	200	0
-0.674000025	6.79809999	-0.25999999	0	200	0
-0.606999993	6.79809999	-0.252000004	0	200	0
-0.611999989	6.79809999	-0.254000008	0	200	0
-0.535000026	6.79809999	-0.317999989	0	200	0
-0.542999983	6.79820013	-0.280999988	0	200	0
-0.616999984	6.79820013	-0.273999989	0	200	0
-0.603999972	6.79820013	-0.263000011	0	200	0
-0.600000024	6.79820013	-0.266000003	0	200	0
-0.569000006	6.79820013	-0.284999996	0	200	0
-0.589999974	6.79820013	-0.266000003	0	200	0
-0.587000012	6.79820013	-0.277999997	0	200	0
-0.582000017	6.79820013	-0.273999989	0	200	0
-0.552999973	6.79809999	-0.284000009	0	200	0
-0.0780000016	6.7947998	-0.216999993	0	200	0
-0.0920000002	6.7947998	-0.216000006	0	200	0
-0.0780000016	6.79469967	-0.219999999	0	200	0
-0.0960000008	6.7947998	-0.216999993	0	200	0
-0.101000004	6.7947998	-0.216000006	0	200	0
-0.0869999975	6.79469967	-0.218999997	0	200	0
-0.0920000002	6.79469967	-0.217999995	0	200	0
-0.134000003	6.7947998	-0.216000006	0	200	0
-0.128999993	6.7947998	-0.216000006	0	200	0
-0.111000001	6.7947998	-0.216999993	0	200	0
-0.0960000008	6.79469967	-0.217999995	0	200	0
-0.115000002	6.7947998	-0.216999993	0	200	0
-0.119999997	6.7947998	-0.217999995	0	200	0
-0.101000004	6.79469967	-0.219999999	0	200	0
-0.0689999983	6.79510021	-0.279000014	0	200	0
-0.0989999995	6.79440022	-0.296999991	0	200	0
-0.307999998	6.79820013	-0.301999986	0	200	0
-0.317999989	6.79820013	-0.305999994	0	200	0
-0.323000014	6.79820013	-0.305999994	0	200	0
-0.333999991	6.79820013	-0.31099999	0	200	0
-0.338	6.79820013	-0.307999998	0	200	0
-0.361999989	6.79820013	-0.298000008	0	200	0
-0.234999999	6.79760027	-0.248999998	0	200	0
-0.0909999982	6.79609966	-0.214000002	0	200	0
-0.063000001	6.7947998	-0.217999995	0	200	0
-0.0960000008	6.79609966	-0.216999993	0	200	0
-0.0680000037	6.7947998	-0.216000006	0	200	0
-0.101000004	6.79609966	-0.217999995	0	200	0
-0.0790000036	6.79570007	-0.286000013	0	200	0
-0.101000004	6.79599953	-0.202000007	0	200	0
-0.109999999	6.79609966	-0.217999995	0	200	0
-0.115000002	6.79609966	-0.216999993	0	200	0
-0.109999999	6.79599953	-0.202999994	0	200	0
-0.063000001	6.79539967	-0.217999995	0	200	0
-0.0680000037	6.79539967	-0.217999995	0	200	0
-0.0869999975	6.79539967	-0.216999993	0	200	0
-0.0869999975	6.79530096	-0.234999999	0	200	0
-0.0920000002	6.79539967	-0.216999993	0	200	0
-0.0960000008	6.79539967	-0.216999993	0	200	0
-0.0920000002	6.79530096	-0.239999995	0	200	0
-0.101000004	6.79539967	-0.215000004	0	200	0
-0.0970000029	6.79530096	-0.232999995	0	200	0
-0.101999998	6.79530096	-0.232999995	0	200	0
-0.195999995	6.79640007	-0.294	0	200	0
-0.063000001	6.79469967	-0.218999997	0	200	0
-0.639999986	6.79879999	-0.202999994	0	200	0
-0.612999976	6.79879999	-0.280999988	0	200	0
-0.556999981	6.79879999	-0.279000014	0	200	0
-0.245000005	6.79869986	-0.250999987	0	200	0
-0.257999986	6.79859972	-0.240999997	0	200	0
-0.363999993	6.79879999	-0.317999989	0	200	0
-0.27700001	6.79859972	-0.239999995	0	200	0
-0.35800001	6.79879999	-0.308999985	0	200	0
-0.282000005	6.79859972	-0.239999995	0	200	0
-0.345999986	6.79879999	-0.291999996	0	200	0
-0.340999991	6.79879999	-0.289000005	0	200	0
-0.335999995	6.79879999	-0.291000009	0	200	0
-0.248999998	6.79820013	-0.30399999	0	200	0
-0.393000007	6.79879999	-0.308999985	0	200	0
-0.398000002	6.79879999	-0.310000002	0	200	0
-0.407000005	6.79879999	-0.303000003	0	200	0
-0.165999994	6.79809999	-0.300999999	0	200	0
-0.175999999	6.79820013	-0.301999986	0	200	0
-0.186000004	6.79820013	-0.307000011	0	200	0
-0.171000004	6.79809999	-0.300000012	0	200	0
-0.169	6.79699993	-0.246999994	0	200	0
-0.180999994	6.79780102	-0.216999993	0	200	0
-0.185000002	6.79760027	-0.284999996	0	200	0
-0.185000002	6.79780102	-0.219999999	0	200	0
-0.221000001	6.79760027	-0.245000005	0	200	0
0.0260000005	6.7947998	-0.203999996	0	200	0
0.0219999999	6.79580021	-0.247999996	0	200	0
-0.625	6.79939985	-0.26699999	0	200	0
-0.639999986	6.79939985	-0.26699999	0	200	0
-0.629999995	6.79939985	-0.264999986	0	200	0
-0.63499999	6.79939985	-0.264999986	0	200	0
-0.648000002	6.79939985	-0.256000012	0	200	0
-0.647000015	6.79929972	-0.230000004	0	200	0
-0.651000023	6.79929972	-0.226999998	0	200	0
-0.537	6.79939985	-0.301999986	0	200	0
-0.54400003	6.79939985	-0.289000005	0	200	0
-0.537999988	6.79929972	-0.280000001	0	200	0
-0.559000015	6.79939985	-0.287	0	200	0
-0.564999998	6.79929972	-0.317999989	0	200	0
-0.56400001	6.79939985	-0.289999992	0	200	0
-0.57099998	6.79939985	-0.296000004	0	200	0
-0.563000023	6.79929972	-0.280999988	0	200	0
-0.568000019	6.79929972	-0.282999992	0	200	0
-0.611000001	6.79939985	-0.293000013	0	200	0
-0.578000009	6.79929972	-0.282000005	0	200	0
-0.602999985	6.79939985	-0.282000005	0	200	0
-0.486999989	6.79939985	-0.305999994	0	200	0
-0.493000001	6.79939985	-0.308999985	0	200	0
-0.497000009	6.79939985	-0.305999994	0	200	0
-0.505999982	6.79939985	-0.298999995	0	200	0
-0.518000007	6.79939985	-0.312999994	0	200	0
-0.523000002	6.79939985	-0.312000006	0	200	0
-0.501999974	6.79929972	-0.27700001	0	200	0
-0.532999992	6.79939985	-0.308999985	0	200	0
-0.50999999	6.79929972	-0.291000009	0	200	0
-0.519999981	6.79929972	-0.291999996	0	200	0
-0.186000004	6.79929972	-0.303000003	0	200	0
-0.157000005	6.79849958	-0.214000002	0	200	0
-0.228	6.79960012	-0.219999999	0	200	0
-0.237000003	6.79960012	-0.222000003	0	200	0
-0.160999998	6.79849958	-0.215000004	0	200	0
-0.165999994	6.79900074	-0.219999999	0	200	0
-0.189999998	6.79929972	-0.287	0	200	0
-0.165999994	6.79849958	-0.216000006	0	200	0
-0.171000004	6.79849958	-0.216999993	0	200	0
-0.180000007	6.79849958	-0.215000004	0	200	0
-0.185000002	6.79849958	-0.216999993	0	200	0
-0.189999998	6.79900074	-0.218999997	0	200	0
-0.189999998	6.79849958	-0.214000002	0	200	0
-0.194000006	6.79849958	-0.215000004	0	200	0
-0.203999996	6.79849958	-0.215000004	0	200	0
-0.216000006	6.79869986	-0.25	0	200	0
-0.230000004	6.79869986	-0.250999987	0	200	0
-0.234999999	6.79869986	-0.247999996	0	200	0
-0.442999989	6.79939985	-0.312000006	0	200	0
-0.307999998	6.79939985	-0.303000003	0	200	0
-0.31400001	6.79939985	-0.307999998	0	200	0
-0.32100001	6.79939985	-0.326999992	0	200	0
-0.324999988	6.79939985	-0.32100001	0	200	0
-0.335000008	6.79939985	-0.32100001	0	200	0
-0.342000008	6.79939985	-0.300000012	0	200	0
-0.361000001	6.79939985	-0.289999992	0	200	0
-0.347000003	6.79939985	-0.296999991	0	200	0
-0.338999987	6.79939985	-0.317999989	0	200	0
-0.356999993	6.79939985	-0.296000004	0	200	0
-0.171000004	6.79820013	-0.300000012	0	200	0
-0.472000003	6.79939985	-0.307000011	0	200	0
-0.462000012	6.79939985	-0.303000003	0	200	0
-0.456999987	6.79939985	-0.30399999	0	200	0
-0.448000014	6.79939985	-0.312999994	0	200	0
-0.48300001	6.79939985	-0.31099999	0	200	0
-0.137999997	6.79849958	-0.214000002	0	200	0
-0.119000003	6.79780102	-0.219999999	0	200	0
-0.143000007	6.79849958	-0.216999993	0	200	0
-0.147	6.79849958	-0.217999995	0	200	0
-0.137999997	6.79780102	-0.217999995	0	200	0
-0.147	6.79840088	-0.216999993	0	200	0
-0.143999994	6.79859972	-0.240999997	0	200	0
-0.0979999974	6.79809999	-0.287999988	0	200	0
-0.103	6.79809999	-0.289999992	0	200	0
-0.112000003	6.79809999	-0.293000013	0	200	0
-0.116999999	6.79809999	-0.296000004	0	200	0
-0.135000005	6.79820013	-0.270000011	0	200	0
-0.122000001	6.79809999	-0.296999991	0	200	0
-0.131999999	6.79809999	-0.305000007	0	200	0
-0.136999995	6.79809999	-0.301999986	0	200	0
-0.114	6.79849958	-0.214000002	0	200	0
-0.0860000029	6.79780102	-0.218999997	0	200	0
-0.108999997	6.79840088	-0.213	0	200	0
-0.119000003	6.79849958	-0.216000006	0	200	0
-0.0960000008	6.79780102	-0.218999997	0	200	0
-0.133000001	6.79849958	-0.215000004	0	200	0
-0.115000002	6.79780102	-0.219999999	0	200	0
0.125	6.7947998	-0.216999993	0	200	0
0.120999999	6.7947998	-0.218999997	0	200	0
0.0970000029	6.79539967	-0.216999993	0	200	0
0.0799999982	6.79510021	-0.273999989	0	200	0
0.115999997	6.7947998	-0.217999995	0	200	0
0.111000001	6.7947998	-0.217999995	0	200	0
0.0729999989	6.79539967	-0.218999997	0	200	0
0.101999998	6.7947998	-0.218999997	0	200	0
0.0970000029	6.7947998	-0.218999997	0	200	0
0.064000003	6.79539967	-0.217999995	0	200	0
0.0920000002	6.7947998	-0.216999993	0	200	0
0.0879999995	6.7947998	-0.217999995	0	200	0
0.0780000016	6.7947998	-0.218999997	0	200	0
0.111000001	6.79609966	-0.216999993	0	200	0
0.0500000007	6.7967	-0.217999995	0	200	0
0.0689999983	6.79659986	-0.215000004	0	200	0
0.0450000018	6.7967	-0.217999995	0	200	0
0.0410000011	6.7967	-0.216000006	0	200	0
0.101999998	6.79609966	-0.216000006	0	200	0
-0.550000012	6.79990005	-0.266000003	0	200	0
-0.612999976	6.80000019	-0.259000003	0	200	0
-0.128999993	6.79960012	-0.231999993	0	200	0
-0.133000001	6.79960012	-0.229000002	0	200	0
-0.137999997	6.79960012	-0.230000004	0	200	0
-0.143000007	6.79960012	-0.230000004	0	200	0
-0.148000002	6.79960012	-0.231000006	0	200	0
-0.204999998	6.79960012	-0.228	0	200	0
-0.189999998	6.79960012	-0.228	0	200	0
-0.061999999	6.79849958	-0.215000004	0	200	0
-0.0949999988	6.79849958	-0.216000006	0	200	0
-0.100000001	6.79849958	-0.216999993	0	200	0
-0.108999997	6.79849958	-0.215000004	0	200	0
-0.185000002	6.80030107	-0.214000002	0	200	0
-0.180000007	6.80019999	-0.215000004	0	200	0
-0.185000002	6.80019999	-0.215000004	0	200	0
-0.208000004	6.80030107	-0.214000002	0	200	0
-0.188999996	6.80019999	-0.216000006	0	200	0
-0.203999996	6.80019999	-0.215000004	0	200	0
-0.208000004	6.80019999	-0.216000006	0	200	0
-0.256000012	6.79969978	-0.210999995	0	200	0
-0.237000003	6.79969978	-0.211999997	0	200	0
-0.231999993	6.79969978	-0.214000002	0	200	0
-0.226999998	6.79969978	-0.213	0	200	0
-0.108999997	6.79969978	-0.216999993	0	200	0
-0.0529999994	6.79849958	-0.216000006	0	200	0
-0.0769999996	6.79760027	-0.246999994	0	200	0
0.0949999988	6.79430008	-0.296000004	0	200	0
0.114	6.79430008	-0.291999996	0	200	0
0.215000004	6.7947998	-0.214000002	0	200	0
0.128999993	6.79450035	-0.300000012	0	200	0
0.138999999	6.79450035	-0.296000004	0	200	0
0.0900000036	6.79440022	-0.284000009	0	200	0
0.143999994	6.79450035	-0.294	0	200	0
0.123999998	6.79450035	-0.294999987	0	200	0
0.138999999	6.79409981	-0.217999995	0	200	0
0.181999996	6.7947998	-0.216999993	0	200	0
0.127000004	6.79440022	-0.254000008	0	200	0
0.172999993	6.7947998	-0.216000006	0	200	0
0.167999998	6.7947998	-0.216000006	0	200	0
0.163000003	6.7947998	-0.217999995	0	200	0
0.158000007	6.7947998	-0.216999993	0	200	0
0.149000004	6.7947998	-0.217999995	0	200	0
0.143999994	6.7947998	-0.217999995	0	200	0
0.140000001	6.7947998	-0.217999995	0	200	0
0.135000005	6.7947998	-0.216999993	0	200	0
0.167999998	6.79609966	-0.216000006	0	200	0
0.163000003	6.79609966	-0.216000006	0	200	0
0.158000007	6.79609966	-0.215000004	0	200	0
0.162	6.79599953	-0.200000003	0	200	0
0.151999995	6.79580021	-0.273999989	0	200	0
0.149000004	6.79609966	-0.216999993	0	200	0
0.143000007	6.79580021	-0.27700001	0	200	0
0.143999994	6.79609966	-0.216000006	0	200	0
0.147	6.79580021	-0.270000011	0	200	0
0.138999999	6.79609966	-0.215000004	0	200	0
0.135000005	6.79609966	-0.217999995	0	200	0
0.125	6.79609966	-0.216000006	0	200	0
0.120999999	6.79609966	-0.216000006	0	200	0
0.115999997	6.79609966	-0.216999993	0	200	0
0.125	6.79599953	-0.203999996	0	200	0
0.112999998	6.79699993	-0.250999987	0	200	0
0.199000001	6.79629993	-0.246999994	0	200	0
0.206	6.79609966	-0.216000006	0	200	0
0.0939999968	6.7968998	-0.248999998	0	200	0
0.195999995	6.79609966	-0.216000006	0	200	0
0.0549999997	6.7967	-0.216999993	0	200	0
0.191	6.79609966	-0.215000004	0	200	0
0.064000003	6.7967	-0.217999995	0	200	0
0.0689999983	6.7967	-0.216000006	0	200	0
0.181999996	6.79609966	-0.216000006	0	200	0
0.074000001	6.7967	-0.216999993	0	200	0
0.0780000016	6.7967	-0.216999993	0	200	0
0.074000001	6.79659986	-0.216000006	0	200	0
0.172999993	6.79609966	-0.216000006	0	200	0
0.0920000002	6.79659986	-0.215000004	0	200	0
0.0970000029	6.79659986	-0.217999995	0	200	0
0.100000001	6.7968998	-0.280000001	0	200	0
0.0930000022	6.79729986	-0.216999993	0	200	0
0.0689999983	6.79719973	-0.215000004	0	200	0
0.140000001	6.79729986	-0.215000004	0	200	0
0.135000005	6.79729986	-0.216999993	0	200	0
-0.629000008	6.80049992	-0.261999995	0	200	0
-0.48300001	6.80060005	-0.280999988	0	200	0
-0.624000013	6.80049992	-0.263999999	0	200	0
-0.495000005	6.80060005	-0.291999996	0	200	0
-0.606999993	6.80060005	-0.252000004	0	200	0
-0.598999977	6.80060005	-0.240999997	0	200	0
-0.504999995	6.80060005	-0.294	0	200	0
-0.596000016	6.80060005	-0.246999994	0	200	0
-0.50999999	6.80060005	-0.291999996	0	200	0
-0.60799998	6.80049992	-0.259000003	0	200	0
-0.603999972	6.80049992	-0.261999995	0	200	0
-0.51700002	6.80060005	-0.275999993	0	200	0
-0.59799999	6.80049992	-0.256000012	0	200	0
-0.526000023	6.80060005	-0.275000006	0	200	0
-0.531000018	6.80060005	-0.275000006	0	200	0
-0.561999977	6.80060005	-0.279000014	0	200	0
-0.541999996	6.80060005	-0.280000001	0	200	0
-0.588999987	6.80049992	-0.261000007	0	200	0
-0.536000013	6.80060005	-0.270000011	0	200	0
-0.555999994	6.80060005	-0.273999989	0	200	0
-0.550999999	6.80060005	-0.275000006	0	200	0
-0.586000025	6.80049992	-0.272000015	0	200	0
-0.579999983	6.80049992	-0.266000003	0	200	0
-0.666000009	6.80060005	-0.204999998	0	200	0
-0.632000029	6.80070019	-0.275999993	0	200	0
-0.628000021	6.80070019	-0.277999997	0	200	0
-0.644999981	6.80060005	-0.245000005	0	200	0
-0.629999995	6.80060005	-0.241999999	0	200	0
-0.632000029	6.80060005	-0.273000002	0	200	0
-0.626999974	6.80060005	-0.27700001	0	200	0
-0.112000003	6.80010033	-0.291999996	0	200	0
-0.0529999994	6.79960012	-0.229000002	0	200	0
-0.114	6.80030107	-0.217999995	0	200	0
-0.119000003	6.80030107	-0.216000006	0	200	0
-0.167999998	6.80049992	-0.261000007	0	200	0
0.0320000015	6.79849958	-0.215000004	0	200	0
-0.145999998	6.80060005	-0.289999992	0	200	0
-0.141000003	6.80060005	-0.287	0	200	0
-0.174999997	6.80060005	-0.296000004	0	200	0
-0.185000002	6.80060005	-0.296000004	0	200	0
-0.170000002	6.80060005	-0.294	0	200	0
-0.150000006	6.80060005	-0.286000013	0	200	0
-0.234999999	6.80060005	-0.252000004	0	200	0
0.0460000001	6.79840088	-0.216999993	0	200	0
0.0460000001	6.79849958	-0.216000006	0	200	0
0.187000006	6.79450035	-0.291000009	0	200	0
0.202999994	6.79460001	-0.307999998	0	200	0
0.196999997	6.79450035	-0.293000013	0	200	0
0.246000007	6.79570007	-0.244000003	0	200	0
0.138999999	6.79360008	-0.216000006	0	200	0
0.26699999	6.79609966	-0.209999993	0	200	0
0.209000006	6.7968998	-0.252000004	0	200	0
0.256000012	6.79629993	-0.246999994	0	200	0
0.261999995	6.79609966	-0.209999993	0	200	0
0.199000001	6.7968998	-0.252999991	0	200	0
0.194999993	6.7968998	-0.254000008	0	200	0
0.257999986	6.79609966	-0.210999995	0	200	0
0.252999991	6.79609966	-0.214000002	0	200	0
0.241999999	6.79629993	-0.248999998	0	200	0
0.244000003	6.79609966	-0.213	0	200	0
0.238999993	6.79609966	-0.214000002	0	200	0
0.229000002	6.79609966	-0.213	0	200	0
0.219999999	6.79609966	-0.216999993	0	200	0
0.215000004	6.79609966	-0.214000002	0	200	0
0.196999997	6.79729986	-0.217999995	0	200	0
0.192000002	6.79729986	-0.217999995	0	200	0
0.182999998	6.79729986	-0.218999997	0	200	0
0.172999993	6.79729986	-0.219999999	0	200	0
0.169	6.79729986	-0.217999995	0	200	0
0.164000005	6.79729986	-0.218999997	0	200	0
0.158999994	6.79729986	-0.216999993	0	200	0
0.150000006	6.79729986	-0.218999997	0	200	0
0.286000013	6.79609966	-0.209999993	0	200	0
0.27700001	6.79609966	-0.210999995	0	200	0
0.275000006	6.79640007	-0.284000009	0	200	0
0.256000012	6.79570007	-0.247999996	0	200	0
0.268999994	6.79640007	-0.280999988	0	200	0
0.305000007	6.79609966	-0.207000002	0	200	0
0.300000012	6.79609966	-0.209000006	0	200	0
0.291000009	6.79609966	-0.208000004	0	200	0
0.0799999982	6.79809999	-0.25	0	200	0
0.164000005	6.79780102	-0.218999997	0	200	0
0.0549999997	6.79789972	-0.219999999	0	200	0
0.211999997	6.79780102	-0.224000007	0	200	0
0.182999998	6.79780102	-0.222000003	0	200	0
0.206	6.79729986	-0.216999993	0	200	0
-0.64200002	6.80080032	-0.170000002	0	200	0
-0.638000011	6.80080032	-0.171000004	0	200	0
-0.564999998	6.80119991	-0.268000007	0	200	0
-0.670000017	6.80060005	-0.202000007	0	200	0
-0.611000001	6.80119991	-0.250999987	0	200	0
-0.412999988	6.80119991	-0.246999994	0	200	0
-0.407999992	6.80119991	-0.280000001	0	200	0
-0.535000026	6.80130005	-0.241999999	0	200	0
-0.421999991	6.80119991	-0.243000001	0	200	0
-0.397000015	6.80060005	-0.300999999	0	200	0
-0.510999978	6.80119991	-0.246999994	0	200	0
-0.409999996	6.80060005	-0.291999996	0	200	0
-0.425000012	6.80070019	-0.323000014	0	200	0
-0.505999982	6.80119991	-0.273999989	0	200	0
-0.433999985	6.80070019	-0.317000002	0	200	0
-0.437999994	6.80070019	-0.310000002	0	200	0
-0.477999985	6.80060005	-0.282000005	0	200	0
-0.606000006	6.80090094	-0.158999994	0	200	0
-0.583000004	6.80090094	-0.165999994	0	200	0
-0.616999984	6.80090094	-0.165000007	0	200	0
-0.612999976	6.80090094	-0.171000004	0	200	0
-0.572000027	6.80130005	-0.231000006	0	200	0
-0.624000013	6.80090094	-0.151999995	0	200	0
-0.634000003	6.80090094	-0.156000003	0	200	0
-0.629999995	6.80090094	-0.158000007	0	200	0
-0.663999975	6.80030107	-0.118000001	0	200	0
-0.0199999996	6.79939985	-0.256000012	0	200	0
-0.140000001	6.80119991	-0.282000005	0	200	0
0.123000003	6.79859972	-0.246999994	0	200	0
0.126000002	6.79849958	-0.216999993	0	200	0
0.122000001	6.79849958	-0.216000006	0	200	0
0.114	6.79859972	-0.246000007	0	200	0
0.116999999	6.79849958	-0.215000004	0	200	0
0.0759999976	6.79820013	-0.275999993	0	200	0
0.112000003	6.79849958	-0.215000004	0	200	0
0.074000001	6.79909992	-0.214000002	0	200	0
0.0700000003	6.79909992	-0.214000002	0	200	0
0.103	6.79849958	-0.215000004	0	200	0
0.0560000017	6.79909992	-0.214000002	0	200	0
0.0930000022	6.79849958	-0.215000004	0	200	0
0.0890000015	6.79849958	-0.215000004	0	200	0
0.074000001	6.79849958	-0.214000002	0	200	0
0.0659999996	6.79859972	-0.237000003	0	200	0
0.0700000003	6.79849958	-0.215000004	0	200	0
0.0649999976	6.79849958	-0.215000004	0	200	0
0.0560000017	6.79849958	-0.215000004	0	200	0
-0.32100001	6.80060005	-0.291000009	0	200	0
-0.317000002	6.80060005	-0.294999987	0	200	0
-0.31099999	6.80060005	-0.287999988	0	200	0
-0.286000013	6.80060005	-0.284000009	0	200	0
0.144999996	6.79849958	-0.216000006	0	200	0
0.136000007	6.79849958	-0.216000006	0	200	0
0.328000009	6.79609966	-0.206	0	200	0
0.317999989	6.79510021	-0.239999995	0	200	0
0.31400001	6.79629993	-0.244000003	0	200	0
0.312999994	6.79510021	-0.238000005	0	200	0
0.31400001	6.79609966	-0.206	0	200	0
0.310000002	6.79609966	-0.209000006	0	200	0
0.128999993	6.79330015	-0.296999991	0	200	0
0.123999998	6.79320002	-0.284000009	0	200	0
0.101000004	6.79289961	-0.218999997	0	200	0
0.115999997	6.79289961	-0.218999997	0	200	0
0.101000004	6.79299974	-0.221000001	0	200	0
0.143999994	6.79289961	-0.218999997	0	200	0
0.138999999	6.79289961	-0.218999997	0	200	0
0.111000001	6.79299974	-0.218999997	0	200	0
0.115999997	6.79299974	-0.221000001	0	200	0
0.119999997	6.79299974	-0.221000001	0	200	0
0.125	6.79299974	-0.216000006	0	200	0
0.149000004	6.79299974	-0.218999997	0	200	0
0.135000005	6.79299974	-0.224000007	0	200	0
0.138999999	6.79299974	-0.218999997	0	200	0
0.356999993	6.79629993	-0.244000003	0	200	0
0.300999999	6.79640007	-0.296999991	0	200	0
0.361999989	6.79609966	-0.207000002	0	200	0
0.351999998	6.79629993	-0.237000003	0	200	0
0.351999998	6.79609966	-0.203999996	0	200	0
0.342000008	6.79629993	-0.238000005	0	200	0
0.347000003	6.79609966	-0.203999996	0	200	0
0.338	6.79629993	-0.240999997	0	200	0
0.333000004	6.79629993	-0.241999999	0	200	0
0.328000009	6.79629993	-0.243000001	0	200	0
0.338	6.79609966	-0.209000006	0	200	0
0.333000004	6.79609966	-0.206	0	200	0
0.284999996	6.79699993	-0.286000013	0	200	0
0.275999993	6.7968998	-0.291999996	0	200	0
0.257999986	6.79729986	-0.215000004	0	200	0
0.254000008	6.79780102	-0.216999993	0	200	0
0.245000005	6.79780102	-0.217999995	0	200	0
0.363000005	6.79570007	-0.252999991	0	200	0
0.361999989	6.79559994	-0.243000001	0	200	0
0.375999987	6.79609966	-0.202999994	0	200	0
0.367000014	6.79629993	-0.243000001	0	200	0
0.370999992	6.79609966	-0.202000007	0	200	0
0.360000014	6.7968998	-0.300000012	0	200	0
0.351000011	6.7968998	-0.305000007	0	200	0
0.344999999	6.7968998	-0.296999991	0	200	0
0.356999993	6.79580021	-0.280999988	0	200	0
0.367000014	6.79559994	-0.241999999	0	200	0
0.150000006	6.79849958	-0.215000004	0	200	0
0.142000005	6.79869986	-0.247999996	0	200	0
0.173999995	6.79820013	-0.298000008	0	200	0
0.243000001	6.79869986	-0.246999994	0	200	0
0.200000003	6.79799986	-0.314999998	0	200	0
0.266000003	6.79820013	-0.282000005	0	200	0
-0.648000002	6.80169964	-0.256999999	0	200	0
-0.574999988	6.80179977	-0.26699999	0	200	0
-0.620000005	6.80200005	-0.200000003	0	200	0
-0.363000005	6.80060005	-0.305999994	0	200	0
-0.356000006	6.80060005	-0.296000004	0	200	0
-0.368000001	6.80060005	-0.305999994	0	200	0
-0.356999993	6.80119991	-0.300000012	0	200	0
-0.367000014	6.80119991	-0.307000011	0	200	0
-0.361999989	6.80119991	-0.300000012	0	200	0
-0.342000008	6.80130005	-0.261999995	0	200	0
-0.386999995	6.80119991	-0.303000003	0	200	0
-0.384000003	6.80130005	-0.248999998	0	200	0
-0.388999999	6.80130005	-0.248999998	0	200	0
-0.404000014	6.80130005	-0.254999995	0	200	0
-0.409000009	6.80119991	-0.25	0	200	0
0.0670000017	6.79939985	-0.286000013	0	200	0
0.0579999983	6.79939985	-0.291999996	0	200	0
0.0529999994	6.79939985	-0.296000004	0	200	0
-0.165999994	6.8015008	-0.219999999	0	200	0
-0.109999999	6.80179977	-0.252000004	0	200	0
0.211999997	6.79879999	-0.286000013	0	200	0
0.163000003	6.79939985	-0.27700001	0	200	0
0.149000004	6.79939985	-0.282999992	0	200	0
0.143999994	6.79939985	-0.284000009	0	200	0
0.140000001	6.79939985	-0.284000009	0	200	0
0.197999999	6.79879999	-0.289999992	0	200	0
0.164000005	6.79909992	-0.215000004	0	200	0
0.158999994	6.79909992	-0.216000006	0	200	0
0.150000006	6.79909992	-0.217999995	0	200	0
0.144999996	6.79909992	-0.215000004	0	200	0
0.141000003	6.79909992	-0.216000006	0	200	0
0.126000002	6.79909992	-0.216999993	0	200	0
0.153999999	6.79879999	-0.287	0	200	0
0.150000006	6.79969978	-0.218999997	0	200	0
0.144999996	6.79969978	-0.216000006	0	200	0
0.141000003	6.79969978	-0.217999995	0	200	0
0.136000007	6.79969978	-0.218999997	0	200	0
0.127000004	6.79969978	-0.216000006	0	200	0
0.128000006	6.79960012	-0.240999997	0	200	0
0.123000003	6.79960012	-0.234999999	0	200	0
0.112000003	6.79969978	-0.216000006	0	200	0
0.103	6.79969978	-0.216000006	0	200	0
0.112999998	6.79960012	-0.233999997	0	200	0
0.104000002	6.79960012	-0.236000001	0	200	0
0.0900000036	6.79960012	-0.237000003	0	200	0
0.375999987	6.79590082	-0.307000011	0	200	0
0.0909999982	6.79330015	-0.317999989	0	200	0
0.158000007	6.79239988	-0.222000003	0	200	0
0.111000001	6.79239988	-0.221000001	0	200	0
0.191	6.79239988	-0.222000003	0	200	0
0.419	6.7968998	-0.294	0	200	0
0.386000007	6.79590082	-0.305000007	0	200	0
0.310000002	6.79820013	-0.289000005	0	200	0
0.319000006	6.79809999	-0.282999992	0	200	0
0.286000013	6.79820013	-0.289000005	0	200	0
0.423999995	6.7968998	-0.291999996	0	200	0
0.411000013	6.7974	-0.239999995	0	200	0
0.449000001	6.79699993	-0.298000008	0	200	0
0.433999985	6.79699993	-0.293000013	0	200	0
0.423000008	6.79699993	-0.291000009	0	200	0
0.231999993	6.79879999	-0.284999996	0	200	0
0.169	6.79939985	-0.289000005	0	200	0
0.237000003	6.79879999	-0.289999992	0	200	0
0.333999991	6.79869986	-0.282000005	0	200	0
0.223000005	6.79949999	-0.294	0	200	0
0.279000014	6.79820013	-0.316000015	0	200	0
0.273999989	6.79820013	-0.314999998	0	200	0
0.263000011	6.79939985	-0.252000004	0	200	0
0.232999995	6.79939985	-0.246999994	0	200	0
0.324000001	6.79820013	-0.321999997	0	200	0
0.333999991	6.79820013	-0.282000005	0	200	0
0.326000005	6.79820013	-0.294	0	200	0
0.324999988	6.79809999	-0.287	0	200	0
0.317000002	6.79820013	-0.307000011	0	200	0
-0.584999979	6.80240011	-0.270000011	0	200	0
-0.588999987	6.80240011	-0.266000003	0	200	0
-0.598999977	6.80240011	-0.264999986	0	200	0
-0.602999985	6.80240011	-0.261999995	0	200	0
-0.606999993	6.80240011	-0.256999999	0	200	0
-0.611999989	6.80240011	-0.254999995	0	200	0
-0.644999981	6.80240011	-0.228	0	200	0
-0.620999992	6.80240011	-0.252000004	0	200	0
-0.672999978	6.80240011	-0.257999986	0	200	0
-0.633000016	6.80240011	-0.238000005	0	200	0
-0.628000021	6.80240011	-0.259000003	0	200	0
-0.662	6.80240011	-0.254999995	0	200	0
-0.657000005	6.80240011	-0.254000008	0	200	0
-0.603999972	6.80259991	-0.222000003	0	200	0
-0.528999984	6.80240011	-0.289999992	0	200	0
-0.532999992	6.80240011	-0.284999996	0	200	0
-0.540000021	6.80240011	-0.296000004	0	200	0
-0.550000012	6.80249977	-0.270999998	0	200	0
-0.545000017	6.80240011	-0.298000008	0	200	0
-0.55400002	6.80249977	-0.26699999	0	200	0
-0.559000015	6.80249977	-0.263999999	0	200	0
-0.58099997	6.80249977	-0.252999991	0	200	0
-0.564999998	6.80249977	-0.268999994	0	200	0
-0.578000009	6.80249977	-0.25999999	0	200	0
-0.574000001	6.80249977	-0.264999986	0	200	0
-0.568000019	6.80229998	-0.312000006	0	200	0
-0.55400002	6.80240011	-0.289999992	0	200	0
-0.558000028	6.80240011	-0.287999988	0	200	0
-0.563000023	6.80240011	-0.286000013	0	200	0
-0.568000019	6.80240011	-0.287999988	0	200	0
-0.578000009	6.80240011	-0.284999996	0	200	0
-0.56099999	6.80229998	-0.298999995	0	200	0
-0.64200002	6.80210018	-0.129999995	0	200	0
