-7.83699989	6.8041997	0.112000003	200	0	0
-7.8130002	6.80509996	0.148000002	200	0	0
-7.8119998	6.80499983	0.164000005	200	0	0
-7.81400013	6.80509996	0.0890000015	200	0	0
-7.81899977	6.80509996	0.131999999	200	0	0
-7.8130002	6.80509996	0.119000003	200	0	0
-7.80900002	6.80499983	0.075000003	200	0	0
-7.80900002	6.80489969	0.165000007	200	0	0
-7.8130002	6.80499983	0.149000004	200	0	0
-7.81400013	6.80499983	0.133000001	200	0	0
-7.81799984	6.80439997	0.192000002	200	0	0
-7.8119998	6.80489969	0.075000003	200	0	0
-7.81599998	6.80499983	0.118000001	200	0	0
-7.81099987	6.80489969	0.0900000036	200	0	0
-7.82800007	6.80489969	0.128999993	200	0	0
-7.8130002	6.80439997	0.164000005	200	0	0
-7.83199978	6.80439997	0.143000007	200	0	0
-7.8119998	6.80439997	0.119999997	200	0	0
-7.83699989	6.8041997	0.112000003	200	0	0
-7.81099987	6.80439997	0.209000006	200	0	0
-7.8210001	6.80509996	0.057	200	0	0
-7.83099985	6.80480003	0.231999993	200	0	0
-7.83599997	6.80489969	0.231000006	200	0	0
-7.82200003	6.80499983	0.234999999	200	0	0
-7.82200003	6.80509996	0.234999999	200	0	0
-7.82999992	6.8052001	0.0689999983	200	0	0
-7.81699991	6.80509996	0.0729999989	200	0	0
-7.829	6.80489969	0.217999995	200	0	0
-7.82299995	6.80499983	0.219999999	200	0	0
-7.82000017	6.80509996	0.221000001	200	0	0
-7.82999992	6.8052001	0.0839999989	200	0	0
-7.80999994	6.80499983	0.209000006	200	0	0
-7.82399988	6.80489969	0.204999998	200	0	0
-7.829	6.80509996	0.202999994	200	0	0
-7.82700014	6.80489969	0.188999996	200	0	0
-7.81899977	6.80499983	0.191	200	0	0
-7.81599998	6.80509996	0.192000002	200	0	0
-7.83400011	6.8052001	0.112000003	200	0	0
-7.83699989	6.8052001	0.126000002	200	0	0
-7.81799984	6.80509996	0.162	200	0	0
-7.83799982	6.80509996	0.25999999	200	0	0
-7.82000017	6.80439997	0.236000001	200	0	0
-7.81500006	6.80439997	0.222000003	200	0	0
-7.83400011	6.80480003	0.261000007	200	0	0
-7.79799986	6.80429983	0.286000013	200	0	0
-7.83599997	6.80480003	0.275000006	200	0	0
-7.82299995	6.80499983	0.263999999	200	0	0
-7.82700014	6.80439997	0.277999997	200	0	0
-7.84100008	6.80429983	0.259000003	200	0	0
-7.82600021	6.80439997	0.263000011	200	0	0
-7.78999996	6.80429983	0.244000003	200	0	0
-7.82700014	6.80509996	0.277999997	200	0	0
-7.83599997	6.80480003	0.289999992	200	0	0
-7.82600021	6.80499983	0.277999997	200	0	0
-7.82299995	6.80429983	0.294	200	0	0
-7.829	6.80439997	0.291999996	200	0	0
-7.82600021	6.80439997	0.307999998	200	0	0
-7.82000017	6.80499983	0.308999985	200	0	0
-7.83300018	6.80509996	0.305000007	200	0	0
-7.83599997	6.80480003	0.305000007	200	0	0
-7.82499981	6.80509996	0.293000013	200	0	0
-7.82399988	6.80499983	0.293000013	200	0	0
-7.83400011	6.80509996	0.333999991	200	0	0
-7.84600019	6.8046999	0.345999986	200	0	0
-7.82299995	6.80499983	0.351999998	200	0	0
-7.82999992	6.80509996	0.349999994	200	0	0
-7.84000015	6.80480003	0.333000004	200	0	0
-7.82700014	6.80499983	0.335999995	200	0	0
-7.83400011	6.80439997	0.349000007	200	0	0
-7.83099985	6.80429983	0.335999995	200	0	0
-7.82999992	6.80439997	0.335999995	200	0	0
-7.83300018	6.80429983	0.379000008	200	0	0
-7.82399988	6.80439997	0.381000012	200	0	0
-7.83099985	6.8046999	0.36500001	200	0	0
-7.83199978	6.80429983	0.36500001	200	0	0
-7.82399988	6.80439997	0.367000014	200	0	0
-7.83500004	6.80429983	0.349000007	200	0	0
-7.83300018	6.80509996	0.363999993	200	0	0
-7.82700014	6.80499983	0.365999997	200	0	0
-7.82600021	6.80509996	0.381000012	200	0	0
-7.82999992	6.80499983	0.379999995	200	0	0
-7.83799982	6.8046999	0.377999991	200	0	0
-7.84000015	6.80509996	0.405999988	200	0	0
-7.83300018	6.80499983	0.423000008	200	0	0
-7.83199978	6.80509996	0.423000008	200	0	0
-7.8499999	6.8046999	0.404000014	200	0	0
-7.83099985	6.80499983	0.409000009	200	0	0
-7.829	6.80499983	0.437999994	200	0	0
-7.83099985	6.80460024	0.437999994	200	0	0
-7.83199978	6.80429983	0.423000008	200	0	0
-7.83400011	6.80439997	0.423000008	200	0	0
-7.83099985	6.80429983	0.409000009	200	0	0
-7.83400011	6.80439997	0.407999992	200	0	0
-7.83500004	6.80509996	0.437000006	200	0	0
-7.82399988	6.80439997	0.439999998	200	0	0
-7.829	6.80429983	0.43900001	200	0	0
-7.83799982	6.80460024	0.451000005	200	0	0
-7.829	6.80429983	0.453000009	200	0	0
-7.84000015	6.80439997	0.449999988	200	0	0
-7.82800007	6.80499983	0.453000009	200	0	0
-7.84899998	6.80460024	0.492000014	200	0	0
-7.829	6.80460024	0.481999993	200	0	0
-7.82999992	6.80499983	0.495999992	200	0	0
-7.83199978	6.80509996	0.495999992	200	0	0
-7.83400011	6.80499983	0.481000006	200	0	0
-7.83400011	6.80509996	0.481000006	200	0	0
-7.84399986	6.8045001	0.508000016	200	0	0
-7.84399986	6.80439997	0.493000001	200	0	0
-7.82999992	6.80429983	0.481999993	200	0	0
-7.83099985	6.80499983	0.510999978	200	0	0
-7.83699989	6.80509996	0.509000003	200	0	0
-7.84000015	6.80439997	0.479999989	200	0	0
-7.84100008	6.8045001	0.523000002	200	0	0
-7.83699989	6.80439997	0.509000003	200	0	0
-7.829	6.80429983	0.497000009	200	0	0
-7.83799982	6.80509996	0.523999989	200	0	0
-7.83400011	6.80499983	0.523999989	200	0	0
-7.82999992	6.80429983	0.526000023	200	0	0
-7.83599997	6.80439997	0.523999989	200	0	0
-7.83199978	6.80429983	0.510999978	200	0	0
-7.84000015	6.80429983	0.58099997	200	0	0
-7.84000015	6.80439997	0.58099997	200	0	0
-7.83900023	6.80509996	0.566999972	200	0	0
-7.84700012	6.8045001	0.579999983	200	0	0
-7.83400011	6.80499983	0.568000019	200	0	0
-7.83699989	6.80429983	0.566999972	200	0	0
-7.83599997	6.80439997	0.568000019	200	0	0
-7.83799982	6.80509996	0.552999973	200	0	0
-7.83699989	6.80499983	0.552999973	200	0	0
-7.84899998	6.8045001	0.56400001	200	0	0
-7.83199978	6.80429983	0.55400002	200	0	0
-7.84200001	6.80439997	0.551999986	200	0	0
-7.84600019	6.8045001	0.550999999	200	0	0
-7.83199978	6.80499983	0.583000004	200	0	0
-7.83900023	6.80509996	0.58099997	200	0	0
-7.83400011	6.80429983	0.597000003	200	0	0
-7.84299994	6.80439997	0.595000029	200	0	0
-7.86000013	6.8045001	0.591000021	200	0	0
-7.83900023	6.80509996	0.596000016	200	0	0
-7.83599997	6.80499983	0.596000016	200	0	0
-7.84499979	6.80509996	0.623000026	200	0	0
-7.84000015	6.80429983	0.625	200	0	0
-7.84700012	6.80439997	0.623000026	200	0	0
-7.84600019	6.80509996	0.637000024	200	0	0
-7.84399986	6.80499983	0.638000011	200	0	0
-7.84100008	6.80439997	0.667999983	200	0	0
-7.83900023	6.80429983	0.667999983	200	0	0
-7.84000015	6.80499983	0.624000013	200	0	0
-7.84700012	6.80439997	0.65200001	200	0	0
-7.84100008	6.80429983	0.652999997	200	0	0
-7.83699989	6.80439997	0.639999986	200	0	0
-7.84200001	6.80429983	0.638999999	200	0	0
-7.84399986	6.80509996	0.65200001	200	0	0
-7.83599997	6.80499983	0.653999984	200	0	0
-7.84499979	6.80509996	0.666000009	200	0	0
-7.83900023	6.80499983	0.667999983	200	0	0
-7.84700012	6.80439997	0.694999993	200	0	0
-7.85300016	6.80429983	0.694000006	200	0	0
-7.85300016	6.80509996	0.694000006	200	0	0
-7.84899998	6.80499983	0.708999991	200	0	0
-7.84600019	6.80509996	0.708999991	200	0	0
-7.83699989	6.80499983	0.697000027	200	0	0
-7.84700012	6.80439997	0.723999977	200	0	0
-7.84299994	6.80429983	0.709999979	200	0	0
-7.84800005	6.80439997	0.708999991	200	0	0
-7.83599997	6.80499983	0.726000011	200	0	0
-7.84700012	6.80509996	0.723999977	200	0	0
-7.84800005	6.80509996	0.737999976	200	0	0
-7.8499999	6.80429983	0.765999973	200	0	0
-7.85099983	6.80439997	0.765999973	200	0	0
-7.83799982	6.80499983	0.74000001	200	0	0
-7.84399986	6.80429983	0.739000022	200	0	0
-7.84700012	6.80439997	0.737999976	200	0	0
-7.84200001	6.80429983	0.725000024	200	0	0
-7.84200001	6.80499983	0.768000007	200	0	0
-7.84600019	6.80429983	0.781000018	200	0	0
-7.84700012	6.80439997	0.781000018	200	0	0
-7.84800005	6.80499983	0.781000018	200	0	0
-7.84600019	6.80509996	0.781000018	200	0	0
-7.84800005	6.80499983	0.795000017	200	0	0
-7.84800005	6.80429983	0.810000002	200	0	0
-7.8499999	6.80439997	0.809000015	200	0	0
-7.84499979	6.80439997	0.796000004	200	0	0
-7.84800005	6.80429983	0.795000017	200	0	0
-7.84800005	6.80499983	0.810000002	200	0	0
-7.84899998	6.80509996	0.809000015	200	0	0
-7.85200024	6.80499983	0.837000012	200	0	0
-7.85300016	6.80509996	0.837000012	200	0	0
-7.83900023	6.80439997	0.853999972	200	0	0
-7.86399984	6.8045001	0.848999977	200	0	0
-7.85400009	6.80429983	0.851000011	200	0	0
-7.84700012	6.80439997	0.838	200	0	0
-7.84800005	6.80429983	0.838	200	0	0
-7.86199999	6.8045001	0.864000022	200	0	0
-7.84800005	6.80509996	0.866999984	200	0	0
-7.84499979	6.80499983	0.866999984	200	0	0
-7.85900021	6.80509996	0.850000024	200	0	0
-7.84899998	6.80499983	0.851999998	200	0	0
-7.85200024	6.80429983	0.879999995	200	0	0
-7.84499979	6.80429983	0.866999984	200	0	0
-7.85200024	6.80439997	0.865999997	200	0	0
-7.85699987	6.8045001	0.879000008	200	0	0
-7.85099983	6.80509996	0.879999995	200	0	0
-7.85099983	6.80499983	0.879999995	200	0	0
-7.86499977	6.8045001	0.906000018	200	0	0
-7.85300016	6.80429983	0.908999979	200	0	0
-7.8499999	6.80439997	0.880999982	200	0	0
-7.85400009	6.80509996	0.907999992	200	0	0
-7.85500002	6.80499983	0.907999992	200	0	0
-7.86000013	6.80509996	0.935000002	200	0	0
-7.86399984	6.8045001	0.921000004	200	0	0
-7.85200024	6.80499983	0.922999978	200	0	0
-7.85500002	6.80509996	0.921999991	200	0	0
-7.86100006	6.80429983	0.949999988	200	0	0
-7.86199999	6.80460024	0.935000002	200	0	0
-7.86399984	6.8045001	0.935000002	200	0	0
-7.85300016	6.80429983	0.936999977	200	0	0
-7.86100006	6.80429983	0.921000004	200	0	0
-7.85699987	6.80499983	0.949999988	200	0	0
-7.85300016	6.80499983	0.936999977	200	0	0
-7.86100006	6.80509996	0.949999988	200	0	0
-7.85900021	6.80429983	0.978999972	200	0	0
-7.86899996	6.80460024	0.976999998	200	0	0
-7.85599995	6.80499983	0.978999972	200	0	0
-7.8579998	6.80509996	0.978999972	200	0	0
-7.86899996	6.80460024	1.005	200	0	0
-7.86800003	6.80429983	0.990999997	200	0	0
-7.86499977	6.80460024	0.991999984	200	0	0
-7.8579998	6.80429983	1.00699997	200	0	0
-7.85599995	6.80509996	1.00699997	200	0	0
-7.85300016	6.80499983	0.994000018	200	0	0
-7.86600018	6.80509996	0.990999997	200	0	0
-7.86100006	6.80460024	1.02100003	200	0	0
-7.85599995	6.80499983	1.02100003	200	0	0
-7.85900021	6.80509996	1.02100003	200	0	0
-7.85099983	6.80499983	1.00800002	200	0	0
-7.86499977	6.80429983	1.04799998	200	0	0
-7.87099981	6.80429983	1.01900005	200	0	0
-7.86199999	6.80509996	1.04900002	200	0	0
-7.85900021	6.80499983	1.04900002	200	0	0
-7.87099981	6.80429983	1.07599998	200	0	0
-7.87200022	6.8046999	1.06099999	200	0	0
-7.87300014	6.80460024	1.06099999	200	0	0
-7.84899998	6.80439997	1.06599998	200	0	0
-7.86100006	6.80429983	1.06299996	200	0	0
-7.8579998	6.80460024	1.04999995	200	0	0
-7.84100008	6.80439997	1.05299997	200	0	0
-7.86000013	6.80509996	1.06299996	200	0	0
-7.85599995	6.80499983	1.06400001	200	0	0
-7.8579998	6.80499983	1.07799995	200	0	0
-7.86000013	6.80509996	1.07700002	200	0	0
-7.86299992	6.80509996	1.09099996	200	0	0
-7.8579998	6.80499983	1.09200001	200	0	0
-7.85599995	6.80439997	1.09300005	200	0	0
-7.86999989	6.80429983	1.09000003	200	0	0
-7.86499977	6.8046999	1.09099996	200	0	0
-7.85500002	6.80439997	1.079	200	0	0
-7.86600018	6.8046999	1.07700002	200	0	0
-7.87200022	6.8046999	1.11800003	200	0	0
-7.86100006	6.80499983	1.12	200	0	0
-7.86499977	6.80509996	1.11899996	200	0	0
-7.86800003	6.80439997	1.14699996	200	0	0
-7.86499977	6.80429983	1.14699996	200	0	0
-7.86199999	6.8046999	1.13399994	200	0	0
-7.86399984	6.80439997	1.13399994	200	0	0
-7.86999989	6.80429983	1.13300002	200	0	0
-7.86199999	6.80439997	1.12	200	0	0
-7.87099981	6.80429983	1.11800003	200	0	0
-7.85900021	6.80499983	1.148	200	0	0
-7.86800003	6.80509996	1.14699996	200	0	0
-7.86399984	6.80499983	1.13300002	200	0	0
-7.8670001	6.80509996	1.13300002	200	0	0
-7.86999989	6.80480003	1.16100001	200	0	0
-7.88100004	6.8046999	1.15900004	200	0	0
-7.875	6.80480003	1.14600003	200	0	0
-7.86600018	6.80439997	1.16100001	200	0	0
-7.86899996	6.80429983	1.16100001	200	0	0
-7.8829999	6.8046999	1.14400005	200	0	0
-7.86299992	6.80509996	1.16199994	200	0	0
-7.86600018	6.80499983	1.16100001	200	0	0
-7.8670001	6.80499983	1.18900001	200	0	0
-7.8670001	6.80509996	1.18900001	200	0	0
-7.86800003	6.80480003	1.18900001	200	0	0
-7.87099981	6.80429983	1.18900001	200	0	0
-7.86499977	6.80439997	1.19000006	200	0	0
-7.86800003	6.80480003	1.21700001	200	0	0
-7.87099981	6.80509996	1.20299995	200	0	0
-7.87699986	6.80429983	1.20200002	200	0	0
-7.86000013	6.80439997	1.20500004	200	0	0
-7.86199999	6.80499983	1.204	200	0	0
-7.8829999	6.80480003	1.20099998	200	0	0
-7.86299992	6.80499983	1.21800005	200	0	0
-7.87799978	6.80489969	1.21599996	200	0	0
-7.87300014	6.80509996	1.21599996	200	0	0
-7.87799978	6.80429983	1.23000002	200	0	0
-7.86899996	6.80439997	1.23099995	200	0	0
-7.8670001	6.80439997	1.21800005	200	0	0
-7.88399982	6.80429983	1.21500003	200	0	0
-7.8670001	6.80509996	1.23099995	200	0	0
-7.86899996	6.80499983	1.23099995	200	0	0
-7.88500023	6.80489969	1.25699997	200	0	0
-7.8829999	6.80480003	1.25699997	200	0	0
-7.86299992	6.80439997	1.25999999	200	0	0
-7.88800001	6.80429983	1.25699997	200	0	0
-7.86800003	6.80499983	1.25999999	200	0	0
-7.87099981	6.80509996	1.25899994	200	0	0
-7.88500023	6.80489969	1.28499997	200	0	0
-7.86899996	6.80499983	1.28699994	200	0	0
-7.87699986	6.80480003	1.27199996	200	0	0
-7.8670001	6.80489969	1.27400005	200	0	0
-7.86999989	6.80499983	1.273	200	0	0
-7.88899994	6.80429983	1.26999998	200	0	0
-7.8670001	6.80439997	1.27400005	200	0	0
-7.8670001	6.80439997	1.28799999	200	0	0
-7.86999989	6.80439997	1.30200005	200	0	0
-7.875	6.80509996	1.301	200	0	0
-7.86999989	6.80499983	1.301	200	0	0
-7.87900019	6.80489969	1.29999995	200	0	0
-7.86800003	6.80439997	1.33000004	200	0	0
-7.86600018	6.80499983	1.33000004	200	0	0
-7.87400007	6.80509996	1.329	200	0	0
-7.87200022	6.80489969	1.329	200	0	0
-7.86899996	6.80499983	1.34399998	200	0	0
-7.87400007	6.80509996	1.34300005	200	0	0
-7.89300013	6.80489969	1.34000003	200	0	0
-7.87300014	6.80439997	1.34300005	200	0	0
-7.8670001	6.80439997	1.35800004	200	0	0
-7.86399984	6.80499983	1.35800004	200	0	0
-7.875	6.80509996	1.37100005	200	0	0
-7.87300014	6.80499983	1.37100005	200	0	0
-7.86899996	6.80439997	1.37199998	200	0	0
-7.87400007	6.80439997	1.39900005	200	0	0
-7.87099981	6.80499983	1.39900005	200	0	0
-7.87300014	6.80509996	1.39900005	200	0	0
-7.875	6.80439997	1.42700005	200	0	0
-7.87300014	6.80439997	1.41299999	200	0	0
-7.87599993	6.80509996	1.42700005	200	0	0
-7.87900019	6.80499983	1.426	200	0	0
-7.87200022	6.80499983	1.41299999	200	0	0
-7.87599993	6.80499983	1.44099998	200	0	0
-7.88000011	6.80509996	1.44000006	200	0	0
-7.87799978	6.80439997	1.44000006	200	0	0
-7.875	6.80499983	1.46899998	200	0	0
-7.88199997	6.80509996	1.46800005	200	0	0
-7.875	6.80439997	1.46899998	200	0	0
-7.87699986	6.80439997	1.49600005	200	0	0
-7.88500023	6.80439997	1.48199999	200	0	0
-7.88199997	6.80499983	1.49600005	200	0	0
-7.8829999	6.80509996	1.48199999	200	0	0
-7.8829999	6.80499983	1.48199999	200	0	0
-7.88000011	6.80499983	1.50999999	200	0	0
-7.88600016	6.80509996	1.50899994	200	0	0
-7.87699986	6.80499983	1.53799999	200	0	0
-7.8829999	6.80509996	1.53699994	200	0	0
-7.8829999	6.80439997	1.53799999	200	0	0
-7.8829999	6.80509996	1.56500006	200	0	0
-7.8829999	6.80499983	1.56500006	200	0	0
-7.87900019	6.80499983	1.55200005	200	0	0
-7.8829999	6.80509996	1.551	200	0	0
-7.88100004	6.80439997	1.56599998	200	0	0
-7.87900019	6.80439997	1.55200005	200	0	0
-7.90299988	6.80489969	1.57700002	200	0	0
-7.88100004	6.80439997	1.58000004	200	0	0
-7.88100004	6.80499983	1.58000004	200	0	0
-7.88500023	6.80509996	1.579	200	0	0
-7.88999987	6.80509996	1.60599995	200	0	0
-7.88199997	6.80499983	1.60699999	200	0	0
-7.88700008	6.80509996	1.63499999	200	0	0
-7.87699986	6.80499983	1.63600004	200	0	0
-7.88600016	6.80489969	1.63499999	200	0	0
-7.8829999	6.80439997	1.60699999	200	0	0
-7.88700008	6.80509996	1.62100005	200	0	0
-7.88999987	6.80489969	1.62	200	0	0
-7.88600016	6.80499983	1.62100005	200	0	0
-7.87900019	6.80439997	1.63499999	200	0	0
-7.88800001	6.80439997	1.62100005	200	0	0
-7.89799976	6.80489969	1.64699996	200	0	0
-7.87799978	6.80499983	1.64900005	200	0	0
-7.88899994	6.80509996	1.648	200	0	0
-7.88100004	6.80439997	1.64900005	200	0	0
-7.90399981	6.80489969	1.67499995	200	0	0
-7.8829999	6.80439997	1.67700005	200	0	0
-7.88000011	6.80499983	1.67700005	200	0	0
-7.89499998	6.80509996	1.67499995	200	0	0
-7.88600016	6.80499983	1.704	200	0	0
-7.89300013	6.80509996	1.70299995	200	0	0
-7.88000011	6.80499983	1.69099998	200	0	0
-7.89900017	6.80489969	1.68900001	200	0	0
-7.89599991	6.80509996	1.68900001	200	0	0
-7.8920002	6.80480003	1.704	200	0	0
-7.88500023	6.80439997	1.704	200	0	0
-7.88199997	6.80439997	1.69099998	200	0	0
-7.89799976	6.80480003	1.71700001	200	0	0
-7.88199997	6.80499983	1.71800005	200	0	0
-7.89799976	6.80509996	1.71700001	200	0	0
-7.88999987	6.80439997	1.71800005	200	0	0
-7.88500023	6.80480003	1.74600005	200	0	0
-7.89599991	6.80509996	1.745	200	0	0
-7.88700008	6.80499983	1.74600005	200	0	0
-7.8829999	6.80439997	1.74600005	200	0	0
-7.88800001	6.80499983	1.773	200	0	0
-7.89699984	6.80509996	1.77199996	200	0	0
-7.89099979	6.80439997	1.75899994	200	0	0
-7.88100004	6.80499983	1.75999999	200	0	0
-7.89799976	6.80509996	1.75899994	200	0	0
-7.90600014	6.80480003	1.75800002	200	0	0
-7.88700008	6.80439997	1.77400005	200	0	0
-7.89599991	6.8046999	1.78699994	200	0	0
-7.90199995	6.80509996	1.78600001	200	0	0
-7.8920002	6.80499983	1.78699994	200	0	0
-7.88800001	6.80439997	1.78699994	200	0	0
-7.89499998	6.80499983	1.81400001	200	0	0
-7.89900017	6.8046999	1.81400001	200	0	0
-7.89799976	6.80509996	1.81400001	200	0	0
-7.89499998	6.80439997	1.81500006	200	0	0
-7.89400005	6.80499983	1.84200001	200	0	0
-7.89099979	6.80439997	1.829	200	0	0
-7.90100002	6.80509996	1.82799995	200	0	0
-7.91499996	6.8046999	1.82700002	200	0	0
-7.88999987	6.80499983	1.829	200	0	0
-7.90100002	6.80509996	1.84200001	200	0	0
-7.88600016	6.80439997	1.84300005	200	0	0
-7.92700005	6.80460024	1.84000003	200	0	0
-7.90199995	6.80509996	1.85500002	200	0	0
-7.88999987	6.80499983	1.85599995	200	0	0
-7.9000001	6.80439997	1.85599995	200	0	0
-7.89599991	6.80460024	1.88399994	200	0	0
-7.89400005	6.80499983	1.88399994	200	0	0
-7.91099977	6.80509996	1.88199997	200	0	0
-7.89900017	6.80439997	1.88300002	200	0	0
-7.89799976	6.80509996	1.91100001	200	0	0
-7.89499998	6.80499983	1.91100001	200	0	0
-7.90600014	6.80460024	1.89699996	200	0	0
-7.89400005	6.80499983	1.898	200	0	0
-7.90999985	6.80509996	1.89600003	200	0	0
-7.91400003	6.80460024	1.90999997	200	0	0
-7.89400005	6.80439997	1.898	200	0	0
-7.90700006	6.80439997	1.91100001	200	0	0
-7.90700006	6.80509996	1.92400002	200	0	0
-7.89799976	6.80499983	1.92499995	200	0	0
-7.89699984	6.80439997	1.92499995	200	0	0
-7.9000001	6.80499983	1.95299995	200	0	0
-7.90600014	6.80509996	1.95200002	200	0	0
-7.91599989	6.80460024	1.95200002	200	0	0
-7.90100002	6.80439997	1.95299995	200	0	0
-7.9000001	6.80439997	1.98000002	200	0	0
-7.91200018	6.8045001	1.98000002	200	0	0
-7.90500021	6.80509996	1.96599996	200	0	0
-7.89900017	6.80499983	1.96599996	200	0	0
-7.90399981	6.80439997	1.96599996	200	0	0
-7.90799999	6.80509996	1.98000002	200	0	0
-7.89900017	6.80499983	1.98000002	200	0	0
-7.90199995	6.80499983	1.99399996	200	0	0
-7.90199995	6.80509996	1.99399996	200	0	0
-7.91300011	6.8045001	1.99300003	200	0	0
-7.9000001	6.80439997	1.99399996	200	0	0
-7.90199995	6.80499983	2.02200007	200	0	0
-7.91599989	6.8045001	2.02099991	200	0	0
-7.90399981	6.80439997	2.02200007	200	0	0
-7.91900015	6.8045001	2.03500009	200	0	0
-7.91200018	6.80509996	2.04900002	200	0	0
-7.9000001	6.80499983	2.04900002	200	0	0
-7.90399981	6.80509996	2.03500009	200	0	0
-7.90299988	6.80499983	2.03500009	200	0	0
-7.90399981	6.80439997	2.04900002	200	0	0
-7.90100002	6.80439997	2.03600001	200	0	0
-7.89699984	6.80439997	2.06299996	200	0	0
-7.90199995	6.80499983	2.06299996	200	0	0
-7.88700008	6.80509996	2.06399989	200	0	0
-7.90399981	6.80509996	2.09100008	200	0	0
-7.90299988	6.80499983	2.09100008	200	0	0
-7.9000001	6.80439997	2.09100008	200	0	0
-7.90399981	6.80509996	2.11800003	200	0	0
-7.90700006	6.80499983	2.11800003	200	0	0
-7.91800022	6.80509996	2.10400009	200	0	0
-7.90500021	6.80499983	2.10400009	200	0	0
-7.91099977	6.80439997	2.11800003	200	0	0
-7.90600014	6.80439997	2.10400009	200	0	0
-7.90299988	6.80439997	2.13199997	200	0	0
-7.90100002	6.80509996	2.13199997	200	0	0
-7.91300011	6.80499983	2.13199997	200	0	0
-7.90799999	6.80439997	2.16000009	200	0	0
-7.90799999	6.80499983	2.16000009	200	0	0
-7.90899992	6.80509996	2.15899992	200	0	0
-7.92700005	6.80509996	2.18600011	200	0	0
-7.90799999	6.80499983	2.18700004	200	0	0
-7.92999983	6.80509996	2.17199993	200	0	0
-7.91800022	6.80499983	2.1730001	200	0	0
-7.90999985	6.80439997	2.18700004	200	0	0
-7.90700006	6.80439997	2.1730001	200	0	0
-7.91300011	6.80499983	2.20099998	200	0	0
-7.921	6.80509996	2.20000005	200	0	0
-7.90899992	6.80439997	2.20099998	200	0	0
-7.91200018	6.80439997	2.22900009	200	0	0
-7.91200018	6.80499983	2.22799993	200	0	0
-7.91300011	6.80439997	2.25600004	200	0	0
-7.91200018	6.80439997	2.2420001	200	0	0
-7.92000008	6.80509996	2.25600004	200	0	0
-7.91200018	6.80499983	2.25600004	200	0	0
-7.91400003	6.80499983	2.2420001	200	0	0
-7.90799999	6.80499983	2.26999998	200	0	0
-7.92799997	6.8045001	2.26999998	200	0	0
-7.91400003	6.80439997	2.26999998	200	0	0
-7.91400003	6.80499983	2.29699993	200	0	0
-7.9289999	6.8045001	2.29699993	200	0	0
-7.91400003	6.80439997	2.2980001	200	0	0
-7.92799997	6.8045001	2.32500005	200	0	0
-7.91499996	6.80439997	2.32500005	200	0	0
-7.93300009	6.8045001	2.31100011	200	0	0
-7.91699982	6.80439997	2.31100011	200	0	0
-7.921	6.80499983	2.32500005	200	0	0
-7.91599989	6.80499983	2.31100011	200	0	0
-7.93100023	6.8045001	2.33899999	200	0	0
-7.91099977	6.80439997	2.33899999	200	0	0
-7.92199993	6.80499983	2.33899999	200	0	0
-7.91900015	6.80499983	2.36599994	200	0	0
-7.91499996	6.80439997	2.3670001	200	0	0
-7.94000006	6.8045001	2.36599994	200	0	0
-7.9380002	6.8045001	2.38000011	200	0	0
-7.91900015	6.80499983	2.39400005	200	0	0
-7.93300009	6.80460024	2.38000011	200	0	0
-7.91699982	6.80499983	2.38000011	200	0	0
-7.9460001	6.8045001	2.39400005	200	0	0
-7.91699982	6.80439997	2.39400005	200	0	0
-7.93599987	6.80460024	2.39400005	200	0	0
-7.91599989	6.80439997	2.38000011	200	0	0
-7.92199993	6.80499983	2.40799999	200	0	0
-7.92299986	6.80439997	2.40799999	200	0	0
-7.9289999	6.80460024	2.40799999	200	0	0
-7.921	6.80439997	2.43600011	200	0	0
-7.91699982	6.80499983	2.43600011	200	0	0
-7.92399979	6.80499983	2.46300006	200	0	0
-7.92999983	6.80460024	2.44899988	200	0	0
-7.93900013	6.8046999	2.44899988	200	0	0
-7.91900015	6.80499983	2.44899988	200	0	0
-7.92500019	6.80439997	2.46300006	200	0	0
-7.91900015	6.80439997	2.44899988	200	0	0
-7.9380002	6.8046999	2.477	200	0	0
-7.92799997	6.80439997	2.477	200	0	0
-7.92999983	6.80499983	2.477	200	0	0
-7.93100023	6.80499983	2.50500011	200	0	0
-7.92500019	6.80439997	2.50500011	200	0	0
-7.94799995	6.8046999	2.50500011	200	0	0
-7.94700003	6.80460024	2.50500011	200	0	0
-7.92600012	6.80439997	2.53200006	200	0	0
-7.93499994	6.8046999	2.51900005	200	0	0
-7.92500019	6.80439997	2.51900005	200	0	0
-7.93200016	6.80499983	2.53200006	200	0	0
-7.92600012	6.80499983	2.51799989	200	0	0
-7.93499994	6.80499983	2.546	200	0	0
-7.94099998	6.8046999	2.53200006	200	0	0
-7.92700005	6.80439997	2.546	200	0	0
-7.94099998	6.80480003	2.602	200	0	0
-7.93400002	6.80499983	2.60100007	200	0	0
-7.94899988	6.8046999	2.58800006	200	0	0
-7.93599987	6.80480003	2.58800006	200	0	0
-7.93599987	6.80489969	2.58800006	200	0	0
-7.92799997	6.80499983	2.58800006	200	0	0
-7.92700005	6.80439997	2.60100007	200	0	0
-7.92999983	6.80439997	2.58800006	200	0	0
-7.9380002	6.80489969	2.61500001	200	0	0
-7.94299984	6.80480003	2.61599994	200	0	0
-7.93100023	6.80439997	2.61500001	200	0	0
-7.92799997	6.80499983	2.61500001	200	0	0
-7.92999983	6.80499983	2.64299989	200	0	0
-7.93599987	6.80439997	2.64299989	200	0	0
-7.93100023	6.80439997	2.68499994	200	0	0
-7.93300009	6.80499983	2.68499994	200	0	0
-7.93300009	6.80439997	2.671	200	0	0
-7.93499994	6.80499983	2.671	200	0	0
-7.95300007	6.80489969	2.671	200	0	0
-7.9289999	6.80439997	2.65700006	200	0	0
-7.93200016	6.80499983	2.65700006	200	0	0
-7.94299984	6.80489969	2.65700006	200	0	0
-7.95699978	6.80489969	2.64400005	200	0	0
-7.94899988	6.80480003	2.64299989	200	0	0
-7.94500017	6.80489969	2.71300006	200	0	0
-7.9369998	6.80499983	2.71199989	200	0	0
-7.9369998	6.80439997	2.71199989	200	0	0
-7.9380002	6.80499983	2.74000001	200	0	0
-7.94500017	6.80489969	2.727	200	0	0
-7.93499994	6.80499983	2.72600007	200	0	0
-7.93900013	6.80439997	2.74000001	200	0	0
-7.93599987	6.80439997	2.72600007	200	0	0
-7.9380002	6.80439997	2.78200006	200	0	0
-7.94000006	6.80499983	2.75399995	200	0	0
-7.94700003	6.80489969	2.75399995	200	0	0
-7.95100021	6.80489969	2.74099994	200	0	0
-7.93900013	6.80439997	2.75399995	200	0	0
-7.94700003	6.80489969	2.78200006	200	0	0
-7.94000006	6.80499983	2.78200006	200	0	0
-7.95900011	6.80489969	2.80999994	200	0	0
-7.93599987	6.80499983	2.80900002	200	0	0
-7.94199991	6.80439997	2.796	200	0	0
-7.92799997	6.80499983	2.79500008	200	0	0
-7.95200014	6.80489969	2.796	200	0	0
-7.94199991	6.80439997	2.80999994	200	0	0
-7.94700003	6.80489969	2.82399988	200	0	0
-7.9380002	6.80499983	2.82299995	200	0	0
-7.94199991	6.80439997	2.82399988	200	0	0
-7.95200014	6.80489969	2.86599994	200	0	0
-7.94000006	6.80439997	2.87899995	200	0	0
-7.93900013	6.80499983	2.85100007	200	0	0
-7.95200014	6.80489969	2.852	200	0	0
-7.93900013	6.80439997	2.86500001	200	0	0
-7.9380002	6.80439997	2.85100007	200	0	0
-7.96099997	6.80489969	2.88000011	200	0	0
-7.94199991	6.80499983	2.87899995	200	0	0
-7.94899988	6.80499983	2.86500001	200	0	0
-7.94500017	6.80439997	2.89299989	200	0	0
-7.95300007	6.8045001	2.89299989	200	0	0
-7.94000006	6.80499983	2.89299989	200	0	0
-7.94999981	6.80489969	2.89299989	200	0	0
-7.94500017	6.80499983	2.921	200	0	0
-7.954	6.80489969	2.921	200	0	0
-7.94399977	6.80439997	2.921	200	0	0
-7.94399977	6.80439997	2.94899988	200	0	0
-7.95699978	6.80489969	2.96300006	200	0	0
-7.94199991	6.80499983	2.96199989	200	0	0
-7.93900013	6.80439997	2.93400002	200	0	0
-7.96299982	6.80489969	2.95000005	200	0	0
-7.94500017	6.80499983	2.94899988	200	0	0
-7.95100021	6.8045001	2.93499994	200	0	0
-7.94199991	6.80499983	2.93499994	200	0	0
-7.95699978	6.80489969	2.93499994	200	0	0
-7.94700003	6.80439997	2.96300006	200	0	0
-7.95699978	6.8045001	2.99099994	200	0	0
-7.94199991	6.80439997	2.99000001	200	0	0
-7.95100021	6.80489969	2.99099994	200	0	0
-7.9460001	6.80499983	2.99000001	200	0	0
-7.96000004	6.80489969	3.01900005	200	0	0
-7.94999981	6.80499983	3.01900005	200	0	0
-7.95300007	6.80489969	3.00500011	200	0	0
-7.94899988	6.80499983	3.00500011	200	0	0
-7.94700003	6.80439997	3.00399995	200	0	0
-7.96400023	6.8045001	3.00600004	200	0	0
-7.94999981	6.80439997	3.01900005	200	0	0
-7.96000004	6.80489969	3.03299999	200	0	0
-7.96500015	6.80480003	3.03399992	200	0	0
-7.96199989	6.8045001	3.03299999	200	0	0
-7.9460001	6.80439997	3.03200006	200	0	0
-7.95699978	6.80489969	3.06100011	200	0	0
-7.94799995	6.80499983	3.05999994	200	0	0
-7.94799995	6.80499983	3.03200006	200	0	0
-7.95900011	6.8045001	3.06100011	200	0	0
-7.94399977	6.80439997	3.05999994	200	0	0
-7.95900011	6.8045001	3.08899999	200	0	0
-7.95200014	6.80439997	3.08800006	200	0	0
-7.94999981	6.80499983	3.07399988	200	0	0
-7.96700001	6.80489969	3.07599998	200	0	0
-7.95900011	6.80480003	3.07500005	200	0	0
-7.95300007	6.80439997	3.07500005	200	0	0
-7.95900011	6.8045001	3.07500005	200	0	0
-7.96500015	6.80480003	3.08899999	200	0	0
-7.94999981	6.80499983	3.08800006	200	0	0
-7.95200014	6.80439997	3.102	200	0	0
-7.96400023	6.8045001	3.10299993	200	0	0
-7.96199989	6.80480003	3.10299993	200	0	0
-7.95100021	6.80499983	3.102	200	0	0
-7.96199989	6.80489969	3.10299993	200	0	0
-7.97300005	6.80489969	3.13199997	200	0	0
-7.96600008	6.80480003	3.13100004	200	0	0
-7.95200014	6.80499983	3.13000011	200	0	0
-7.95499992	6.80439997	3.13100004	200	0	0
-7.95599985	6.80439997	3.14499998	200	0	0
-7.95300007	6.80499983	3.15799999	200	0	0
-7.96400023	6.8045001	3.14499998	200	0	0
-7.96600008	6.80480003	3.14499998	200	0	0
-7.95100021	6.80499983	3.14400005	200	0	0
-7.95300007	6.80489969	3.14400005	200	0	0
-7.96999979	6.8045001	3.16000009	200	0	0
-7.95300007	6.80439997	3.15799999	200	0	0
-7.96099997	6.80499983	3.1730001	200	0	0
-7.96299982	6.80489969	3.1730001	200	0	0
-7.96700001	6.8046999	3.17400002	200	0	0
-7.96299982	6.80439997	3.1730001	200	0	0
-7.97300005	6.80489969	3.16000009	200	0	0
-7.96899986	6.8046999	3.16000009	200	0	0
-7.95900011	6.8045001	3.20099998	200	0	0
-7.95599985	6.80439997	3.20099998	200	0	0
-7.97100019	6.8046999	3.2019999	200	0	0
-7.95699978	6.80489969	3.20099998	200	0	0
-7.96000004	6.80499983	3.20099998	200	0	0
-7.954	6.80499983	3.22799993	200	0	0
-7.954	6.80439997	3.21399999	200	0	0
-7.96099997	6.80489969	3.22900009	200	0	0
-7.97599983	6.8045001	3.21600008	200	0	0
-7.97900009	6.80460024	3.21700001	200	0	0
-7.96500015	6.8046999	3.21499991	200	0	0
-7.95800018	6.80499983	3.21499991	200	0	0
-7.96099997	6.80489969	3.21499991	200	0	0
-7.96899986	6.8046999	3.23000002	200	0	0
-7.95800018	6.8045001	3.22900009	200	0	0
-7.95800018	6.80439997	3.22900009	200	0	0
-7.95800018	6.80439997	3.24300003	200	0	0
-7.94999981	6.8045001	3.2420001	200	0	0
-7.96999979	6.80460024	3.24399996	200	0	0
-7.94899988	6.8046999	3.2420001	200	0	0
-7.95900011	6.80499983	3.24300003	200	0	0
-7.95900011	6.80499983	3.27099991	200	0	0
-7.94899988	6.8045001	3.26999998	200	0	0
-7.97200012	6.80460024	3.27200007	200	0	0
-7.95599985	6.80439997	3.26999998	200	0	0
-7.96199989	6.80439997	3.29900002	200	0	0
-7.96400023	6.8045001	3.29900002	200	0	0
-7.96199989	6.80499983	3.28500009	200	0	0
-7.96799994	6.80489969	3.28600001	200	0	0
-7.97200012	6.80460024	3.28600001	200	0	0
-7.96299982	6.80439997	3.28500009	200	0	0
-7.97700024	6.80489969	3.273	200	0	0
-7.95699978	6.8045001	3.28500009	200	0	0
-7.97300005	6.80460024	3.29999995	200	0	0
-7.96500015	6.80499983	3.29900002	200	0	0
-7.97399998	6.80460024	3.31399989	200	0	0
-7.96500015	6.80489969	3.31399989	200	0	0
-7.96799994	6.80499983	3.31399989	200	0	0
-7.97399998	6.80489969	3.29999995	200	0	0
-7.95900011	6.80439997	3.31299996	200	0	0
-7.96600008	6.8045001	3.31399989	200	0	0
-7.96400023	6.8045001	3.34200001	200	0	0
-7.95800018	6.80439997	3.34100008	200	0	0
-7.96000004	6.80499983	3.34100008	200	0	0
-7.96799994	6.80499983	3.36999989	200	0	0
-7.96500015	6.8045001	3.35599995	200	0	0
-7.97100019	6.80489969	3.35599995	200	0	0
-7.95800018	6.80499983	3.35500002	200	0	0
-7.9749999	6.80489969	3.34299994	200	0	0
-7.9460001	6.80439997	3.35400009	200	0	0
-7.96500015	6.8045001	3.36999989	200	0	0
-7.96999979	6.80489969	3.36999989	200	0	0
-7.96299982	6.8045001	3.38400006	200	0	0
-7.96299982	6.80439997	3.38400006	200	0	0
-7.96500015	6.80439997	3.36999989	200	0	0
-7.96500015	6.80499983	3.38400006	200	0	0
-7.9749999	6.80489969	3.38499999	200	0	0
-7.96199989	6.8045001	3.41199994	200	0	0
-7.96899986	6.80499983	3.41199994	200	0	0
-7.96299982	6.80439997	3.41199994	200	0	0
-7.97200012	6.8045001	3.44099998	200	0	0
-7.96299982	6.80439997	3.44000006	200	0	0
-7.96600008	6.80499983	3.42600012	200	0	0
-7.96299982	6.80489969	3.42600012	200	0	0
-7.98400021	6.8045001	3.42799997	200	0	0
-7.96999979	6.80439997	3.42700005	200	0	0
-7.96400023	6.80499983	3.44000006	200	0	0
-7.96600008	6.8045001	3.454	200	0	0
-7.97700024	6.80489969	3.45600009	200	0	0
-7.96999979	6.80499983	3.45499992	200	0	0
-7.9829998	6.80489969	3.44199991	200	0	0
-7.96199989	6.80439997	3.454	200	0	0
-7.96899986	6.8045001	3.48300004	200	0	0
-7.96600008	6.80499983	3.48300004	200	0	0
-7.97599983	6.80489969	3.48399997	200	0	0
-7.96899986	6.80499983	3.49699998	200	0	0
-7.98600006	6.80489969	3.49900007	200	0	0
-7.97300005	6.80439997	3.49799991	200	0	0
-7.96899986	6.8045001	3.49699998	200	0	0
-7.97599983	6.80439997	3.48399997	200	0	0
-7.96999979	6.80499983	3.51099992	200	0	0
-7.97399998	6.80499983	3.52600002	200	0	0
-7.98199987	6.80489969	3.52699995	200	0	0
-7.96799994	6.80439997	3.5250001	200	0	0
-7.96999979	6.8045001	3.5250001	200	0	0
-7.98600006	6.80489969	3.51300001	200	0	0
-7.97300005	6.80439997	3.51200008	200	0	0
-7.9749999	6.8045001	3.51200008	200	0	0
-7.96400023	6.80439997	3.55299997	200	0	0
-7.97100019	6.80499983	3.5539999	200	0	0
-7.97399998	6.80489969	3.5539999	200	0	0
-7.97200012	6.8045001	3.58200002	200	0	0
-7.97100019	6.80499983	3.56800008	200	0	0
-7.98099995	6.80489969	3.56900001	200	0	0
-7.98000002	6.8045001	3.56900001	200	0	0
-7.97100019	6.80439997	3.56800008	200	0	0
-7.96999979	6.8045001	3.5539999	200	0	0
-7.97200012	6.80499983	3.58200002	200	0	0
-7.98600006	6.80489969	3.58400011	200	0	0
-7.9749999	6.80499983	3.59699988	200	0	0
-7.98099995	6.80439997	3.58400011	200	0	0
-7.97599983	6.80439997	3.59699988	200	0	0
-7.97100019	6.8045001	3.59599996	200	0	0
-7.98999977	6.80489969	3.59899998	200	0	0
-7.97100019	6.80499983	3.625	200	0	0
-7.98000002	6.80489969	3.62599993	200	0	0
-7.97900009	6.8045001	3.6400001	200	0	0
-7.97399998	6.80439997	3.63899994	200	0	0
-7.97800016	6.80439997	3.62599993	200	0	0
-7.97599983	6.8045001	3.625	200	0	0
-7.97399998	6.80499983	3.65300012	200	0	0
-7.98899984	6.80489969	3.64100003	200	0	0
-7.97599983	6.80499983	3.6400001	200	0	0
-7.98999977	6.8045001	3.67000008	200	0	0
-7.9829998	6.80439997	3.66899991	200	0	0
-7.98199987	6.80489969	3.65499997	200	0	0
-7.98600006	6.80439997	3.65499997	200	0	0
-7.97900009	6.8045001	3.65400004	200	0	0
-7.99599981	6.80489969	3.671	200	0	0
-7.98400021	6.80499983	3.66899991	200	0	0
-7.97399998	6.80499983	3.6960001	200	0	0
-7.98799992	6.80489969	3.69799995	200	0	0
-7.97900009	6.8045001	3.71099997	200	0	0
-7.98000002	6.80439997	3.69700003	200	0	0
-7.98400021	6.8045001	3.69799995	200	0	0
-7.98199987	6.80489969	3.71199989	200	0	0
-7.99300003	6.80460024	3.69899988	200	0	0
-7.9749999	6.80499983	3.71099997	200	0	0
-7.97599983	6.80439997	3.71099997	200	0	0
-7.99599981	6.80460024	3.71399999	200	0	0
-7.98500013	6.80499983	3.72600007	200	0	0
-7.99700022	6.80489969	3.72799993	200	0	0
-7.99300003	6.80460024	3.72799993	200	0	0
-7.98199987	6.80439997	3.72600007	200	0	0
-7.98400021	6.8045001	3.72600007	200	0	0
-7.98500013	6.80460024	3.74099994	200	0	0
-7.97800016	6.80489969	3.74000001	200	0	0
-7.98199987	6.80499983	3.74000001	200	0	0
-7.9829998	6.80439997	3.76900005	200	0	0
-7.98899984	6.80439997	3.74099994	200	0	0
-7.9829998	6.8045001	3.74000001	200	0	0
-7.99599981	6.80489969	3.77099991	200	0	0
-7.97700024	6.80499983	3.76799989	200	0	0
-7.99100018	6.8045001	3.76999998	200	0	0
-7.98600006	6.80489969	3.78399992	200	0	0
-7.98400021	6.80499983	3.78299999	200	0	0
-7.99499989	6.80460024	3.77099991	200	0	0
-7.98000002	6.80439997	3.78299999	200	0	0
-7.98099995	6.8045001	3.78299999	200	0	0
-7.99800014	6.80460024	3.78600001	200	0	0
-7.99399996	6.80489969	3.79900002	200	0	0
-8.00800037	6.80460024	3.80200005	200	0	0
-7.99599981	6.8046999	3.79999995	200	0	0
-8	6.8045001	3.79999995	200	0	0
-7.98899984	6.80439997	3.7980001	200	0	0
-7.98400021	6.80499983	3.7980001	200	0	0
-7.9920001	6.8045001	3.81299996	200	0	0
-8.00199986	6.8046999	3.81500006	200	0	0
-7.9920001	6.80489969	3.81299996	200	0	0
-7.98999977	6.80499983	3.81299996	200	0	0
-7.99499989	6.80439997	3.81399989	200	0	0
-7.9829998	6.8045001	3.83999991	200	0	0
-7.99399996	6.8046999	3.85700011	200	0	0
-7.98000002	6.80499983	3.83999991	200	0	0
-7.99499989	6.80489969	3.84299994	200	0	0
-7.98999977	6.8045001	3.85599995	200	0	0
-7.98500013	6.80439997	3.85500002	200	0	0
-7.9920001	6.8046999	3.84200001	200	0	0
-7.97900009	6.80439997	3.83999991	200	0	0
-7.98899984	6.80499983	3.86999989	200	0	0
-7.98500013	6.80499983	3.85500002	200	0	0
-7.99100018	6.80489969	3.85599995	200	0	0
-7.98400021	6.80439997	3.86899996	200	0	0
-7.99499989	6.8045001	3.87100005	200	0	0
-7.98699999	6.80439997	3.88400006	200	0	0
-7.99499989	6.8045001	3.88599992	200	0	0
-8.01099968	6.8046999	3.88800001	200	0	0
-8.00199986	6.80480003	3.88700008	200	0	0
-7.99900007	6.80489969	3.88599992	200	0	0
-7.98799992	6.80499983	3.88400006	200	0	0
-7.98899984	6.8045001	3.91300011	200	0	0
-7.99900007	6.80489969	3.93000007	200	0	0
-8.00399971	6.80480003	3.93000007	200	0	0
-7.99599981	6.8045001	3.9289999	200	0	0
-7.98699999	6.80499983	3.91300011	200	0	0
-7.98699999	6.80439997	3.92700005	200	0	0
-8.0010004	6.80480003	3.91499996	200	0	0
-7.9920001	6.80439997	3.91400003	200	0	0
-8.00300026	6.80489969	3.94499993	200	0	0
-7.98600006	6.80439997	3.94199991	200	0	0
-7.9920001	6.80499983	3.94199991	200	0	0
-7.99399996	6.8045001	3.94300008	200	0	0
-7.98999977	6.80499983	3.92799997	200	0	0
-7.99800014	6.80480003	3.95799994	200	0	0
-8.0010004	6.80489969	3.95900011	200	0	0
-7.98999977	6.80499983	3.95700002	200	0	0
-7.99700022	6.8045001	3.95799994	200	0	0
-7.99100018	6.80439997	3.95700002	200	0	0
-7.98999977	6.80439997	3.9849999	200	0	0
-7.99800014	6.80489969	4.00099993	200	0	0
-8.01000023	6.8045001	4.00400019	200	0	0
-7.99800014	6.80439997	4.00099993	200	0	0
-7.98799992	6.80499983	3.9849999	200	0	0
-8.00300026	6.80489969	3.98799992	200	0	0
-7.99800014	6.80480003	3.98699999	200	0	0
-8	6.8045001	3.98699999	200	0	0
-7.99300003	6.80499983	4.02899981	200	0	0
-7.9829998	6.80439997	4.01300001	200	0	0
-8.0010004	6.8045001	4.01599979	200	0	0
-8.00500011	6.80489969	4.0170002	200	0	0
-7.99599981	6.80499983	4.01499987	200	0	0
-7.98899984	6.80499983	4	200	0	0
-7.9920001	6.80439997	4.02899981	200	0	0
-8.00199986	6.8045001	4.03100014	200	0	0
-8.00399971	6.80489969	4.03100014	200	0	0
-7.98799992	6.80499983	4.05700016	200	0	0
-7.98799992	6.80439997	4.05700016	200	0	0
-7.99700022	6.80489969	4.05900002	200	0	0
-7.99399996	6.8045001	4.07299995	200	0	0
-7.9920001	6.80439997	4.07299995	200	0	0
-8.00199986	6.8045001	4.05999994	200	0	0
-7.99399996	6.80439997	4.08699989	200	0	0
-8.00199986	6.8045001	4.08900023	200	0	0
-8.00800037	6.80489969	4.09000015	200	0	0
-8.00199986	6.80499983	4.08900023	200	0	0
-8.01099968	6.80489969	4.07600021	200	0	0
-7.9920001	6.80499983	4.07299995	200	0	0
-7.99300003	6.80439997	4.10200024	200	0	0
-8.0170002	6.8045001	4.10699987	200	0	0
-8.01500034	6.80489969	4.10599995	200	0	0
-7.99100018	6.80499983	4.10099983	200	0	0
-7.9920001	6.80439997	4.13000011	200	0	0
-8.00199986	6.8045001	4.1329999	200	0	0
-8.0010004	6.80489969	4.14699984	200	0	0
-7.99599981	6.80499983	4.14599991	200	0	0
-8.01200008	6.80489969	4.13500023	200	0	0
-7.99300003	6.80499983	4.13100004	200	0	0
-8.00699997	6.8045001	4.14799976	200	0	0
-7.99499989	6.80439997	4.14599991	200	0	0
-8.00899982	6.80489969	4.16300011	200	0	0
-8.00500011	6.80439997	4.16200018	200	0	0
-7.99700022	6.8045001	4.16099977	200	0	0
-8.00399971	6.80499983	4.16200018	200	0	0
-8.00599957	6.8045001	4.17700005	200	0	0
-8.00199986	6.80439997	4.17600012	200	0	0
-7.9920001	6.80499983	4.17399979	200	0	0
-8.00500011	6.80489969	4.17700005	200	0	0
-8.00300026	6.8045001	4.20599985	200	0	0
-7.99399996	6.80499983	4.204	200	0	0
-8.01299953	6.80489969	4.20800018	200	0	0
-8.00399971	6.8045001	4.22100019	200	0	0
-7.98899984	6.80439997	4.21700001	200	0	0
-7.99300003	6.80439997	4.204	200	0	0
-7.99599981	6.80499983	4.21899986	200	0	0
-8.01000023	6.80489969	4.22200012	200	0	0
-8.01200008	6.8045001	4.23699999	200	0	0
-8.00199986	6.80499983	4.23500013	200	0	0
-8.00199986	6.80489969	4.23500013	200	0	0
-7.99900007	6.80439997	4.23400021	200	0	0
-7.99800014	6.80439997	4.24900007	200	0	0
