-13.8369999	6.97900105	2.13499999	200	0	0
-13.835	6.97900105	2.18300009	200	0	0
-13.8339996	6.97889996	2.20700002	200	0	0
-13.8339996	6.97900105	2.15899992	200	0	0
-13.8439999	6.97889996	2.13499999	200	0	0
-13.8310003	6.97879982	2.20799994	200	0	0
-13.8369999	6.97889996	2.18300009	200	0	0
-13.8339996	6.97889996	2.15899992	200	0	0
-13.8380003	6.97889996	2.06299996	200	0	0
-13.8409996	6.97889996	2.08699989	200	0	0
-13.8380003	6.97860003	2.27999997	200	0	0
-13.8369999	6.97819996	2.3039999	200	0	0
-13.8299999	6.97809982	2.30599999	200	0	0
-13.8400002	6.97870016	2.25600004	200	0	0
-13.8310003	6.97889996	1.96599996	200	0	0
-13.8339996	6.97889996	1.94200003	200	0	0
-13.8290005	6.97879982	1.96599996	200	0	0
-13.8290005	6.97889996	1.79700005	200	0	0
-13.8190002	6.97889996	1.77400005	200	0	0
-13.8360004	6.97900105	1.773	200	0	0
-13.8269997	6.97900105	1.82200003	200	0	0
-13.8299999	6.97889996	1.84599996	200	0	0
-13.8299999	6.97900105	1.79700005	200	0	0
-13.842	6.97889996	1.82099998	200	0	0
-13.8310003	6.97889996	1.89400005	200	0	0
-13.8219995	6.97900105	1.84599996	200	0	0
-13.8290005	6.97889996	1.72500002	200	0	0
-13.8479996	6.97889996	2.01399994	200	0	0
-13.8540001	6.97889996	2.03800011	200	0	0
-13.8310003	6.97900105	2.06299996	200	0	0
-13.8360004	6.97900105	2.08699989	200	0	0
-13.8280001	6.97900105	2.03900003	200	0	0
-13.8260002	6.97879982	1.53100002	200	0	0
-13.8269997	6.97879982	1.45899999	200	0	0
-13.8290005	6.97879982	1.48300004	200	0	0
-13.8210001	6.97870016	1.48300004	200	0	0
-13.8280001	6.97879982	1.43400002	200	0	0
-13.8280001	6.97889996	1.55599999	200	0	0
-13.8299999	6.97889996	1.53100002	200	0	0
-13.8319998	6.97889996	1.579	200	0	0
-13.8280001	6.97879982	1.65199995	200	0	0
-13.8260002	6.97889996	1.60399997	200	0	0
-13.8280001	6.97830009	0.924000025	200	0	0
-13.8380003	6.97819996	0.874000013	200	0	0
-13.8439999	6.97849989	1.09300005	200	0	0
-13.8149996	6.97840071	0.973999977	200	0	0
-13.8310003	6.97840071	0.948000014	200	0	0
-13.8380003	6.97840071	0.922999978	200	0	0
-13.8369999	6.97849989	0.947000027	200	0	0
-13.8219995	6.97849989	0.996999979	200	0	0
-13.8240004	6.97849989	0.97299999	200	0	0
-13.8299999	6.97860003	1.07000005	200	0	0
-13.8179998	6.97870016	1.12	200	0	0
-13.8249998	6.97860003	1.09500003	200	0	0
-13.8199997	6.97860003	1.11899996	200	0	0
-13.8310003	6.97860003	1.04499996	200	0	0
-13.8269997	6.97819996	0.825999975	200	0	0
-13.8249998	6.97830009	0.851000011	200	0	0
-13.8290005	6.97830009	0.875	200	0	0
-13.8260002	6.97819996	0.851000011	200	0	0
-13.8249998	6.97879982	1.40999997	200	0	0
-13.8210001	6.97889996	1.41100001	200	0	0
-13.8269997	6.97900105	1.43400002	200	0	0
-13.823	6.97900105	1.48300004	200	0	0
-13.8269997	6.97900105	1.45899999	200	0	0
-13.8299999	6.97889996	1.43400002	200	0	0
-13.8280001	6.97889996	1.48300004	200	0	0
-13.8310003	6.97889996	1.45799994	200	0	0
-13.816	6.97900105	1.33800006	200	0	0
-13.8269997	6.97900105	1.28900003	200	0	0
-13.8299999	6.97889996	1.36199999	200	0	0
-13.823	6.97900105	1.31400001	200	0	0
-13.8249998	6.97879982	1.36199999	200	0	0
-13.8240004	6.97889996	1.28900003	200	0	0
-13.823	6.97889996	1.33800006	200	0	0
-13.8269997	6.97889996	1.31299996	200	0	0
-13.8310003	6.97879982	1.28900003	200	0	0
-13.8249998	6.97879982	1.33800006	200	0	0
-13.8249998	6.97879982	1.31299996	200	0	0
-13.8310003	6.97879982	1.19099998	200	0	0
-13.8190002	6.97889996	1.21700001	200	0	0
-13.8240004	6.97889996	1.24100006	200	0	0
-13.8190002	6.97879982	1.21700001	200	0	0
-13.816	6.97879982	1.24100006	200	0	0
-13.8210001	6.97900105	1.36199999	200	0	0
-13.8269997	6.97900105	1.40999997	200	0	0
-13.8210001	6.97879982	1.16799998	200	0	0
-13.8369999	6.97889996	1.70000005	200	0	0
-13.8219995	6.97889996	1.67700005	200	0	0
-13.835	6.97900105	1.676	200	0	0
-13.8339996	6.97900105	1.65199995	200	0	0
-13.8310003	6.97889996	1.65199995	200	0	0
-13.8330002	6.97900105	1.70000005	200	0	0
-13.8360004	6.97900105	1.72399998	200	0	0
-13.8319998	6.97909975	1.84500003	200	0	0
-13.8450003	6.97909975	1.82099998	200	0	0
-13.8330002	6.97900105	1.89400005	200	0	0
-13.8389997	6.97909975	1.773	200	0	0
-13.8310003	6.97900105	1.94200003	200	0	0
-13.8290005	6.97900105	1.91799998	200	0	0
-13.8339996	6.97900105	1.96599996	200	0	0
-13.8400002	6.97909975	1.94200003	200	0	0
-13.8389997	6.97909975	1.89400005	200	0	0
-13.8339996	6.97909975	1.91799998	200	0	0
-13.8339996	6.97919989	1.89400005	200	0	0
-13.8199997	6.97919989	1.82200003	200	0	0
-13.849	6.97919989	1.77199996	200	0	0
-13.8430004	6.97919989	1.79700005	200	0	0
-13.8299999	6.97930002	1.84599996	200	0	0
-13.8260002	6.97919989	1.84599996	200	0	0
-13.8339996	6.97909975	1.70000005	200	0	0
-13.8280001	6.97909975	1.72500002	200	0	0
-13.8360004	6.97909975	1.676	200	0	0
-13.8280001	6.97900105	1.58000004	200	0	0
-13.8330002	6.97900105	1.60399997	200	0	0
-13.8249998	6.97909975	1.65199995	200	0	0
-13.8339996	6.97849989	0.922999978	200	0	0
-13.8149996	6.97860003	0.973999977	200	0	0
-13.823	6.97860003	0.924000025	200	0	0
-13.8249998	6.97860003	0.948000014	200	0	0
-13.835	6.97860003	0.995999992	200	0	0
-13.8439999	6.97830009	0.800000012	200	0	0
-13.8520002	6.97830009	0.823000014	200	0	0
-13.8280001	6.97819996	0.801999986	200	0	0
-13.8290005	6.97849989	0.875	200	0	0
-13.8380003	6.97840071	0.800000012	200	0	0
-13.8430004	6.97849989	0.848999977	200	0	0
-13.842	6.97840071	0.824000001	200	0	0
-13.8299999	6.97780085	0.680999994	200	0	0
-13.8280001	6.97799969	0.70599997	200	0	0
-13.8339996	6.97809982	0.730000019	200	0	0
-13.8389997	6.97809982	0.754000008	200	0	0
-13.8149996	6.97799969	0.731999993	200	0	0
-13.8260002	6.97770023	0.681999981	200	0	0
-13.8299999	6.97789955	0.70599997	200	0	0
-13.8290005	6.9776001	0.680999994	200	0	0
-13.8389997	6.97780085	0.704999983	200	0	0
-13.8260002	6.97789955	0.731000006	200	0	0
-13.8310003	6.97870016	1.07000005	200	0	0
-13.8290005	6.97879982	1.07000005	200	0	0
-13.816	6.97879982	1.12	200	0	0
-13.8210001	6.97879982	1.09500003	200	0	0
-13.8319998	6.97870016	0.922999978	200	0	0
-13.8260002	6.97879982	0.948000014	200	0	0
-13.8179998	6.97870016	0.998000026	200	0	0
-13.8389997	6.97870016	0.947000027	200	0	0
-13.8290005	6.97860003	0.875	200	0	0
-13.8369999	6.97860003	0.848999977	200	0	0
-13.8439999	6.97909975	2.06200004	200	0	0
-13.8179998	6.97909975	2.0150001	200	0	0
-13.8389997	6.97909975	2.03800011	200	0	0
-13.8290005	6.97900105	2.0150001	200	0	0
-13.8470001	6.97909975	2.08599997	200	0	0
-13.8369999	6.97919989	2.03800011	200	0	0
-13.8330002	6.97919989	2.01399994	200	0	0
-13.835	6.97919989	2.06299996	200	0	0
-13.8319998	6.97870016	2.27999997	200	0	0
-13.8369999	6.97830009	2.3039999	200	0	0
-13.8389997	6.97879982	2.25600004	200	0	0
-13.8450003	6.97919989	2.13499999	200	0	0
-13.8389997	6.97909975	2.20700002	200	0	0
-13.8389997	6.97919989	2.18300009	200	0	0
-13.8330002	6.97919989	2.15899992	200	0	0
-13.8380003	6.97900105	2.20700002	200	0	0
-13.835	6.97909975	2.13499999	200	0	0
-13.8369999	6.97909975	2.18300009	200	0	0
-13.8400002	6.97909975	2.15899992	200	0	0
-13.8509998	6.97930002	2.13499999	200	0	0
-13.8190002	6.97940016	2.06500006	200	0	0
-13.8319998	6.97930002	2.03900003	200	0	0
-13.8369999	6.97940016	2.08899999	200	0	0
-13.835	6.97930002	2.06299996	200	0	0
-13.8400002	6.97930002	2.08699989	200	0	0
-13.8409996	6.97819996	2.32800007	200	0	0
-13.8369999	6.97809982	2.33100009	200	0	0
-13.8380003	6.97799969	2.33100009	200	0	0
-13.8389997	6.97789955	2.33100009	200	0	0
-13.8269997	6.97780085	2.33100009	200	0	0
-13.842	6.97770023	2.33100009	200	0	0
-13.8369999	6.97729969	2.33100009	200	0	0
-13.835	6.9776001	2.33100009	200	0	0
-13.8389997	6.97739983	2.33100009	200	0	0
-13.8339996	6.97749996	2.33100009	200	0	0
-13.8360004	6.97879982	2.27999997	200	0	0
-13.8339996	6.97840071	2.3039999	200	0	0
-13.8319998	6.97889996	2.25600004	200	0	0
-13.8269997	6.97940016	1.70299995	200	0	0
-13.8219995	6.97919989	1.653	200	0	0
-13.8219995	6.97930002	1.72500002	200	0	0
-13.8290005	6.97930002	1.676	200	0	0
-13.8319998	6.97930002	1.70000005	200	0	0
-13.8290005	6.97919989	1.676	200	0	0
-13.8339996	6.97919989	1.70000005	200	0	0
-13.8310003	6.97909975	1.60399997	200	0	0
-13.8299999	6.97900105	1.55499995	200	0	0
-13.8339996	6.97909975	1.579	200	0	0
-13.8299999	6.97900105	1.53100002	200	0	0
-13.8380003	6.97909975	1.55499995	200	0	0
-13.8380003	6.97919989	1.91799998	200	0	0
-13.835	6.97919989	1.96599996	200	0	0
-13.8269997	6.97919989	1.94200003	200	0	0
-13.8240004	6.97799969	0.681999981	200	0	0
-13.8439999	6.97809982	0.703999996	200	0	0
-13.8439999	6.97789955	0.680000007	200	0	0
-13.8269997	6.97819996	0.727999985	200	0	0
-13.842	6.97819996	0.750999987	200	0	0
-13.8669996	6.97669983	0.133000001	200	0	0
-13.8690004	6.97669983	0.0829999968	200	0	0
-13.8760004	6.97679996	0.105999999	200	0	0
-13.8699999	6.97679996	0.131999999	200	0	0
-13.8830004	6.97669983	0.104999997	200	0	0
-13.8800001	6.9769001	0.180000007	200	0	0
-13.8599997	6.9769001	0.134000003	200	0	0
-13.8789997	6.97700024	0.204999998	200	0	0
-13.8739996	6.97700024	0.180999994	200	0	0
-13.8549995	6.97710037	0.209000006	200	0	0
-13.8529997	6.97719955	0.233999997	200	0	0
-13.8210001	6.97749996	0.437000006	200	0	0
-13.8430004	6.9776001	0.458000004	200	0	0
-13.8450003	6.97749996	0.384000003	200	0	0
-13.8290005	6.97739983	0.386000007	200	0	0
-13.8660002	6.97770023	0.504000008	200	0	0
-13.8369999	6.97749996	0.31099999	200	0	0
-13.8389997	6.97749996	0.335999995	200	0	0
-13.8260002	6.97739983	0.312999994	200	0	0
-13.8330002	6.97739983	0.335999995	200	0	0
-13.8299999	6.97749996	0.361999989	200	0	0
-13.8570004	6.9776001	0.381999999	200	0	0
-13.8290005	6.9776001	0.361999989	200	0	0
-13.835	6.97780085	0.483999997	200	0	0
-13.8240004	6.97770023	0.486000001	200	0	0
-13.8360004	6.97770023	0.458999991	200	0	0
-13.8369999	6.9776001	0.335999995	200	0	0
-13.8339996	6.97770023	0.435000002	200	0	0
-13.8330002	6.97830009	0.703000009	200	0	0
-13.8360004	6.97830009	0.677999973	200	0	0
-13.8310003	6.97819996	0.703000009	200	0	0
-13.8249998	6.97830009	0.728999972	200	0	0
-13.8400002	6.97830009	0.750999987	200	0	0
-13.8739996	6.97710037	0.180999994	200	0	0
-13.8529997	6.97719955	0.185000002	200	0	0
-13.8579998	6.97700024	0.134000003	200	0	0
-13.8809996	6.97669983	0.0560000017	200	0	0
-13.8780003	6.9769001	0.0560000017	200	0	0
-13.8710003	6.9769001	0.0820000023	200	0	0
-13.8559999	6.97679996	0.0850000009	200	0	0
-13.8409996	6.97729969	0.211999997	200	0	0
-13.8430004	6.97739983	0.261000007	200	0	0
-13.8629999	6.97700024	0.0839999989	200	0	0
-13.8310003	6.97739983	0.238000005	200	0	0
-13.8319998	6.97749996	0.263000011	200	0	0
-13.8269997	6.9776001	0.312999994	200	0	0
-13.8439999	6.97729969	0.186000004	200	0	0
-13.8549995	6.97719955	0.135000005	200	0	0
-13.8450003	6.97749996	0.186000004	200	0	0
-13.8240004	6.97739983	0.214000002	200	0	0
-13.8369999	6.97739983	0.187000006	200	0	0
-13.8249998	6.97749996	0.238999993	200	0	0
-13.8280001	6.97770023	0.386999995	200	0	0
-13.8199997	6.97770023	0.363000005	200	0	0
-13.8299999	6.97770023	0.337000012	200	0	0
-13.8219995	6.9776001	0.263999999	200	0	0
-13.8269997	6.97770023	0.312999994	200	0	0
-13.8719997	6.97669983	0.00700000022	200	0	0
-13.8339996	6.97909975	1.53100002	200	0	0
-13.8310003	6.97909975	1.48300004	200	0	0
-13.8299999	6.97909975	1.43400002	200	0	0
-13.8299999	6.97909975	1.45799994	200	0	0
-13.8260002	6.97919989	1.55599999	200	0	0
-13.8269997	6.97919989	1.53100002	200	0	0
-13.8310003	6.97919989	1.60399997	200	0	0
-13.8249998	6.97919989	1.58000004	200	0	0
-13.8290005	6.97909975	1.40999997	200	0	0
-13.8120003	6.97919989	1.43599999	200	0	0
-13.8170004	6.97909975	1.36300004	200	0	0
-13.8249998	6.97919989	1.40999997	200	0	0
-13.8290005	6.97919989	1.48300004	200	0	0
-13.8290005	6.97919989	1.45899999	200	0	0
-13.8190002	6.97919989	1.36199999	200	0	0
-13.8249998	6.97930002	1.43499994	200	0	0
-13.8219995	6.97930002	1.41100001	200	0	0
-13.8369999	6.97930002	1.48199999	200	0	0
-13.8170004	6.97930002	1.45899999	200	0	0
-13.835	6.97940016	1.43599999	200	0	0
-13.8249998	6.97909975	1.31299996	200	0	0
-13.8299999	6.97909975	1.33700001	200	0	0
-13.8299999	6.97930002	1.55499995	200	0	0
-13.8280001	6.97930002	1.53100002	200	0	0
-13.8269997	6.97930002	1.60399997	200	0	0
-13.8210001	6.97930002	1.58000004	200	0	0
-13.8299999	6.97940016	1.53299999	200	0	0
-13.8470001	6.97940016	1.58099997	200	0	0
-13.8290005	6.97940016	1.55799997	200	0	0
-13.8240004	6.97930002	1.653	200	0	0
-13.8369999	6.97940016	1.60599995	200	0	0
-13.823	6.97940016	1.46099997	200	0	0
-13.8269997	6.97940016	1.48500001	200	0	0
-13.8339996	6.97950029	1.60599995	200	0	0
-13.8249998	6.97950029	1.55799997	200	0	0
-13.8430004	6.97950029	1.58099997	200	0	0
-13.8290005	6.97940016	1.65499997	200	0	0
-13.8339996	6.97940016	1.77499998	200	0	0
-13.8369999	6.97930002	1.79700005	200	0	0
-13.835	6.97930002	1.773	200	0	0
-13.8360004	6.97940016	1.727	200	0	0
-13.8310003	6.97950029	1.70299995	200	0	0
-13.8389997	6.97950029	1.65400004	200	0	0
-13.8360004	6.97950029	1.67799997	200	0	0
-13.8260002	6.97950029	1.727	200	0	0
-13.8290005	6.97780085	2.37899995	200	0	0
-13.8369999	6.97739983	2.37899995	200	0	0
-13.8380003	6.97770023	2.37899995	200	0	0
-13.8389997	6.97749996	2.37899995	200	0	0
-13.8339996	6.9776001	2.37899995	200	0	0
-13.8319998	6.97840071	2.32800007	200	0	0
-13.8369999	6.97849989	2.3039999	200	0	0
-13.8330002	6.97830009	2.32800007	200	0	0
-13.8459997	6.97729969	2.37899995	200	0	0
-13.8369999	6.97870016	2.32800007	200	0	0
-13.8389997	6.97889996	2.27999997	200	0	0
-13.8389997	6.97879982	2.3039999	200	0	0
-13.8369999	6.97860003	2.32800007	200	0	0
-13.8339996	6.97849989	2.32800007	200	0	0
-13.823	6.97870016	2.3039999	200	0	0
-13.835	6.97860003	2.3039999	200	0	0
-13.8430004	6.97909975	2.25600004	200	0	0
-13.8430004	6.97919989	2.20700002	200	0	0
-13.8360004	6.97900105	2.25600004	200	0	0
-13.8360004	6.97930002	2.18300009	200	0	0
-13.8389997	6.97819996	2.37599993	200	0	0
-13.8400002	6.97729969	2.40300012	200	0	0
-13.8369999	6.97770023	2.40300012	200	0	0
-13.8400002	6.9776001	2.40300012	200	0	0
-13.8369999	6.97739983	2.40300012	200	0	0
-13.8380003	6.97749996	2.40300012	200	0	0
-13.8380003	6.97809982	2.37899995	200	0	0
-13.8269997	6.97799969	2.37899995	200	0	0
-13.835	6.97789955	2.37899995	200	0	0
-13.8339996	6.97879982	2.32800007	200	0	0
-13.8400002	6.97900105	2.27999997	200	0	0
-13.8319998	6.97889996	2.3039999	200	0	0
-13.8409996	6.97930002	2.15899992	200	0	0
-13.842	6.97930002	2.20700002	200	0	0
-13.8400002	6.97940016	2.16100001	200	0	0
-13.8310003	6.97930002	1.94200003	200	0	0
-13.8319998	6.97930002	1.96599996	200	0	0
-13.8389997	6.97940016	2.04099989	200	0	0
-13.8360004	6.97940016	2.01699996	200	0	0
-13.8269997	6.97930002	2.0150001	200	0	0
-13.8430004	6.97930002	1.91799998	200	0	0
-13.8330002	6.97940016	1.94400001	200	0	0
-13.8360004	6.97940016	1.96800005	200	0	0
-13.8479996	6.97950029	2.06500006	200	0	0
-13.8409996	6.97950029	2.01699996	200	0	0
-13.8389997	6.97950029	2.04099989	200	0	0
-13.8280001	6.97950029	2.08899999	200	0	0
-13.8409996	6.97940016	2.13700008	200	0	0
-13.8409996	6.97940016	2.18600011	200	0	0
-13.8319998	6.97900105	2.3039999	200	0	0
-13.8509998	6.97909975	2.27999997	200	0	0
-13.8450003	6.97919989	2.25600004	200	0	0
-13.8439999	6.97780085	2.40300012	200	0	0
-13.8260002	6.97830009	2.37599993	200	0	0
-13.8310003	6.97940016	1.91999996	200	0	0
-13.8360004	6.97940016	1.89600003	200	0	0
-13.8409996	6.97950029	1.94400001	200	0	0
-13.8369999	6.97950029	1.89600003	200	0	0
-13.8339996	6.97950029	1.91999996	200	0	0
-13.842	6.97950029	1.96800005	200	0	0
-13.8290005	6.97940016	1.84800005	200	0	0
-13.835	6.97940016	1.82299995	200	0	0
-13.8369999	6.97930002	1.82099998	200	0	0
-13.8400002	6.97960043	2.04099989	200	0	0
-13.8549995	6.97960043	2.08899999	200	0	0
-13.8409996	6.97960043	2.06500006	200	0	0
-13.8360004	6.97950029	2.13700008	200	0	0
-13.8389997	6.97930002	2.25600004	200	0	0
-13.8450003	6.97940016	2.21000004	200	0	0
-13.8240004	6.97950029	2.16199994	200	0	0
-13.8400002	6.97950029	2.21000004	200	0	0
-13.8400002	6.97950029	2.18600011	200	0	0
-13.8330002	6.97889996	2.32800007	200	0	0
-13.8299999	6.97909975	2.3039999	200	0	0
-13.8369999	6.97919989	2.27999997	200	0	0
-13.8380003	6.97960043	2.16100001	200	0	0
-13.8479996	6.97960043	2.13700008	200	0	0
-13.8360004	6.97940016	2.2579999	200	0	0
-13.8330002	6.97960043	2.21000004	200	0	0
-13.8430004	6.97960043	2.18499994	200	0	0
-13.8330002	6.97849989	2.37599993	200	0	0
-13.8360004	6.97840071	2.37599993	200	0	0
-13.8409996	6.97909975	2.32800007	200	0	0
-13.8339996	6.97919989	2.3039999	200	0	0
-13.8290005	6.97900105	2.32800007	200	0	0
-13.8360004	6.97799969	2.40300012	200	0	0
-13.8339996	6.97789955	2.40300012	200	0	0
-13.8330002	6.97930002	2.27999997	200	0	0
-13.8219995	6.97889996	1.19200003	200	0	0
-13.823	6.97900105	1.21599996	200	0	0
-13.8249998	6.97900105	1.24000001	200	0	0
-13.8280001	6.97909975	1.28900003	200	0	0
-13.8319998	6.97889996	1.16700006	200	0	0
-13.8260002	6.97900105	1.19200003	200	0	0
-13.8299999	6.97940016	1.79999995	200	0	0
-13.8149996	6.97950029	1.79999995	200	0	0
-13.8439999	6.97950029	1.847	200	0	0
-13.8280001	6.97950029	1.824	200	0	0
-13.8400002	6.97950029	1.77499998	200	0	0
-13.8360004	6.97960043	1.96800005	200	0	0
-13.8369999	6.97960043	1.91999996	200	0	0
-13.8380003	6.97960043	1.94400001	200	0	0
-13.8360004	6.97969961	1.94400001	200	0	0
-13.8479996	6.97969961	1.89499998	200	0	0
-13.8380003	6.97969961	1.91999996	200	0	0
-13.8190002	6.97960043	1.89699996	200	0	0
-13.835	6.97969961	1.96800005	200	0	0
-13.8280001	6.97960043	1.824	200	0	0
-13.8249998	6.97960043	1.77600002	200	0	0
-13.8319998	6.97969961	1.84800005	200	0	0
-13.8380003	6.97960043	1.847	200	0	0
-13.8310003	6.97950029	1.53299999	200	0	0
-13.8339996	6.97969961	1.70299995	200	0	0
-13.8319998	6.97969961	1.65400004	200	0	0
-13.8380003	6.97969961	1.67799997	200	0	0
-13.8380003	6.97960043	1.65400004	200	0	0
-13.8290005	6.97969961	1.77499998	200	0	0
-13.8430004	6.97969961	1.79900002	200	0	0
-13.835	6.97969961	1.727	200	0	0
-13.8450003	6.97979975	1.89499998	200	0	0
-13.8500004	6.97969961	2.16100001	200	0	0
-13.8450003	6.97969961	2.13700008	200	0	0
-13.8179998	6.97909975	1.16799998	200	0	0
-13.8260002	6.97909975	1.21599996	200	0	0
-13.823	6.97909975	1.19200003	200	0	0
-13.8280001	6.97900105	1.16700006	200	0	0
-13.8190002	6.97909975	1.24100006	200	0	0
-13.8210001	6.97889996	1.11899996	200	0	0
-13.8509998	6.97719955	0.0860000029	200	0	0
-13.8690004	6.97710037	0.0579999983	200	0	0
-13.8380003	6.97729969	0.137999997	200	0	0
-13.8450003	6.97729969	0.0869999975	200	0	0
-13.8240004	6.97739983	0.140000001	200	0	0
-13.8210001	6.97749996	0.215000004	200	0	0
-13.8570004	6.97789955	0.579999983	200	0	0
-13.8439999	6.97789955	0.556999981	200	0	0
-13.8249998	6.97849989	0.753000021	200	0	0
-13.8380003	6.97860003	0.824999988	200	0	0
-13.8369999	6.97860003	0.800000012	200	0	0
-13.8269997	6.97840071	0.753000021	200	0	0
-13.8249998	6.97889996	1.09500003	200	0	0
-13.8459997	6.97789955	0.48300001	200	0	0
-13.8400002	6.97789955	0.458999991	200	0	0
-13.835	6.97780085	0.460000008	200	0	0
-13.8430004	6.97780085	0.433999985	200	0	0
-13.8319998	6.97780085	0.509000003	200	0	0
-13.8249998	6.97780085	0.361999989	200	0	0
-13.8260002	6.97780085	0.386999995	200	0	0
-13.8269997	6.97780085	0.338	200	0	0
-13.8210001	6.97799969	0.510999978	200	0	0
-13.8360004	6.97789955	0.509000003	200	0	0
-13.8240004	6.97789955	0.363000005	200	0	0
-13.8310003	6.97870016	0.875	200	0	0
-13.8249998	6.97870016	0.801999986	200	0	0
-13.8319998	6.97889996	0.972000003	200	0	0
-13.8100004	6.97889996	0.999000013	200	0	0
-13.8319998	6.97900105	0.948000014	200	0	0
-13.842	6.97900105	0.995000005	200	0	0
-13.8170004	6.97900105	0.973999977	200	0	0
-13.8299999	6.97879982	0.922999978	200	0	0
-13.8199997	6.97879982	0.875999987	200	0	0
-13.816	6.97889996	1.04700005	200	0	0
-13.8330002	6.97840071	0.677999973	200	0	0
-13.8339996	6.97849989	0.703000009	200	0	0
-13.8380003	6.97849989	0.726999998	200	0	0
-13.835	6.97840071	0.703000009	200	0	0
-13.8360004	6.97840071	0.726999998	200	0	0
-13.8129997	6.97900105	1.12	200	0	0
-13.8240004	6.97919989	1.31299996	200	0	0
-13.8170004	6.97919989	1.33800006	200	0	0
-13.8240004	6.97919989	1.28900003	200	0	0
-13.8269997	6.97930002	1.28900003	200	0	0
-13.8299999	6.97930002	1.33700001	200	0	0
-13.8219995	6.97930002	1.31400001	200	0	0
-13.8170004	6.97930002	1.36300004	200	0	0
-13.8210001	6.97919989	1.24100006	200	0	0
-13.8360004	6.97950029	1.43599999	200	0	0
-13.8219995	6.97940016	1.36399996	200	0	0
-13.8249998	6.97950029	1.41299999	200	0	0
-13.8260002	6.97940016	1.41299999	200	0	0
-13.8369999	6.97950029	1.48500001	200	0	0
-13.8280001	6.97950029	1.46099997	200	0	0
-13.8190002	6.97900105	1.07099998	200	0	0
-13.823	6.97909975	1.09500003	200	0	0
-13.8380003	6.97909975	1.11800003	200	0	0
-13.8170004	6.97889996	1.07099998	200	0	0
-13.8249998	6.97900105	1.09500003	200	0	0
-13.8269997	6.97909975	1.046	200	0	0
-13.8260002	6.97909975	1.07000005	200	0	0
-13.8219995	6.97919989	1.19200003	200	0	0
-13.8210001	6.97919989	1.21700001	200	0	0
-13.8269997	6.97919989	1.16700006	200	0	0
-13.816	6.97930002	1.21700001	200	0	0
-13.8190002	6.97930002	1.24100006	200	0	0
-13.8310003	6.97940016	1.33899999	200	0	0
-13.8299999	6.97940016	1.29100001	200	0	0
-13.8219995	6.97940016	1.31599998	200	0	0
-13.8260002	6.97940016	1.21800005	200	0	0
-13.8240004	6.97930002	1.19200003	200	0	0
-13.8179998	6.97950029	1.31599998	200	0	0
-13.8199997	6.97940016	1.24300003	200	0	0
-13.8190002	6.97950029	1.29200006	200	0	0
-13.8260002	6.97950029	1.36399996	200	0	0
-13.823	6.97950029	1.34000003	200	0	0
-13.8260002	6.97960043	1.43700004	200	0	0
-13.8179998	6.97960043	1.46200001	200	0	0
-13.8260002	6.97960043	1.41299999	200	0	0
-13.8430004	6.97960043	1.55700004	200	0	0
-13.8290005	6.97960043	1.60599995	200	0	0
-13.8380003	6.97969961	1.58099997	200	0	0
-13.8409996	6.97969961	1.53299999	200	0	0
-13.8360004	6.97969961	1.55700004	200	0	0
-13.8179998	6.97969961	1.60699999	200	0	0
-13.8529997	6.97849989	0.675999999	200	0	0
-13.8280001	6.97860003	0.727999985	200	0	0
-13.8299999	6.97879982	0.727999985	200	0	0
-13.8299999	6.97870016	0.703000009	200	0	0
-13.8240004	6.97870016	0.753000021	200	0	0
-13.823	6.97870016	0.728999972	200	0	0
-13.8170004	6.97879982	0.827000022	200	0	0
-13.8269997	6.97900105	0.825999975	200	0	0
-13.8240004	6.97879982	0.753000021	200	0	0
-13.8299999	6.97889996	0.825999975	200	0	0
-13.8269997	6.97879982	0.703999996	200	0	0
-13.8249998	6.97909975	0.948000014	200	0	0
-13.8330002	6.97909975	0.995999992	200	0	0
-13.8269997	6.97909975	0.97299999	200	0	0
-13.8219995	6.97919989	1.09500003	200	0	0
-13.8269997	6.97919989	1.046	200	0	0
-13.823	6.97919989	1.07000005	200	0	0
-13.8129997	6.97919989	1.12	200	0	0
-13.8249998	6.97749996	0.140000001	200	0	0
-13.842	6.97739983	0.0869999975	200	0	0
-13.8450003	6.97729969	0.061999999	200	0	0
-13.8439999	6.9776001	0.186000004	200	0	0
-13.8299999	6.97770023	0.188999996	200	0	0
-13.8330002	6.97780085	0.238000005	200	0	0
-13.8219995	6.97770023	0.238999993	200	0	0
-13.8339996	6.97770023	0.213	200	0	0
-13.8179998	6.9776001	0.239999995	200	0	0
-13.8240004	6.9776001	0.214000002	200	0	0
-13.8190002	6.97770023	0.264999986	200	0	0
-13.8219995	6.9776001	0.140000001	200	0	0
-13.8149996	6.97780085	0.264999986	200	0	0
-13.8299999	6.97799969	0.435000002	200	0	0
-13.8290005	6.97799969	0.337000012	200	0	0
-13.8339996	6.97799969	0.361000001	200	0	0
-13.8249998	6.97799969	0.386999995	200	0	0
-13.8380003	6.97830009	0.432000011	200	0	0
-13.8380003	6.97819996	0.505999982	200	0	0
-13.8380003	6.97830009	0.456999987	200	0	0
-13.8249998	6.97809982	0.50999999	200	0	0
-13.8170004	6.97819996	0.435000002	200	0	0
-13.8430004	6.97819996	0.456	200	0	0
-13.8339996	6.97809982	0.483999997	200	0	0
-13.8400002	6.97809982	0.433999985	200	0	0
-13.8330002	6.97809982	0.460000008	200	0	0
-13.823	6.97799969	0.486000001	200	0	0
-13.8210001	6.97799969	0.460999995	200	0	0
-13.8219995	6.97789955	0.263999999	200	0	0
-13.8299999	6.97819996	0.358999997	200	0	0
-13.842	6.97819996	0.307999998	200	0	0
-13.8210001	6.97819996	0.335999995	200	0	0
-13.8129997	6.97809982	0.363999993	200	0	0
-13.8310003	6.97809982	0.312000006	200	0	0
-13.8280001	6.97809982	0.337000012	200	0	0
-13.8240004	6.97799969	0.312999994	200	0	0
-13.8240004	6.97789955	0.312999994	200	0	0
-13.8360004	6.97819996	0.382999986	200	0	0
-13.8409996	6.97799969	0.582000017	200	0	0
-13.8310003	6.97819996	0.555999994	200	0	0
-13.8330002	6.97830009	0.507000029	200	0	0
-13.8299999	6.97809982	0.559000015	200	0	0
-13.8310003	6.97799969	0.558000028	200	0	0
-13.835	6.97940016	1.19299996	200	0	0
-13.8319998	6.97930002	1.16700006	200	0	0
-13.8179998	6.97940016	1.171	200	0	0
-13.816	6.97930002	1.12	200	0	0
-13.8249998	6.97950029	1.24300003	200	0	0
-13.8240004	6.97950029	1.19400001	200	0	0
-13.8199997	6.97950029	1.21899998	200	0	0
-13.8249998	6.97940016	1.12100005	200	0	0
-13.8260002	6.97950029	1.16999996	200	0	0
-13.8210001	6.97930002	1.09500003	200	0	0
-13.8210001	6.97960043	1.24300003	200	0	0
-13.823	6.97960043	1.19400001	200	0	0
-13.8170004	6.97960043	1.21899998	200	0	0
-13.8199997	6.97940016	1.097	200	0	0
-13.8240004	6.97950029	1.12100005	200	0	0
-13.8170004	6.97960043	1.171	200	0	0
-13.8240004	6.97930002	1.07000005	200	0	0
-13.8179998	6.97919989	0.998000026	200	0	0
-13.8190002	6.97919989	0.949000001	200	0	0
-13.8219995	6.97919989	0.97299999	200	0	0
-13.8240004	6.97930002	1.046	200	0	0
-13.8149996	6.97919989	0.925000012	200	0	0
-13.8199997	6.97930002	0.97299999	200	0	0
-13.8269997	6.97930002	0.996999979	200	0	0
-13.8219995	6.97940016	1.04900002	200	0	0
-13.8240004	6.97940016	1.07299995	200	0	0
-13.8240004	6.97960043	1.34000003	200	0	0
-13.823	6.97960043	1.29200006	200	0	0
-13.8210001	6.97960043	1.31599998	200	0	0
-13.8310003	6.97960043	1.36399996	200	0	0
-13.8280001	6.97749996	0.0900000036	200	0	0
-13.8260002	6.97739983	0.0649999976	200	0	0
-13.8330002	6.97870016	2.37599993	200	0	0
-13.8389997	6.97860003	2.37599993	200	0	0
-13.8290005	6.97940016	2.30599999	200	0	0
-13.8400002	6.97930002	2.32800007	200	0	0
-13.842	6.97940016	2.28200006	200	0	0
-13.8389997	6.97919989	2.32800007	200	0	0
-13.8369999	6.97930002	2.3039999	200	0	0
-13.8430004	6.97830009	2.4000001	200	0	0
-13.8369999	6.97809982	2.40300012	200	0	0
-13.8290005	6.97819996	2.40100002	200	0	0
-13.8299999	6.97950029	2.28200006	200	0	0
-13.8459997	6.97950029	2.2579999	200	0	0
-13.842	6.97969961	2.21000004	200	0	0
-13.8450003	6.97969961	2.18499994	200	0	0
-13.8339996	6.97969961	2.04099989	200	0	0
-13.8310003	6.97969961	2.01699996	200	0	0
-13.8459997	6.97969961	2.08899999	200	0	0
-13.8439999	6.97969961	2.06500006	200	0	0
-13.8500004	6.97979975	2.18499994	200	0	0
-13.842	6.97989988	2.16400003	200	0	0
-13.835	6.97989988	2.1400001	200	0	0
-13.8430004	6.97979975	2.16100001	200	0	0
-13.8439999	6.97979975	2.13700008	200	0	0
-13.8459997	6.97960043	2.2579999	200	0	0
-13.8409996	6.97989988	2.21199989	200	0	0
-13.8380003	6.97989988	2.18799996	200	0	0
-13.8339996	6.97979975	2.21000004	200	0	0
-13.8339996	6.97969961	2.2579999	200	0	0
-13.8459997	6.97979975	2.03999996	200	0	0
-13.8439999	6.97979975	2.06500006	200	0	0
-13.8400002	6.97879982	2.37599993	200	0	0
-13.8459997	6.97940016	2.32999992	200	0	0
-13.842	6.97950029	2.30599999	200	0	0
-13.8380003	6.97840071	2.4000001	200	0	0
-13.8459997	6.97960043	2.28200006	200	0	0
-13.8409996	6.97979975	1.94400001	200	0	0
-13.842	6.97979975	1.96800005	200	0	0
-13.8369999	6.97979975	1.91999996	200	0	0
-13.8339996	6.97979975	1.82299995	200	0	0
-13.8310003	6.97979975	1.77499998	200	0	0
-13.8290005	6.97979975	1.79999995	200	0	0
-13.835	6.98000002	1.77699995	200	0	0
-13.8299999	6.97989988	1.80200005	200	0	0
-13.8470001	6.97979975	1.72599995	200	0	0
-13.8369999	6.97989988	1.77699995	200	0	0
-13.8400002	6.97989988	1.85000002	200	0	0
-13.8360004	6.97989988	1.82599998	200	0	0
-13.8369999	6.97979975	1.847	200	0	0
-13.8330002	6.97979975	1.70299995	200	0	0
-13.8479996	6.97979975	2.01600003	200	0	0
-13.8319998	6.98000002	2.06699991	200	0	0
-13.835	6.97989988	2.09100008	200	0	0
-13.8380003	6.97989988	2.04299998	200	0	0
-13.8389997	6.97989988	2.06699991	200	0	0
-13.835	6.98000002	2.09100008	200	0	0
-13.8380003	6.97989988	2.01900005	200	0	0
-13.8219995	6.97969961	1.48599994	200	0	0
-13.8299999	6.97969961	1.43599999	200	0	0
-13.842	6.97969961	1.46000004	200	0	0
-13.823	6.97969961	1.41299999	200	0	0
-13.8299999	6.97979975	1.53299999	200	0	0
-13.835	6.97979975	1.55700004	200	0	0
-13.8240004	6.97979975	1.60599995	200	0	0
-13.8059998	6.97909975	0.876999974	200	0	0
-13.8170004	6.97909975	0.851999998	200	0	0
-13.8260002	6.97930002	0.948000014	200	0	0
-13.823	6.97930002	0.924000025	200	0	0
-13.8190002	6.97919989	0.875999987	200	0	0
-13.8240004	6.97940016	0.975000024	200	0	0
-13.8240004	6.97940016	0.925999999	200	0	0
-13.8129997	6.97940016	0.952000022	200	0	0
-13.8149996	6.97940016	1.00100005	200	0	0
-13.8260002	6.97950029	1.097	200	0	0
-13.8149996	6.97950029	1.04900002	200	0	0
-13.8260002	6.97950029	1.07200003	200	0	0
-13.8170004	6.97960043	1.09800005	200	0	0
-13.8199997	6.97960043	1.12199998	200	0	0
-13.8269997	6.97919989	0.825999975	200	0	0
-13.8280001	6.97909975	0.825999975	200	0	0
-13.8199997	6.97919989	0.851000011	200	0	0
-13.8310003	6.97979975	1.43599999	200	0	0
-13.8269997	6.97969961	1.36399996	200	0	0
-13.835	6.97979975	1.41199994	200	0	0
-13.8219995	6.97979975	1.48599994	200	0	0
-13.8330002	6.97989988	1.46300006	200	0	0
-13.8240004	6.97989988	1.41499996	200	0	0
-13.8290005	6.97989988	1.43900001	200	0	0
-13.8290005	6.97989988	1.48699999	200	0	0
-13.8269997	6.97989988	1.36600006	200	0	0
-13.8240004	6.97979975	1.29100001	200	0	0
-13.8269997	6.97989988	1.31799996	200	0	0
-13.8249998	6.97989988	1.34200001	200	0	0
-13.8280001	6.97969961	1.29100001	200	0	0
-13.8319998	6.97979975	1.31500006	200	0	0
-13.8149996	6.97979975	1.36500001	200	0	0
-13.8199997	6.97979975	1.34000003	200	0	0
-13.8260002	6.97969961	1.31500006	200	0	0
-13.8280001	6.97969961	1.34000003	200	0	0
-13.8269997	6.97969961	1.21800005	200	0	0
-13.8260002	6.97979975	1.24300003	200	0	0
-13.816	6.97989988	1.29400003	200	0	0
-13.8260002	6.97969961	1.24300003	200	0	0
-13.8240004	6.98000002	1.31799996	200	0	0
-13.8109999	6.97969961	1.171	200	0	0
-13.8299999	6.97969961	1.19400001	200	0	0
-13.8260002	6.97979975	1.19400001	200	0	0
-13.8219995	6.97979975	1.21899998	200	0	0
-13.8369999	6.97979975	1.67799997	200	0	0
-13.8219995	6.97979975	1.65499997	200	0	0
-13.8290005	6.97989988	1.70500004	200	0	0
-13.8310003	6.97989988	1.65699995	200	0	0
-13.8360004	6.97989988	1.68099999	200	0	0
-13.8339996	6.97989988	1.72899997	200	0	0
-13.8299999	6.98000002	1.80200005	200	0	0
-13.835	6.98000002	1.82599998	200	0	0
-13.8179998	6.98000002	1.85099995	200	0	0
-13.823	6.97989988	1.92299998	200	0	0
-13.8400002	6.97989988	1.97099996	200	0	0
-13.8389997	6.97989988	1.94599998	200	0	0
-13.8310003	6.98000002	1.97099996	200	0	0
-13.8330002	6.98000002	1.92200005	200	0	0
-13.8299999	6.98000002	1.94700003	200	0	0
-13.8400002	6.98000002	1.898	200	0	0
-13.8389997	6.98010015	1.92200005	200	0	0
-13.8260002	6.98010015	1.89900005	200	0	0
-13.8299999	6.98010015	1.85000002	200	0	0
-13.8330002	6.98010015	1.80200005	200	0	0
-13.8290005	6.98010015	1.82599998	200	0	0
-13.8249998	6.98000002	1.73000002	200	0	0
-13.8330002	6.98010015	1.77699995	200	0	0
-13.8290005	6.98020029	1.80400002	200	0	0
-13.8339996	6.98020029	1.82799995	200	0	0
-13.8330002	6.98020029	1.852	200	0	0
-13.8280001	6.98000002	1.68099999	200	0	0
-13.8310003	6.98000002	1.70500004	200	0	0
-13.842	6.98000002	1.65600002	200	0	0
-13.8299999	6.97989988	1.60800004	200	0	0
-13.8249998	6.97989988	1.55999994	200	0	0
-13.8339996	6.97989988	1.58399999	200	0	0
-13.8179998	6.97930002	0.875999987	200	0	0
-13.8219995	6.97950029	1	200	0	0
-13.8179998	6.97950029	0.952000022	200	0	0
-13.8240004	6.97950029	0.975000024	200	0	0
-13.8190002	6.97940016	0.878000021	200	0	0
-13.8219995	6.97950029	0.926999986	200	0	0
-13.8070002	6.97909975	0.754999995	200	0	0
-13.8249998	6.97919989	0.801999986	200	0	0
-13.8210001	6.97900105	0.753000021	200	0	0
-13.809	6.97930002	0.828000009	200	0	0
-13.8179998	6.97940016	0.853999972	200	0	0
-13.8199997	6.97930002	0.851000011	200	0	0
-13.816	6.97900105	0.730000019	200	0	0
-13.8240004	6.97919989	0.753000021	200	0	0
-13.816	6.97930002	0.802999973	200	0	0
-13.8190002	6.97940016	0.828999996	200	0	0
-13.8319998	6.97879982	0.67900002	200	0	0
-13.823	6.97889996	0.703999996	200	0	0
-13.8120003	6.97960043	1.04999995	200	0	0
-13.8290005	6.97960043	1.07200003	200	0	0
-13.8039999	6.97969961	1.04999995	200	0	0
-13.816	6.97969961	1.09800005	200	0	0
-13.8280001	6.97969961	1.07200003	200	0	0
-13.8199997	6.97969961	1.12199998	200	0	0
-13.8100004	6.97960043	0.952000022	200	0	0
-13.8039999	6.97950029	0.879999995	200	0	0
-13.823	6.97960043	0.926999986	200	0	0
-13.8170004	6.97960043	1	200	0	0
-13.8249998	6.97969961	0.975000024	200	0	0
-13.8280001	6.97969961	0.925999999	200	0	0
-13.8249998	6.97969961	0.950999975	200	0	0
-13.8199997	6.97960043	0.976000011	200	0	0
-13.8249998	6.97950029	0.852999985	200	0	0
-13.8249998	6.97950029	0.828999996	200	0	0
-13.8219995	6.97940016	0.805000007	200	0	0
-13.835	6.98000002	2.04299998	200	0	0
-13.8290005	6.98000002	2.01900005	200	0	0
-13.8369999	6.98010015	2.06699991	200	0	0
-13.8360004	6.98010015	2.01900005	200	0	0
-13.8339996	6.98010015	2.04299998	200	0	0
-13.8369999	6.98010015	1.97099996	200	0	0
-13.8360004	6.98010015	2.09100008	200	0	0
-13.8369999	6.97889996	2.37599993	200	0	0
-13.8459997	6.97960043	2.30599999	200	0	0
-13.835	6.97950029	2.32999992	200	0	0
-13.8389997	6.97849989	2.4000001	200	0	0
-13.8479996	6.97969961	2.28200006	200	0	0
-13.8360004	6.98000002	2.18799996	200	0	0
-13.8369999	6.98010015	2.16400003	200	0	0
-13.8430004	6.98010015	2.13899994	200	0	0
-13.835	6.98000002	2.16400003	200	0	0
-13.8389997	6.98000002	2.13899994	200	0	0
-13.8339996	6.97989988	2.25999999	200	0	0
-13.8269997	6.98000002	2.21199989	200	0	0
-13.8470001	6.97979975	2.2579999	200	0	0
-13.8339996	6.98010015	2.21199989	200	0	0
-13.8380003	6.98010015	2.18799996	200	0	0
-13.8380003	6.98020029	2.16599989	200	0	0
-13.8299999	6.98020029	2.14199996	200	0	0
-13.8369999	6.9803009	2.0940001	200	0	0
-13.835	6.9803009	2.04500008	200	0	0
-13.8339996	6.98020029	2.02099991	200	0	0
-13.8339996	6.9803009	2.06999993	200	0	0
-13.8330002	6.98020029	2.0940001	200	0	0
-13.8389997	6.98020029	2.04500008	200	0	0
-13.8330002	6.98020029	2.06999993	200	0	0
-13.8409996	6.97809982	2.42700005	200	0	0
-13.8430004	6.97840071	2.42499995	200	0	0
-13.842	6.97830009	2.42499995	200	0	0
-13.8369999	6.97819996	2.42499995	200	0	0
-13.8439999	6.97879982	2.4000001	200	0	0
-13.8430004	6.97900105	2.37599993	200	0	0
-13.8339996	6.97870016	2.4000001	200	0	0
-13.835	6.97860003	2.4000001	200	0	0
-13.8380003	6.97789955	2.42700005	200	0	0
-13.8389997	6.97799969	2.42700005	200	0	0
-13.8389997	6.97770023	2.42700005	200	0	0
-13.8369999	6.9776001	2.42700005	200	0	0
-13.835	6.97749996	2.42700005	200	0	0
-13.8389997	6.97739983	2.42700005	200	0	0
-13.8459997	6.97729969	2.42700005	200	0	0
-13.8339996	6.97960043	2.32999992	200	0	0
-13.8450003	6.97969961	2.30599999	200	0	0
-13.8409996	6.97979975	2.28200006	200	0	0
-13.8339996	6.9803009	1.73099995	200	0	0
-13.8269997	6.9803009	1.68299997	200	0	0
-13.8249998	6.98020029	1.65900004	200	0	0
-13.8170004	6.9803009	1.70799994	200	0	0
-13.8219995	6.98020029	1.73199999	200	0	0
-13.8249998	6.98010015	1.65699995	200	0	0
-13.823	6.98020029	1.68400002	200	0	0
-13.8260002	6.98020029	1.70799994	200	0	0
-13.8249998	6.98010015	1.73000002	200	0	0
-13.8299999	6.98010015	1.68099999	200	0	0
-13.8369999	6.98010015	1.70500004	200	0	0
-13.8360004	6.98000002	1.60800004	200	0	0
-13.8140001	6.98000002	1.58500004	200	0	0
-13.8290005	6.97989988	1.53600001	200	0	0
-13.8299999	6.98000002	1.53600001	200	0	0
-13.8459997	6.98000002	1.55900002	200	0	0
-13.835	6.98010015	1.94599998	200	0	0
-13.8260002	6.97809982	0.583999991	200	0	0
-13.816	6.97860003	0.606999993	200	0	0
-13.8129997	6.97909975	0.70599997	200	0	0
-13.8360004	6.97909975	0.726999998	200	0	0
-13.8219995	6.97749996	0.115999997	200	0	0
-13.8219995	6.97749996	0.0659999996	200	0	0
-13.8310003	6.97770023	0.114	200	0	0
-13.8179998	6.97780085	0.141000003	200	0	0
-13.8240004	6.97780085	0.115000002	200	0	0
-13.8280001	6.97770023	0.0900000036	200	0	0
-13.809	6.9776001	0.0930000022	200	0	0
-13.8240004	6.97770023	0.140000001	200	0	0
-13.8280001	6.97780085	0.214000002	200	0	0
-13.8339996	6.97780085	0.187999994	200	0	0
-13.8199997	6.97799969	0.215000004	200	0	0
-13.8319998	6.97799969	0.187999994	200	0	0
-13.8249998	6.97789955	0.188999996	200	0	0
-13.8219995	6.97789955	0.215000004	200	0	0
-13.8219995	6.97809982	0.263999999	200	0	0
-13.8260002	6.97809982	0.214000002	200	0	0
-13.823	6.97809982	0.238999993	200	0	0
-13.8170004	6.97799969	0.239999995	200	0	0
-13.8360004	6.97799969	0.261999995	200	0	0
-13.8260002	6.97840071	0.458000004	200	0	0
-13.8330002	6.97840071	0.432999998	200	0	0
-13.8310003	6.97840071	0.507000029	200	0	0
-13.8319998	6.97849989	0.432999998	200	0	0
-13.8330002	6.97849989	0.456999987	200	0	0
-13.823	6.97840071	0.48300001	200	0	0
-13.8280001	6.97830009	0.335000008	200	0	0
-13.8280001	6.97840071	0.358999997	200	0	0
-13.8310003	6.97840071	0.384000003	200	0	0
-13.835	6.97849989	0.555000007	200	0	0
-13.8299999	6.97819996	0.58099997	200	0	0
-13.8310003	6.97840071	0.555999994	200	0	0
-13.8210001	6.97849989	0.508000016	200	0	0
-13.835	6.97830009	0.555000007	200	0	0
-13.8149996	6.97830009	0.263000011	200	0	0
-13.8100004	6.97840071	0.312999994	200	0	0
-13.8319998	6.97840071	0.333999991	200	0	0
-13.8339996	6.97819996	0.25999999	200	0	0
-13.8210001	6.97830009	0.31099999	200	0	0
-13.8290005	6.97849989	0.358999997	200	0	0
-13.8330002	6.97849989	0.382999986	200	0	0
-13.8339996	6.97849989	0.333999991	200	0	0
-13.8179998	6.97870016	0.458999991	200	0	0
-13.8269997	6.97860003	0.433999985	200	0	0
-13.8290005	6.97870016	0.507000029	200	0	0
-13.8190002	6.97870016	0.483999997	200	0	0
-13.8170004	6.97860003	0.509000003	200	0	0
-13.8290005	6.97860003	0.458000004	200	0	0
-13.8400002	6.97849989	0.307999998	200	0	0
-13.835	6.97930002	0.703000009	200	0	0
-13.802	6.97889996	0.633000016	200	0	0
-13.8219995	6.97919989	0.728999972	200	0	0
-13.8400002	6.97919989	0.677999973	200	0	0
-13.8210001	6.97919989	0.704999983	200	0	0
-13.8290005	6.97849989	0.58099997	200	0	0
-13.8269997	6.97830009	0.58099997	200	0	0
-13.8149996	6.97809982	0.191	200	0	0
-13.8120003	6.97789955	0.142000005	200	0	0
-13.8199997	6.97789955	0.115999997	200	0	0
-13.8210001	6.9776001	0.0659999996	200	0	0
-13.8240004	6.97780085	0.0900000036	200	0	0
-13.8129997	6.97739983	0.0179999992	200	0	0
-13.8310003	6.97749996	0.0149999997	200	0	0
-13.823	6.97819996	0.187000006	200	0	0
-13.8360004	6.97819996	0.234999999	200	0	0
-13.8190002	6.97819996	0.213	200	0	0
-13.8290005	6.97830009	0.236000001	200	0	0
-13.8199997	6.97789955	0.0909999982	200	0	0
-13.8260002	6.97780085	0.0649999976	200	0	0
-13.8210001	6.97830009	0.211999997	200	0	0
-13.8269997	6.97840071	0.236000001	200	0	0
-13.8280001	6.97840071	0.261000007	200	0	0
-13.8140001	6.97809982	0.142000005	200	0	0
-13.8240004	6.97809982	0.115000002	200	0	0
-13.8260002	6.97799969	0.115000002	200	0	0
-13.8210001	6.97840071	0.211999997	200	0	0
-13.8179998	6.97830009	0.138999999	200	0	0
-13.8210001	6.97840071	0.187999994	200	0	0
-13.8170004	6.97819996	0.138999999	200	0	0
-13.8179998	6.97830009	0.187999994	200	0	0
-13.8380003	6.97860003	0.35800001	200	0	0
-13.8389997	6.97860003	0.381999999	200	0	0
-13.8330002	6.97860003	0.333999991	200	0	0
-13.8299999	6.97860003	0.310000002	200	0	0
-13.835	6.97849989	0.234999999	200	0	0
-13.8310003	6.97849989	0.25999999	200	0	0
-13.8269997	6.98000002	1.48699999	200	0	0
-13.8240004	6.98000002	1.41499996	200	0	0
-13.8330002	6.98000002	1.43900001	200	0	0
-13.823	6.98010015	1.58500004	200	0	0
-13.8249998	6.98010015	1.53600001	200	0	0
-13.8299999	6.98010015	1.55999994	200	0	0
-13.8299999	6.98010015	1.60800004	200	0	0
-13.8380003	6.98010015	1.46200001	200	0	0
-13.8179998	6.98010015	1.41499996	200	0	0
-13.8290005	6.98010015	1.43900001	200	0	0
-13.8179998	6.98000002	1.34300005	200	0	0
-13.8330002	6.98000002	1.36600006	200	0	0
-13.823	6.98010015	1.36699998	200	0	0
-13.8360004	6.98010015	1.48699999	200	0	0
-13.8330002	6.98010015	1.34099996	200	0	0
-13.8210001	6.98020029	1.46599996	200	0	0
-13.8280001	6.98020029	1.41700006	200	0	0
-13.8210001	6.98020029	1.44200003	200	0	0
-13.823	6.98020029	1.36899996	200	0	0
-13.8210001	6.98020029	1.49000001	200	0	0
-13.8249998	6.9803009	1.46599996	200	0	0
-13.8199997	6.9803009	1.41799998	200	0	0
-13.8260002	6.9803009	1.44099998	200	0	0
-13.8430004	6.98000002	1.29200006	200	0	0
-13.8319998	6.98020029	1.58599997	200	0	0
-13.8330002	6.98020029	1.53799999	200	0	0
-13.8219995	6.98020029	1.56299996	200	0	0
-13.8240004	6.98020029	1.61099994	200	0	0
-13.823	6.9803009	1.56299996	200	0	0
-13.8339996	6.9803009	1.53799999	200	0	0
-13.8260002	6.9803009	1.61099994	200	0	0
-13.8219995	6.9803009	1.58700001	200	0	0
-13.8190002	6.9803009	1.49000001	200	0	0
-13.8260002	6.9803009	1.65900004	200	0	0
-13.8280001	6.98039961	1.58700001	200	0	0
-13.8219995	6.98039961	1.61099994	200	0	0
-13.8319998	6.98039961	1.53799999	200	0	0
-13.8240004	6.98039961	1.56299996	200	0	0
-13.8260002	6.9803009	1.80400002	200	0	0
-13.8249998	6.9803009	1.77999997	200	0	0
-13.8290005	6.98020029	1.77999997	200	0	0
-13.8280001	6.98039961	1.73199999	200	0	0
-13.8260002	6.98039961	1.68299997	200	0	0
-13.823	6.98039961	1.70799994	200	0	0
-13.8269997	6.98039961	1.65900004	200	0	0
-13.8409996	6.97849989	2.44899988	200	0	0
-13.8330002	6.97860003	2.42499995	200	0	0
-13.8319998	6.97840071	2.44899988	200	0	0
-13.8470001	6.97729969	2.45099998	200	0	0
-13.8380003	6.97830009	2.44899988	200	0	0
-13.8280001	6.97849989	2.42499995	200	0	0
-13.8339996	6.97739983	2.45099998	200	0	0
-13.8299999	6.97819996	2.44899988	200	0	0
-13.842	6.97749996	2.45099998	200	0	0
-13.8400002	6.97809982	2.45099998	200	0	0
-13.8369999	6.9776001	2.45099998	200	0	0
-13.8360004	6.97799969	2.45099998	200	0	0
-13.8280001	6.97770023	2.45099998	200	0	0
-13.8280001	6.97789955	2.45099998	200	0	0
-13.8369999	6.97780085	2.45099998	200	0	0
-13.8380003	6.97900105	2.4000001	200	0	0
-13.842	6.97919989	2.37599993	200	0	0
-13.8319998	6.97889996	2.4000001	200	0	0
-13.8389997	6.97909975	2.37599993	200	0	0
-13.8470001	6.97889996	2.42400002	200	0	0
-13.8319998	6.97879982	2.42499995	200	0	0
-13.8339996	6.97870016	2.42499995	200	0	0
-13.8409996	6.97950029	2.37899995	200	0	0
-13.842	6.97930002	2.4000001	200	0	0
-13.8330002	6.97919989	2.4000001	200	0	0
-13.8369999	6.97940016	2.37899995	200	0	0
-13.8439999	6.97909975	2.4000001	200	0	0
-13.8330002	6.97930002	2.37599993	200	0	0
-13.8360004	6.97969961	2.32999992	200	0	0
-13.842	6.97979975	2.30599999	200	0	0
-13.8400002	6.97989988	2.30800009	200	0	0
-13.8400002	6.98000002	2.28399992	200	0	0
-13.8470001	6.98000002	2.25999999	200	0	0
-13.8380003	6.97989988	2.28399992	200	0	0
-13.8389997	6.98020029	2.21399999	200	0	0
-13.8330002	6.98020029	2.19000006	200	0	0
-13.8339996	6.97879982	2.44899988	200	0	0
-13.8360004	6.97900105	2.42499995	200	0	0
-13.8409996	6.97870016	2.44899988	200	0	0
-13.8369999	6.97860003	2.44899988	200	0	0
-13.8380003	6.97749996	2.49900007	200	0	0
-13.8330002	6.97739983	2.49900007	200	0	0
-13.8439999	6.97729969	2.49900007	200	0	0
-13.8389997	6.97789955	2.49900007	200	0	0
-13.8310003	6.97780085	2.49900007	200	0	0
-13.8339996	6.9776001	2.49900007	200	0	0
-13.8400002	6.97770023	2.49900007	200	0	0
-13.8380003	6.97940016	2.40300012	200	0	0
-13.8430004	6.97960043	2.37899995	200	0	0
-13.8400002	6.97979975	2.32999992	200	0	0
-13.8430004	6.98010015	2.25999999	200	0	0
-13.8380003	6.9803009	2.19000006	200	0	0
-13.8339996	6.9803009	2.14199996	200	0	0
-13.8339996	6.9803009	2.16599989	200	0	0
-13.8360004	6.98020029	1.90100002	200	0	0
-13.8269997	6.98020029	1.97300005	200	0	0
-13.835	6.98020029	1.92499995	200	0	0
-13.835	6.98020029	1.949	200	0	0
-13.8319998	6.9803009	2.02099991	200	0	0
-13.8339996	6.9803009	1.90100002	200	0	0
-13.8360004	6.9803009	1.97300005	200	0	0
-13.8339996	6.9803009	1.92499995	200	0	0
-13.8319998	6.9803009	1.949	200	0	0
-13.8330002	6.98039961	2.0940001	200	0	0
-13.8339996	6.98039961	2.04500008	200	0	0
-13.8339996	6.98039961	2.06999993	200	0	0
-13.8260002	6.98039961	2.02200007	200	0	0
-13.835	6.9803009	2.21399999	200	0	0
-13.8389997	6.97989988	2.33299994	200	0	0
-13.8360004	6.98000002	2.30800009	200	0	0
-13.842	6.98010015	2.28399992	200	0	0
-13.8380003	6.97799969	2.49900007	200	0	0
-13.8219995	6.97889996	2.44899988	200	0	0
-13.8380003	6.97909975	2.42400002	200	0	0
-13.8290005	6.98039961	1.97300005	200	0	0
-13.8299999	6.98039961	1.92499995	200	0	0
-13.8280001	6.98039961	1.949	200	0	0
-13.8199997	6.9803009	1.85300004	200	0	0
-13.8299999	6.98039961	1.90100002	200	0	0
-13.8339996	6.9803009	1.82799995	200	0	0
-13.8380003	6.98049974	2.06900001	200	0	0
-13.8310003	6.98049974	2.02099991	200	0	0
-13.8319998	6.98049974	2.04500008	200	0	0
-13.8280001	6.98039961	2.14199996	200	0	0
-13.8319998	6.98049974	2.0940001	200	0	0
-13.8319998	6.98039961	2.16599989	200	0	0
-13.8339996	6.98010015	2.30800009	200	0	0
-13.8319998	6.98020029	2.28699994	200	0	0
-13.835	6.98020029	2.26300001	200	0	0
-13.8290005	6.98039961	2.19000006	200	0	0
-13.8339996	6.9803009	2.26300001	200	0	0
-13.8380003	6.98039961	2.21399999	200	0	0
-13.8290005	6.97950029	2.40300012	200	0	0
-13.849	6.97969961	2.37800002	200	0	0
-13.8330002	6.98000002	2.33299994	200	0	0
-13.8339996	6.98049974	2.19000006	200	0	0
-13.8360004	6.98049974	2.14199996	200	0	0
-13.8339996	6.98049974	2.16599989	200	0	0
-13.8430004	6.98020029	2.31100011	200	0	0
-13.8409996	6.9803009	2.28699994	200	0	0
-13.8360004	6.98039961	2.26200008	200	0	0
-13.8389997	6.98049974	2.21399999	200	0	0
-13.8280001	6.97909975	2.44899988	200	0	0
-13.8459997	6.97930002	2.42400002	200	0	0
-13.8260002	6.97900105	2.44899988	200	0	0
-13.8400002	6.97919989	2.42400002	200	0	0
-13.8319998	6.97989988	2.38100004	200	0	0
-13.8409996	6.97960043	2.40300012	200	0	0
-13.8380003	6.97979975	2.37800002	200	0	0
-13.835	6.98010015	2.33299994	200	0	0
-13.8409996	6.97830009	2.49699998	200	0	0
-13.835	6.97809982	2.49900007	200	0	0
-13.8339996	6.97819996	2.49699998	200	0	0
-13.816	6.97979975	1.171	200	0	0
-13.8210001	6.97989988	1.245	200	0	0
-13.8310003	6.97989988	1.19599998	200	0	0
-13.8260002	6.97989988	1.22099996	200	0	0
-13.8240004	6.97989988	1.17200005	200	0	0
-13.8290005	6.98039961	1.82799995	200	0	0
-13.8330002	6.98039961	1.77999997	200	0	0
-13.8299999	6.98039961	1.80400002	200	0	0
-13.8319998	6.98039961	1.852	200	0	0
-13.8310003	6.98049974	1.92499995	200	0	0
-13.8260002	6.98049974	1.949	200	0	0
-13.8249998	6.98049974	1.97300005	200	0	0
-13.835	6.98049974	1.89999998	200	0	0
-13.8310003	6.98059988	1.90100002	200	0	0
-13.8290005	6.98059988	1.97300005	200	0	0
-13.8299999	6.98059988	1.92499995	200	0	0
-13.8280001	6.98059988	1.949	200	0	0
-13.8260002	6.98049974	1.85300004	200	0	0
-13.8280001	6.98049974	1.80400002	200	0	0
-13.8280001	6.98049974	1.82799995	200	0	0
-13.8260002	6.98049974	1.77999997	200	0	0
-13.8290005	6.98059988	1.82799995	200	0	0
-13.835	6.98059988	1.852	200	0	0
-13.8240004	6.98039961	1.49000001	200	0	0
-13.8339996	6.98059988	1.73099995	200	0	0
-13.8149996	6.98059988	1.68400002	200	0	0
-13.823	6.98049974	1.65900004	200	0	0
-13.8190002	6.98059988	1.70799994	200	0	0
-13.8310003	6.98049974	1.73199999	200	0	0
-13.823	6.98049974	1.68400002	200	0	0
-13.8339996	6.98049974	1.70700002	200	0	0
-13.8269997	6.98059988	1.61099994	200	0	0
-13.8269997	6.98049974	1.61099994	200	0	0
-13.8249998	6.98059988	1.65900004	200	0	0
-13.8319998	6.98059988	1.80400002	200	0	0
-13.823	6.98059988	1.77999997	200	0	0
-13.8269997	6.98070002	1.92499995	200	0	0
-13.8260002	6.98070002	1.90100002	200	0	0
-13.8400002	6.98059988	2.19000006	200	0	0
-13.8369999	6.98059988	2.14199996	200	0	0
-13.8400002	6.98059988	2.16599989	200	0	0
-13.823	6.97979975	1.097	200	0	0
-13.8100004	6.97989988	1.125	200	0	0
-13.8319998	6.98000002	1.171	200	0	0
-13.8179998	6.97979975	1.12199998	200	0	0
-13.8299999	6.98000002	1.245	200	0	0
-13.8140001	6.98000002	1.222	200	0	0
-13.8199997	6.97809982	0.0659999996	200	0	0
-13.8199997	6.97780085	0.0170000009	200	0	0
-13.8280001	6.97809982	0.0900000036	200	0	0
-13.8120003	6.9776001	0.0179999992	200	0	0
-13.8210001	6.97789955	0.0659999996	200	0	0
-13.8369999	6.97789955	0.0140000004	200	0	0
