9.57400036	6.77950001	-0.488000005	200	0	0
9.54899979	6.77939987	-0.425999999	200	0	0
9.56000042	6.77929974	-0.391000003	200	0	0
9.54599953	6.77929974	-0.405000001	200	0	0
9.5340004	6.77960014	-0.402999997	200	0	0
9.52799988	6.77960014	-0.419	200	0	0
9.54399967	6.77950001	-0.405999988	200	0	0
9.56900024	6.77950001	-0.432000011	200	0	0
9.53899956	6.77979994	-0.479000002	200	0	0
9.55500031	6.77979994	-0.465999991	200	0	0
9.55799961	6.7796998	-0.467000008	200	0	0
9.53999996	6.78000021	-0.479999989	200	0	0
9.55200005	6.77990007	-0.465000004	200	0	0
9.55300045	6.77990007	-0.48300001	200	0	0
9.53100014	6.77990007	-0.513000011	200	0	0
9.53600025	6.77979994	-0.514999986	200	0	0
9.54599953	6.78000021	-0.426999986	200	0	0
9.54399967	6.77979994	-0.425999999	200	0	0
9.53199959	6.77979994	-0.404000014	200	0	0
9.54899979	6.7796998	-0.409000009	200	0	0
9.51799965	6.78009987	-0.418000013	200	0	0
9.53600025	6.78030109	-0.477999985	200	0	0
9.53800011	6.78030109	-0.460999995	200	0	0
9.52200031	6.78009987	-0.474000007	200	0	0
9.52900028	6.7803998	-0.513000011	200	0	0
9.53199959	6.78049994	-0.476999998	200	0	0
9.52900028	6.78049994	-0.458000004	200	0	0
9.53899956	6.7803998	-0.425000012	200	0	0
9.52200031	6.78030109	-0.419	200	0	0
9.54100037	6.7803998	-0.460999995	200	0	0
9.52200031	6.78060007	-0.456	200	0	0
9.51299953	6.78049994	-0.416000009	200	0	0
9.52799988	6.7803998	-0.38499999	200	0	0
9.52099991	6.7803998	-0.400999993	200	0	0
9.50699997	6.78070021	-0.451000005	200	0	0
9.5010004	6.78060007	-0.504000008	200	0	0
9.52299976	6.78070021	-0.474000007	200	0	0
9.52600002	6.78090096	-0.456999987	200	0	0
9.52700043	6.78090096	-0.474999994	200	0	0
9.51500034	6.78060007	-0.416999996	200	0	0
9.48900032	6.78070021	-0.5	200	0	0
9.52099991	6.78080034	-0.474000007	200	0	0
9.51299953	6.78090096	-0.416999996	200	0	0
9.53100014	6.78080034	-0.404000014	200	0	0
9.52900028	6.78080034	-0.421000004	200	0	0
9.5170002	6.78070021	-0.398999989	200	0	0
9.51299953	6.78099966	-0.453000009	200	0	0
9.50599957	6.78119993	-0.451000005	200	0	0
9.51099968	6.78119993	-0.470999986	200	0	0
9.48999977	6.78099966	-0.5	200	0	0
9.51799965	6.78099966	-0.47299999	200	0	0
9.50199986	6.7810998	-0.412999988	200	0	0
9.48799992	6.78119993	-0.5	200	0	0
9.52000046	6.7814002	-0.455000013	200	0	0
9.50899982	6.7814002	-0.469999999	200	0	0
9.51900005	6.78119993	-0.418000013	200	0	0
9.49699974	6.78130007	-0.448000014	200	0	0
9.51000023	6.78130007	-0.469999999	200	0	0
9.51299953	6.7810998	-0.379999995	200	0	0
9.52000046	6.7814002	-0.419	200	0	0
9.50300026	6.78119993	-0.395000011	200	0	0
9.51299953	6.78130007	-0.416999996	200	0	0
9.51900005	6.78150082	-0.418000013	200	0	0
9.50599957	6.78150082	-0.469000012	200	0	0
9.48999977	6.78130007	-0.391000003	200	0	0
9.50500011	6.78169966	-0.451000005	200	0	0
9.50800037	6.78159952	-0.414999992	200	0	0
9.48700047	6.78150082	-0.391000003	200	0	0
9.5010004	6.78169966	-0.412999988	200	0	0
9.4989996	6.78179979	-0.467000008	200	0	0
9.5	6.78169966	-0.467000008	200	0	0
9.47999954	6.78169966	-0.370000005	200	0	0
9.50699997	6.78179979	-0.414999992	200	0	0
9.5	6.78169966	-0.395000011	200	0	0
9.4989996	6.78189993	-0.412	200	0	0
9.49699974	6.78189993	-0.465999991	200	0	0
9.50899982	6.78189993	-0.451999992	200	0	0
9.48400021	6.78200006	-0.407999992	200	0	0
9.49100018	6.78189993	-0.39199999	200	0	0
9.48499966	6.7821002	-0.444000006	200	0	0
9.49300003	6.7821002	-0.465000004	200	0	0
9.48799992	6.78200006	-0.463999987	200	0	0
9.48999977	6.78200006	-0.44600001	200	0	0
9.47999954	6.78200006	-0.388000011	200	0	0
9.45300007	6.7821002	-0.524999976	200	0	0
9.4659996	6.7821002	-0.493000001	200	0	0
9.48700047	6.7823	-0.463	200	0	0
9.48700047	6.7821002	-0.409000009	200	0	0
9.48200035	6.78219986	-0.460999995	200	0	0
9.48600006	6.78219986	-0.444999993	200	0	0
9.47700024	6.7823	-0.442000002	200	0	0
9.47500038	6.78219986	-0.386999995	200	0	0
9.49699974	6.7823	-0.393999994	200	0	0
9.46899986	6.78200006	-0.367000014	200	0	0
9.47999954	6.7821002	-0.388000011	200	0	0
9.48099995	6.78240013	-0.407000005	200	0	0
9.47700024	6.7823	-0.405999988	200	0	0
9.47799969	6.78240013	-0.442000002	200	0	0
9.47099972	6.78240013	-0.458000004	200	0	0
9.4659996	6.7823	-0.493000001	200	0	0
9.47500038	6.78240013	-0.386999995	200	0	0
9.47000027	6.78259993	-0.439999998	200	0	0
9.46899986	6.78259993	-0.458000004	200	0	0
9.48700047	6.78249979	-0.409000009	200	0	0
9.47200012	6.78249979	-0.458999991	200	0	0
9.47599983	6.78249979	-0.442000002	200	0	0
9.46800041	6.7823	-0.367000014	200	0	0
9.46100044	6.78240013	-0.36500001	200	0	0
9.48799992	6.78259993	-0.409000009	200	0	0
9.46199989	6.78270006	-0.456	200	0	0
9.47399998	6.78270006	-0.441000015	200	0	0
9.45699978	6.7821002	-0.545000017	200	0	0
9.46500015	6.78259993	-0.384000003	200	0	0
9.47599983	6.78259993	-0.368999988	200	0	0
9.47000027	6.78270006	-0.368000001	200	0	0
9.45699978	6.78289986	-0.379999995	200	0	0
9.48099995	6.78289986	-0.442000002	200	0	0
9.47399998	6.78289986	-0.402999997	200	0	0
9.45699978	6.78280067	-0.379999995	200	0	0
9.44299984	6.78270006	-0.377999991	200	0	0
9.47200012	6.78299999	-0.402999997	200	0	0
9.44799995	6.78299999	-0.449999988	200	0	0
9.45600033	6.78299999	-0.433999985	200	0	0
9.4460001	6.78289986	-0.449000001	200	0	0
9.44699955	6.78320026	-0.448000014	200	0	0
9.45699978	6.78320026	-0.432999998	200	0	0
9.45400047	6.78310013	-0.432000011	200	0	0
9.45699978	6.78310013	-0.451000005	200	0	0
9.46500015	6.78299999	-0.382999986	200	0	0
9.45800018	6.78310013	-0.397000015	200	0	0
9.44400024	6.78310013	-0.356999993	200	0	0
9.43000031	6.78299999	-0.354000002	200	0	0
9.45100021	6.78310013	-0.377000004	200	0	0
9.45600033	6.78320026	-0.395999998	200	0	0
9.46399975	6.78320026	-0.381000012	200	0	0
9.45400047	6.78320026	-0.360000014	200	0	0
9.45499992	6.7833004	-0.395999998	200	0	0
9.45199966	6.7833004	-0.449000001	200	0	0
9.43999958	6.78349972	-0.428000003	200	0	0
9.44699955	6.78340101	-0.393999994	200	0	0
9.44699955	6.78349972	-0.448000014	200	0	0
9.4460001	6.78340101	-0.430000007	200	0	0
9.45100021	6.78349972	-0.395000011	200	0	0
9.45499992	6.78340101	-0.377999991	200	0	0
9.45499992	6.78359985	-0.432000011	200	0	0
9.42399979	6.78349972	-0.476999998	200	0	0
9.45899963	6.78359985	-0.451999992	200	0	0
9.42700005	6.78349972	-0.370000005	200	0	0
9.43999958	6.78359985	-0.338	200	0	0
9.45600033	6.78359985	-0.397000015	200	0	0
9.42800045	6.78349972	-0.351999998	200	0	0
9.45800018	6.78359985	-0.379000008	200	0	0
9.45800018	6.78359985	-0.361000001	200	0	0
9.42500019	6.78369999	-0.423000008	200	0	0
9.44799995	6.78380013	-0.35800001	200	0	0
9.44900036	6.78380013	-0.375999987	200	0	0
9.4289999	6.78369999	-0.351999998	200	0	0
9.43799973	6.78369999	-0.372999996	200	0	0
9.45699978	6.78369999	-0.397000015	200	0	0
9.41899967	6.78359985	-0.476000011	200	0	0
9.4460001	6.78380013	-0.430000007	200	0	0
9.4460001	6.78369999	-0.448000014	200	0	0
9.43099976	6.78380013	-0.442999989	200	0	0
9.44400024	6.78390026	-0.391000003	200	0	0
9.42000008	6.78369999	-0.476000011	200	0	0
9.41699982	6.78390026	-0.419	200	0	0
9.4289999	6.78409958	-0.421000004	200	0	0
9.43500042	6.78409958	-0.441000015	200	0	0
9.41600037	6.78400087	-0.437000006	200	0	0
9.41699982	6.78390026	-0.36500001	200	0	0
9.41100025	6.78390026	-0.344999999	200	0	0
9.42800045	6.78409958	-0.365999997	200	0	0
9.4460001	6.78409958	-0.389999986	200	0	0
9.41800022	6.78419971	-0.416999996	200	0	0
9.43999958	6.78419971	-0.370000005	200	0	0
9.44299984	6.78419971	-0.388999999	200	0	0
9.43400002	6.78419971	-0.439999998	200	0	0
9.44099998	6.78429985	-0.370000005	200	0	0
9.41899967	6.78439999	-0.43599999	200	0	0
9.43099976	6.78439999	-0.421000004	200	0	0
9.44299984	6.78429985	-0.388999999	200	0	0
9.40799999	6.78419971	-0.467999995	200	0	0
9.42500019	6.78409958	-0.50999999	200	0	0
9.43900013	6.78439999	-0.370000005	200	0	0
9.42599964	6.78439999	-0.384000003	200	0	0
9.43299961	6.78450012	-0.437999994	200	0	0
9.43500042	6.78450012	-0.367000014	200	0	0
9.44099998	6.78450012	-0.351000011	200	0	0
9.43000031	6.78460026	-0.437000006	200	0	0
9.42700005	6.78460026	-0.419	200	0	0
9.41399956	6.78469992	-0.360000014	200	0	0
9.42599964	6.78469992	-0.345999986	200	0	0
9.42199993	6.78469992	-0.416999996	200	0	0
9.41100025	6.78499985	-0.412999988	200	0	0
9.41800022	6.78499985	-0.433999985	200	0	0
9.40499973	6.78489971	-0.412	200	0	0
9.41699982	6.78479958	-0.342999995	200	0	0
9.40699959	6.78499985	-0.35800001	200	0	0
9.42599964	6.78499985	-0.345999986	200	0	0
9.39599991	6.78489971	-0.337000012	200	0	0
9.40200043	6.78509998	-0.42899999	200	0	0
9.42599964	6.78509998	-0.363999993	200	0	0
9.42000008	6.78520012	-0.342999995	200	0	0
9.40799999	6.78520012	-0.375	200	0	0
9.42000008	6.78520012	-0.361000001	200	0	0
9.41600037	6.78520012	-0.412999988	200	0	0
9.4119997	6.78520012	-0.430000007	200	0	0
9.42599964	6.78530073	-0.345999986	200	0	0
9.40299988	6.78539991	-0.354999989	200	0	0
9.4090004	6.78550005	-0.411000013	200	0	0
9.38799953	6.78560019	-0.333000004	200	0	0
9.41300011	6.78560019	-0.35800001	200	0	0
9.40600014	6.78550005	-0.338	200	0	0
9.40999985	6.78550005	-0.375999987	200	0	0
9.40600014	6.78550005	-0.356000006	200	0	0
9.39799976	6.78539991	-0.335999995	200	0	0
9.39000034	6.78560019	-0.423000008	200	0	0
9.40299988	6.78579998	-0.354999989	200	0	0
9.38399982	6.78579998	-0.421000004	200	0	0
9.36699963	6.78560019	-0.451999992	200	0	0
9.4090004	6.78569984	-0.375	200	0	0
9.37300014	6.78550005	-0.453999996	200	0	0
9.4090004	6.78569984	-0.411000013	200	0	0
9.38599968	6.78590107	-0.331999987	200	0	0
9.38500023	6.78579998	-0.31400001	200	0	0
9.41499996	6.78590107	-0.358999997	200	0	0
9.38300037	6.78579998	-0.331	200	0	0
9.38899994	6.78599977	-0.405000001	200	0	0
9.39700031	6.78609991	-0.370999992	200	0	0
9.39500046	6.78609991	-0.335000008	200	0	0
9.39000034	6.78599977	-0.333000004	200	0	0
9.38899994	6.78609991	-0.405000001	200	0	0
9.38199997	6.78609991	-0.421000004	200	0	0
9.39400005	6.78620005	-0.352999985	200	0	0
9.37300014	6.78620005	-0.400000006	200	0	0
9.38500023	6.78630018	-0.331999987	200	0	0
9.39099979	6.78630018	-0.370000005	200	0	0
9.3920002	6.78630018	-0.351999998	200	0	0
9.37199974	6.78620005	-0.328000009	200	0	0
9.38399982	6.78620005	-0.367000014	200	0	0
9.37199974	6.78640032	-0.418000013	200	0	0
9.35900021	6.78609991	-0.449999988	200	0	0
9.38700008	6.78630018	-0.404000014	200	0	0
9.37699986	6.78620005	-0.419	200	0	0
9.38799953	6.78659964	-0.333000004	200	0	0
9.36600018	6.78650093	-0.361999989	200	0	0
9.38000011	6.78650093	-0.331	200	0	0
9.38799953	6.78640032	-0.368999988	200	0	0
9.36999989	6.78640032	-0.310000002	200	0	0
9.39500046	6.78640032	-0.352999985	200	0	0
9.3739996	6.78650093	-0.400999993	200	0	0
9.36499977	6.78640032	-0.398000002	200	0	0
9.36800003	6.78669977	-0.344999999	200	0	0
9.3760004	6.78669977	-0.36500001	200	0	0
9.3760004	6.78669977	-0.400999993	200	0	0
9.36499977	6.78669977	-0.414999992	200	0	0
9.35700035	6.78669977	-0.324000001	200	0	0
9.36800003	6.78690004	-0.400000006	200	0	0
9.34399986	6.78669977	-0.444999993	200	0	0
9.35299969	6.78679991	-0.412	200	0	0
9.36900043	6.78700018	-0.400000006	200	0	0
9.3739996	6.78700018	-0.34799999	200	0	0
9.38000011	6.78700018	-0.368000001	200	0	0
9.36299992	6.78690004	-0.344999999	200	0	0
9.36200047	6.78690004	-0.361999989	200	0	0
9.36499977	6.78700018	-0.310000002	200	0	0
9.35499954	6.78690004	-0.324999988	200	0	0
9.35200024	6.78700018	-0.324000001	200	0	0
9.37100029	6.78710032	-0.36500001	200	0	0
9.33600044	6.78700018	-0.444000006	200	0	0
9.34300041	6.78710032	-0.409999996	200	0	0
9.36400032	6.7871995	-0.326999992	200	0	0
9.375	6.7871995	-0.34799999	200	0	0
9.34899998	6.7871995	-0.35800001	200	0	0
9.3579998	6.78729963	-0.397000015	200	0	0
9.35499954	6.7871995	-0.395999998	200	0	0
9.35000038	6.7874999	-0.323000014	200	0	0
9.36800003	6.7874999	-0.363999993	200	0	0
9.36200047	6.7874999	-0.344000012	200	0	0
9.34500027	6.78739977	-0.32100001	200	0	0
9.34500027	6.78729963	-0.32100001	200	0	0
9.36100006	6.78729963	-0.307999998	200	0	0
9.36900043	6.78729963	-0.363999993	200	0	0
9.34000015	6.78739977	-0.409000009	200	0	0
9.34500027	6.78760004	-0.32100001	200	0	0
9.35200024	6.7874999	-0.395000011	200	0	0
9.35900021	6.78760004	-0.361000001	200	0	0
9.36400032	6.78760004	-0.344999999	200	0	0
9.3579998	6.78760004	-0.397000015	200	0	0
9.36499977	6.78760004	-0.416000009	200	0	0
9.32999992	6.78729963	-0.442000002	200	0	0
9.34899998	6.78760004	-0.305000007	200	0	0
9.36499977	6.78770018	-0.344999999	200	0	0
9.35200024	6.78770018	-0.358999997	200	0	0
9.34700012	6.78770018	-0.411000013	200	0	0
9.35099983	6.78770018	-0.393999994	200	0	0
9.33199978	6.78789997	-0.405999988	200	0	0
9.35200024	6.78789997	-0.395000011	200	0	0
9.34300041	6.78789997	-0.319999993	200	0	0
9.33699989	6.78780079	-0.319000006	200	0	0
9.35900021	6.78789997	-0.342999995	200	0	0
9.35099983	6.78770018	-0.305000007	200	0	0
9.34500027	6.78770018	-0.32100001	200	0	0
9.35700035	6.78800011	-0.395999998	200	0	0
9.36100006	6.78800011	-0.344000012	200	0	0
9.32400036	6.78800011	-0.404000014	200	0	0
9.34000015	6.78809977	-0.337000012	200	0	0
9.34399986	6.78809977	-0.32100001	200	0	0
9.32699966	6.78800011	-0.316000015	200	0	0
9.35000038	6.7881999	-0.35800001	200	0	0
9.32400036	6.7881999	-0.386000007	200	0	0
9.34599972	6.78809977	-0.411000013	200	0	0
9.34599972	6.78840065	-0.352999985	200	0	0
9.3409996	6.78840065	-0.316000015	200	0	0
9.33600044	6.78830004	-0.316000015	200	0	0
9.34399986	6.7881999	-0.338	200	0	0
9.34700012	6.7881999	-0.321999997	200	0	0
9.32499981	6.78809977	-0.296999991	200	0	0
9.31200027	6.78830004	-0.433999985	200	0	0
9.32800007	6.78849983	-0.34799999	200	0	0
9.31400013	6.78840065	-0.289999992	200	0	0
9.33300018	6.78849983	-0.31400001	200	0	0
9.31999969	6.78840065	-0.398999989	200	0	0
9.32900047	6.78840065	-0.384000003	200	0	0
9.33600044	6.78859997	-0.333999991	200	0	0
9.31499958	6.78859997	-0.344999999	200	0	0
9.32900047	6.78859997	-0.38499999	200	0	0
9.30900002	6.78880024	-0.379000008	200	0	0
9.32299995	6.7887001	-0.382999986	200	0	0
9.31400013	6.78880024	-0.344999999	200	0	0
9.30200005	6.7887001	-0.287999988	200	0	0
9.33399963	6.78880024	-0.333000004	200	0	0
9.31599998	6.7887001	-0.310000002	200	0	0
9.33300018	6.7887001	-0.333000004	200	0	0
9.32600021	6.78859997	-0.312999994	200	0	0
9.31999969	6.78890038	-0.381999999	200	0	0
9.31200027	6.78890038	-0.398000002	200	0	0
9.32800007	6.78900099	-0.296000004	200	0	0
9.32400036	6.78900099	-0.312000006	200	0	0
9.32600021	6.78900099	-0.331	200	0	0
9.31299973	6.78890038	-0.308999985	200	0	0
9.31700039	6.78890038	-0.328000009	200	0	0
9.3039999	6.78890038	-0.289000005	200	0	0
9.32999992	6.78880024	-0.261000007	200	0	0
9.31999969	6.78909969	-0.381999999	200	0	0
9.31099987	6.78919983	-0.397000015	200	0	0
9.30500031	6.78919983	-0.377000004	200	0	0
9.32499981	6.78919983	-0.330000013	200	0	0
9.32499981	6.78909969	-0.312999994	200	0	0
9.32199955	6.78929996	-0.294	200	0	0
9.32499981	6.78919983	-0.294999987	200	0	0
9.32699966	6.78890038	-0.25999999	200	0	0
9.30500031	6.7894001	-0.377000004	200	0	0
9.29800034	6.7894001	-0.340000004	200	0	0
9.29699993	6.78929996	-0.250999987	200	0	0
9.32499981	6.7894001	-0.294999987	200	0	0
9.30900002	6.78950024	-0.307999998	200	0	0
9.30599976	6.78950024	-0.324000001	200	0	0
9.3039999	6.7894001	-0.395000011	200	0	0
9.28800011	6.78950024	-0.389999986	200	0	0
9.31700039	6.78969955	-0.345999986	200	0	0
9.31900024	6.78960037	-0.328000009	200	0	0
9.30000019	6.78969955	-0.375999987	200	0	0
9.29599953	6.78960037	-0.39199999	200	0	0
9.31599998	6.78960037	-0.381000012	200	0	0
9.30300045	6.78960037	-0.305999994	200	0	0
9.30900002	6.78950024	-0.289999992	200	0	0
9.27799988	6.78979969	-0.386999995	200	0	0
9.30300045	6.78979969	-0.377000004	200	0	0
9.29899979	6.78979969	-0.340000004	200	0	0
9.31400013	6.78989983	-0.308999985	200	0	0
9.29599953	6.78979969	-0.32100001	200	0	0
9.29300022	6.78979969	-0.303000003	200	0	0
9.30799961	6.78969955	-0.254000008	200	0	0
9.29500008	6.78969955	-0.286000013	200	0	0
9.31099987	6.78999996	-0.344000012	200	0	0
9.28800011	6.78999996	-0.389999986	200	0	0
9.30000019	6.78999996	-0.375999987	200	0	0
9.30500031	6.78989983	-0.377000004	200	0	0
9.28100014	6.7901001	-0.388000011	200	0	0
9.30099964	6.78999996	-0.323000014	200	0	0
9.29399967	6.7901001	-0.32100001	200	0	0
9.28100014	6.78989983	-0.282000005	200	0	0
9.30900002	6.7901001	-0.307999998	200	0	0
9.30000019	6.78999996	-0.305000007	200	0	0
9.30300045	6.79020023	-0.324000001	200	0	0
9.32999992	6.79020023	-0.261000007	200	0	0
9.31000042	6.79030085	-0.342999995	200	0	0
9.31099987	6.79020023	-0.344000012	200	0	0
9.28100014	6.79020023	-0.388000011	200	0	0
9.30599976	6.79030085	-0.307000011	200	0	0
9.30099964	6.79030085	-0.323000014	200	0	0
9.29500008	6.79039955	-0.303000003	200	0	0
9.29399967	6.79049969	-0.303000003	200	0	0
9.29599953	6.79059982	-0.338999987	200	0	0
9.27400017	6.79059982	-0.368000001	200	0	0
9.29500008	6.79049969	-0.286000013	200	0	0
9.29300022	6.79059982	-0.284999996	200	0	0
9.28899956	6.79080009	-0.337000012	200	0	0
9.28600025	6.79059982	-0.247999996	200	0	0
9.28100014	6.79080009	-0.317000002	200	0	0
9.28800011	6.79069996	-0.284000009	200	0	0
9.30500031	6.79090071	-0.377000004	200	0	0
9.28899956	6.79090071	-0.337000012	200	0	0
9.27600002	6.79090071	-0.298000008	200	0	0
9.26500034	6.79090071	-0.27700001	200	0	0
9.28600025	6.79099989	-0.300999999	200	0	0
9.28299999	6.79099989	-0.317000002	200	0	0
9.2670002	6.79099989	-0.27700001	200	0	0
9.28100014	6.79110003	-0.298999995	200	0	0
9.28499985	6.79110003	-0.317999989	200	0	0
9.28600025	6.79090071	-0.247999996	200	0	0
9.28499985	6.79120016	-0.317999989	200	0	0
9.27000046	6.79110003	-0.365999997	200	0	0
9.27600002	6.79120016	-0.280000001	200	0	0
9.27799988	6.79129982	-0.333999991	200	0	0
9.27400017	6.79129982	-0.279000014	200	0	0
9.27400017	6.79129982	-0.296999991	200	0	0
9.25899982	6.79120016	-0.291999996	200	0	0
9.25599957	6.79120016	-0.361999989	200	0	0
9.26599979	6.79120016	-0.241999999	200	0	0
9.27700043	6.79139996	-0.333000004	200	0	0
9.27400017	6.79139996	-0.279000014	200	0	0
9.2670002	6.79139996	-0.294999987	200	0	0
9.27900028	6.79139996	-0.316000015	200	0	0
9.28999996	6.79150105	-0.301999986	200	0	0
9.26500034	6.79139996	-0.382999986	200	0	0
9.27299976	6.79150105	-0.31400001	200	0	0
9.27400017	6.79129982	-0.368000001	200	0	0
9.26000023	6.79150105	-0.381000012	200	0	0
9.25699997	6.79150105	-0.363000005	200	0	0
9.26799965	6.79150105	-0.277999997	200	0	0
9.26299953	6.79169989	-0.328999996	200	0	0
9.27700043	6.79169989	-0.314999998	200	0	0
9.27999973	6.79159975	-0.298999995	200	0	0
9.25899982	6.79169989	-0.291999996	200	0	0
9.26200008	6.79159975	-0.275999993	200	0	0
9.28600025	6.79190016	-0.335999995	200	0	0
9.2489996	6.79180002	-0.272000015	200	0	0
9.26200008	6.79180002	-0.293000013	200	0	0
9.27000046	6.79159975	-0.243000001	200	0	0
9.26099968	6.79169989	-0.275000006	200	0	0
9.27600002	6.79190016	-0.280000001	200	0	0
9.27200031	6.79190016	-0.31400001	200	0	0
9.26200008	6.79180002	-0.223000005	200	0	0
9.26900005	6.79200029	-0.312999994	200	0	0
9.28100014	6.79200029	-0.280999988	200	0	0
9.26900005	6.79200029	-0.296000004	200	0	0
9.26900005	6.79210043	-0.296000004	200	0	0
9.26000023	6.79210043	-0.328000009	200	0	0
9.27200031	6.79210043	-0.31400001	200	0	0
9.25399971	6.79190016	-0.221000001	200	0	0
9.25300026	6.79210043	-0.273000002	200	0	0
9.25599957	6.79200029	-0.238999993	200	0	0
9.27499962	6.79219961	-0.296999991	200	0	0
9.26000023	6.79219961	-0.363000005	200	0	0
9.25199986	6.79219961	-0.326000005	200	0	0
9.24699974	6.79210043	-0.358999997	200	0	0
9.2670002	6.79210043	-0.224000007	200	0	0
9.25599957	6.79210043	-0.238999993	200	0	0
9.26299953	6.79219961	-0.275999993	200	0	0
9.27000046	6.79229975	-0.296000004	200	0	0
9.27400017	6.79239988	-0.279000014	200	0	0
9.26599979	6.79229975	-0.241999999	200	0	0
9.26000023	6.79229975	-0.275000006	200	0	0
9.26200008	6.79239988	-0.31099999	200	0	0
9.24400043	6.79239988	-0.287999988	200	0	0
9.2489996	6.79239988	-0.324999988	200	0	0
9.23600006	6.79239988	-0.374000013	200	0	0
9.25399971	6.79239988	-0.238000005	200	0	0
9.25800037	6.79260015	-0.291999996	200	0	0
9.25599957	6.79260015	-0.308999985	200	0	0
9.24800014	6.79260015	-0.324000001	200	0	0
9.26900005	6.79250002	-0.296000004	200	0	0
9.25300026	6.79250002	-0.307999998	200	0	0
9.24600029	6.79260015	-0.270999998	200	0	0
9.25199986	6.79270029	-0.289999992	200	0	0
9.2510004	6.7928009	-0.326999992	200	0	0
9.22999954	6.79260015	-0.372000009	200	0	0
9.22200012	6.79260015	-0.351999998	200	0	0
9.25899982	6.79270029	-0.310000002	200	0	0
9.25599957	6.79270029	-0.326999992	200	0	0
9.23999977	6.79270029	-0.233999997	200	0	0
9.24300003	6.79270029	-0.270000011	200	0	0
9.23999977	6.7928009	-0.270999998	200	0	0
9.24800014	6.7928009	-0.291000009	200	0	0
9.26099968	6.79289961	-0.293000013	200	0	0
9.24600029	6.79289961	-0.270999998	200	0	0
9.23900032	6.79299974	-0.323000014	200	0	0
9.24800014	6.79299974	-0.273000002	200	0	0
9.24400043	6.79299974	-0.307000011	200	0	0
9.25	6.79299974	-0.291999996	200	0	0
9.23900032	6.79299974	-0.358999997	200	0	0
9.25	6.79299974	-0.238999993	200	0	0
9.24100018	6.79309988	-0.289000005	200	0	0
9.2489996	6.79309988	-0.273999989	200	0	0
9.24499989	6.79309988	-0.307999998	200	0	0
9.22999954	6.79309988	-0.32100001	200	0	0
9.24499989	6.79309988	-0.237000003	200	0	0
9.24699974	6.79320002	-0.326000005	200	0	0
9.24300003	6.79320002	-0.307000011	200	0	0
9.25300026	6.79320002	-0.291999996	200	0	0
9.25	6.79330015	-0.308999985	200	0	0
9.24400043	6.79330015	-0.272000015	200	0	0
9.2489996	6.79330015	-0.291000009	200	0	0
9.23200035	6.79320002	-0.268999994	200	0	0
9.21800041	6.79320002	-0.370000005	200	0	0
9.23400021	6.79330015	-0.356999993	200	0	0
9.2329998	6.79349995	-0.321999997	200	0	0
9.23099995	6.79349995	-0.30399999	200	0	0
9.24300003	6.79349995	-0.272000015	200	0	0
9.24100018	6.79340076	-0.324000001	200	0	0
9.23900032	6.79340076	-0.270999998	200	0	0
9.25500011	6.79340076	-0.31099999	200	0	0
9.25399971	6.79340076	-0.293000013	200	0	0
9.22900009	6.79340076	-0.356000006	200	0	0
9.22900009	6.79340076	-0.215000004	200	0	0
9.24300003	6.79360008	-0.289000005	200	0	0
9.23700047	6.79369974	-0.287999988	200	0	0
9.22700024	6.79369974	-0.301999986	200	0	0
9.24400043	6.79369974	-0.324999988	200	0	0
9.23400021	6.79369974	-0.233999997	200	0	0
9.2329998	6.79369974	-0.268999994	200	0	0
9.22999954	6.79379988	-0.268000007	200	0	0
9.24199963	6.79379988	-0.307000011	200	0	0
9.23900032	6.79379988	-0.287999988	200	0	0
9.23499966	6.79390001	-0.287	200	0	0
9.23999977	6.79390001	-0.305999994	200	0	0
9.2329998	6.79379988	-0.216000006	200	0	0
9.21700001	6.79379988	-0.229000002	200	0	0
9.2489996	6.79390001	-0.273999989	200	0	0
9.22599983	6.79390001	-0.231999993	200	0	0
9.22900009	6.79400063	-0.32100001	200	0	0
9.22099972	6.79400063	-0.264999986	200	0	0
9.23499966	6.79400063	-0.287	200	0	0
9.2159996	6.79400063	-0.210999995	200	0	0
9.22500038	6.79400063	-0.231999993	200	0	0
9.23600006	6.79409981	-0.287999988	200	0	0
9.22900009	6.79419994	-0.284000009	200	0	0
9.21199989	6.79419994	-0.261000007	200	0	0
9.23799992	6.79409981	-0.234999999	200	0	0
9.1960001	6.79440022	-0.342999995	200	0	0
9.21899986	6.79440022	-0.296999991	200	0	0
9.21700001	6.79430008	-0.280000001	200	0	0
9.21500015	6.79430008	-0.296999991	200	0	0
9.20800018	6.79430008	-0.312999994	200	0	0
9.22999954	6.79440022	-0.264999986	200	0	0
9.21899986	6.79440022	-0.279000014	200	0	0
9.20800018	6.79430008	-0.25999999	200	0	0
9.22900009	6.79440022	-0.211999997	200	0	0
9.22200012	6.79450035	-0.298000008	200	0	0
9.22700024	6.79450035	-0.282000005	200	0	0
9.20100021	6.79460001	-0.308999985	200	0	0
9.21800041	6.79440022	-0.225999996	200	0	0
9.2130003	6.79460001	-0.294999987	200	0	0
9.22799969	6.79460001	-0.264999986	200	0	0
9.22200012	6.79460001	-0.280000001	200	0	0
9.21000004	6.79450035	-0.259000003	200	0	0
9.1960001	6.79440022	-0.360000014	200	0	0
9.19799995	6.79450035	-0.342999995	200	0	0
9.20499992	6.79460001	-0.223000005	200	0	0
9.22200012	6.79460001	-0.209999993	200	0	0
9.21700001	6.79450035	-0.209000006	200	0	0
9.21500015	6.79450035	-0.225999996	200	0	0
9.20499992	6.79469967	-0.275000006	200	0	0
9.22200012	6.79469967	-0.263000011	200	0	0
9.20400047	6.79469967	-0.310000002	200	0	0
9.2130003	6.7947998	-0.294999987	200	0	0
9.22999954	6.7947998	-0.264999986	200	0	0
9.20300007	6.79469967	-0.222000003	200	0	0
9.20600033	6.7947998	-0.223000005	200	0	0
9.22999954	6.7947998	-0.213	200	0	0
9.2130003	6.79489994	-0.294999987	200	0	0
9.22299957	6.79489994	-0.316000015	200	0	0
9.2130003	6.79489994	-0.277999997	200	0	0
9.20100021	6.79489994	-0.221000001	200	0	0
9.21700001	6.79489994	-0.209000006	200	0	0
9.20800018	6.79500008	-0.257999986	200	0	0
9.20699978	6.79500008	-0.293000013	200	0	0
9.21199989	6.79500008	-0.27700001	200	0	0
9.20499992	6.79510021	-0.310000002	200	0	0
9.20400047	6.79510021	-0.275000006	200	0	0
9.21800041	6.79510021	-0.261999995	200	0	0
9.20699978	6.79510021	-0.293000013	200	0	0
9.19900036	6.79510021	-0.221000001	200	0	0
9.20600033	6.79500008	-0.206	200	0	0
9.20699978	6.79500008	-0.223000005	200	0	0
9.19699955	6.79530096	-0.307999998	200	0	0
9.2159996	6.79520035	-0.296000004	200	0	0
9.1960001	6.79520035	-0.307999998	200	0	0
9.19999981	6.79520035	-0.361999989	200	0	0
9.18999958	6.79520035	-0.340999991	200	0	0
9.21199989	6.79530096	-0.25999999	200	0	0
9.19699955	6.79530096	-0.273000002	200	0	0
9.19999981	6.79520035	-0.256000012	200	0	0
9.20199966	6.79530096	-0.291999996	200	0	0
9.20499992	6.79520035	-0.275000006	200	0	0
9.19900036	6.79520035	-0.221000001	200	0	0
9.20800018	6.79520035	-0.206	200	0	0
9.19299984	6.79539967	-0.289000005	200	0	0
9.20800018	6.79539967	-0.275999993	200	0	0
9.20199966	6.79539967	-0.256999999	200	0	0
9.20899963	6.7954998	-0.27700001	200	0	0
9.17199993	6.79539967	-0.335000008	200	0	0
9.19799995	6.79539967	-0.221000001	200	0	0
9.20199966	6.7954998	-0.222000003	200	0	0
9.19400024	6.79559994	-0.254000008	200	0	0
9.18900013	6.79559994	-0.287999988	200	0	0
9.20199966	6.79559994	-0.273999989	200	0	0
9.18200016	6.79570007	-0.303000003	200	0	0
9.19799995	6.79570007	-0.273000002	200	0	0
9.22000027	6.79570007	-0.226999998	200	0	0
9.19900036	6.79559994	-0.221000001	200	0	0
9.18400002	6.79570007	-0.250999987	200	0	0
9.18700027	6.79570007	-0.200000003	200	0	0
9.17500019	6.79580021	-0.284000009	200	0	0
9.19400024	6.79580021	-0.272000015	200	0	0
9.18500042	6.79580021	-0.30399999	200	0	0
9.18599987	6.79580021	-0.252000004	200	0	0
9.18200016	6.79580021	-0.197999999	200	0	0
9.17800045	6.79580021	-0.215000004	200	0	0
9.20800018	6.79590082	-0.223000005	200	0	0
9.19499969	6.79590082	-0.272000015	200	0	0
9.19400024	6.79590082	-0.307000011	200	0	0
9.16800022	6.79590082	-0.333999991	200	0	0
9.1960001	6.79599953	-0.254999995	200	0	0
9.18599987	6.79599953	-0.216999993	200	0	0
9.19900036	6.7961998	-0.273000002	200	0	0
9.1960001	6.79609966	-0.254999995	200	0	0
9.19900036	6.79609966	-0.273000002	200	0	0
9.19499969	6.79609966	-0.289999992	200	0	0
9.18999958	6.7961998	-0.252999991	200	0	0
9.18400002	6.79629993	-0.250999987	200	0	0
9.18700027	6.79629993	-0.270000011	200	0	0
9.18700027	6.79629993	-0.305000007	200	0	0
9.19099998	6.79629993	-0.289000005	200	0	0
9.18599987	6.79629993	-0.216999993	200	0	0
9.18599987	6.7961998	-0.216999993	200	0	0
9.17300034	6.79640007	-0.247999996	200	0	0
9.18999958	6.79650068	-0.270999998	200	0	0
9.18099976	6.79659986	-0.338	200	0	0
9.18599987	6.79659986	-0.268999994	200	0	0
9.18799973	6.79659986	-0.252000004	200	0	0
9.18900013	6.79659986	-0.201000005	200	0	0
9.19299984	6.79650068	-0.202000007	200	0	0
9.16800022	6.79659986	-0.211999997	200	0	0
9.17099953	6.7967	-0.247999996	200	0	0
9.17599964	6.79680014	-0.214000002	200	0	0
9.17099953	6.7968998	-0.247999996	200	0	0
9.17399979	6.7968998	-0.195999995	200	0	0
9.17300034	6.7968998	-0.213	200	0	0
9.18599987	6.79710007	-0.252000004	200	0	0
9.18400002	6.79710007	-0.268999994	200	0	0
9.16699982	6.79699993	-0.280999988	200	0	0
9.17800045	6.79699993	-0.25	200	0	0
9.17199993	6.79699993	-0.213	200	0	0
9.16300011	6.7968998	-0.175999999	200	0	0
9.18200016	6.79719973	-0.216000006	200	0	0
9.17300034	6.79719973	-0.264999986	200	0	0
9.17199993	6.79719973	-0.247999996	200	0	0
9.17199993	6.79710007	-0.213	200	0	0
9.1590004	6.79719973	-0.331	200	0	0
9.1590004	6.79719973	-0.192000002	200	0	0
9.14599991	6.79699993	-0.187999994	200	0	0
9.15400028	6.79729986	-0.27700001	200	0	0
9.15400028	6.79729986	-0.25999999	200	0	0
9.1590004	6.79729986	-0.244000003	200	0	0
9.1619997	6.7974	-0.261999995	200	0	0
9.1619997	6.79729986	-0.296999991	200	0	0
9.17500019	6.7974	-0.213	200	0	0
9.15600014	6.79750013	-0.275999993	200	0	0
9.17500019	6.79750013	-0.211999997	200	0	0
9.16800022	6.79750013	-0.192000002	200	0	0
9.12800026	6.79719973	-0.165000007	200	0	0
9.16899967	6.7974	-0.194000006	200	0	0
9.1590004	6.79729986	-0.173999995	200	0	0
9.15200043	6.79729986	-0.189999998	200	0	0
9.17099953	6.79760027	-0.210999995	200	0	0
9.15799999	6.79760027	-0.275999993	200	0	0
9.16399956	6.79760027	-0.261000007	200	0	0
9.17399979	6.79760027	-0.246000007	200	0	0
9.16699982	6.79770041	-0.243000001	200	0	0
9.16499996	6.79770041	-0.189999998	200	0	0
9.15699959	6.79760027	-0.172000006	200	0	0
9.17700005	6.79770041	-0.210999995	200	0	0
9.1619997	6.79760027	-0.191	200	0	0
9.17700005	6.79780102	-0.210999995	200	0	0
9.14599991	6.79770041	-0.289000005	200	0	0
9.15600014	6.79780102	-0.256999999	200	0	0
9.17199993	6.79780102	-0.244000003	200	0	0
9.16499996	6.79770041	-0.25999999	200	0	0
9.14999962	6.79780102	-0.167999998	200	0	0
9.17199993	6.79780102	-0.192000002	200	0	0
9.1619997	6.79799986	-0.27700001	200	0	0
9.16300011	6.79799986	-0.261000007	200	0	0
9.17300034	6.79789972	-0.244000003	200	0	0
9.15400028	6.79809999	-0.187999994	200	0	0
9.15100002	6.79799986	-0.170000002	200	0	0
9.16100025	6.79809999	-0.241999999	200	0	0
9.16899967	6.79799986	-0.193000004	200	0	0
9.16800022	6.79799986	-0.209999993	200	0	0
9.1619997	6.79809999	-0.25999999	200	0	0
9.15999985	6.79820013	-0.239999995	200	0	0
9.15100002	6.79820013	-0.254999995	200	0	0
9.15699959	6.79830027	-0.239999995	200	0	0
9.14799976	6.79830027	-0.254000008	200	0	0
9.14900017	6.79830027	-0.202000007	200	0	0
9.17300034	6.79830027	-0.192000002	200	0	0
9.15400028	6.79820013	-0.186000004	200	0	0
9.15100002	6.79840088	-0.238999993	200	0	0
9.13099957	6.79840088	-0.286000013	200	0	0
9.15400028	6.79840088	-0.257999986	200	0	0
9.14999962	6.79840088	-0.273999989	200	0	0
9.16699982	6.79840088	-0.192000002	200	0	0
9.15600014	6.79840088	-0.206	200	0	0
9.13799953	6.79840088	-0.165999994	200	0	0
9.13099957	6.79830027	-0.163000003	200	0	0
9.14299965	6.79849958	-0.185000002	200	0	0
9.16100025	6.79849958	-0.241999999	200	0	0
9.15200043	6.79849958	-0.204999998	200	0	0
9.14299965	6.79849958	-0.254000008	200	0	0
9.15400028	6.79859972	-0.204999998	200	0	0
9.15799999	6.79859972	-0.240999997	200	0	0
9.1420002	6.79849958	-0.166999996	200	0	0
9.14400005	6.79869986	-0.237000003	200	0	0
9.16300011	6.79869986	-0.208000004	200	0	0
9.12800026	6.79859972	-0.26699999	200	0	0
9.14999962	6.79879999	-0.171000004	200	0	0
9.12800026	6.79869986	-0.145999998	200	0	0
9.12699986	6.79869986	-0.163000003	200	0	0
9.13199997	6.79869986	-0.181999996	200	0	0
9.14700031	6.79890013	-0.256999999	200	0	0
9.14099979	6.79879999	-0.238000005	200	0	0
9.13199997	6.79890013	-0.234999999	200	0	0
9.15400028	6.79879999	-0.207000002	200	0	0
9.13500023	6.79900074	-0.166999996	200	0	0
9.16499996	6.79900074	-0.209999993	200	0	0
9.1590004	6.79900074	-0.191	200	0	0
9.12800026	6.79890013	-0.181999996	200	0	0
9.14000034	6.79890013	-0.202999994	200	0	0
9.13599968	6.79900074	-0.254000008	200	0	0
9.14599991	6.79900074	-0.238999993	200	0	0
9.13899994	6.79909992	-0.202999994	200	0	0
9.1420002	6.79909992	-0.186000004	200	0	0
9.14400005	6.79920006	-0.256000012	200	0	0
9.14500046	6.79920006	-0.238999993	200	0	0
9.12899971	6.79920006	-0.181999996	200	0	0
9.13399982	6.79929972	-0.252999991	200	0	0
9.15400028	6.79939985	-0.259000003	200	0	0
9.12699986	6.79929972	-0.181999996	200	0	0
9.12100029	6.79929972	-0.163000003	200	0	0
9.11200047	6.79920006	-0.159999996	200	0	0
9.13799953	6.79939985	-0.202000007	200	0	0
9.13599968	6.79939985	-0.184	200	0	0
9.13899994	6.79939985	-0.237000003	200	0	0
9.15400028	6.79949999	-0.241999999	200	0	0
9.14099979	6.79949999	-0.186000004	200	0	0
9.14599991	6.79949999	-0.204999998	200	0	0
9.13300037	6.79949999	-0.252999991	200	0	0
9.1079998	6.79939985	-0.158999994	200	0	0
9.12899971	6.79960012	-0.199000001	200	0	0
9.13199997	6.79960012	-0.252000004	200	0	0
9.12899971	6.79960012	-0.233999997	200	0	0
9.13700008	6.79960012	-0.184	200	0	0
9.11699963	6.79969978	-0.160999998	200	0	0
9.14299965	6.79969978	-0.186000004	200	0	0
9.13099957	6.79960012	-0.165000007	200	0	0
9.11499977	6.79949999	-0.160999998	200	0	0
9.14099979	6.79969978	-0.254999995	200	0	0
9.14099979	6.79979992	-0.202999994	200	0	0
9.14500046	6.79990005	-0.203999996	200	0	0
9.12300014	6.79990005	-0.145999998	200	0	0
9.11499977	6.79990005	-0.160999998	200	0	0
9.12800026	6.79990005	-0.181999996	200	0	0
9.11200047	6.79979992	-0.159999996	200	0	0
9.14700031	6.79979992	-0.187000006	200	0	0
9.11999989	6.79990005	-0.231000006	200	0	0
9.13099957	6.80000019	-0.236000001	200	0	0
9.11699963	6.80000019	-0.163000003	200	0	0
9.13599968	6.80010033	-0.238000005	200	0	0
9.13000011	6.80000019	-0.252999991	200	0	0
9.11600018	6.80010033	-0.163000003	200	0	0
9.13599968	6.80010033	-0.185000002	200	0	0
9.10999966	6.80019999	-0.266000003	200	0	0
9.12100029	6.80019999	-0.234999999	200	0	0
9.13199997	6.80019999	-0.254999995	200	0	0
9.12300014	6.80030107	-0.234999999	200	0	0
9.11299992	6.80019999	-0.163000003	200	0	0
9.12699986	6.80019999	-0.202000007	200	0	0
9.125	6.80019999	-0.184	200	0	0
9.12800026	6.80030107	-0.202000007	200	0	0
9.10499954	6.80030107	-0.160999998	200	0	0
9.11900043	6.80039978	-0.250999987	200	0	0
9.12899971	6.80039978	-0.237000003	200	0	0
9.10700035	6.80039978	-0.178000003	200	0	0
9.10900021	6.80049992	-0.162	200	0	0
9.1079998	6.80039978	-0.143999994	200	0	0
9.13000011	6.80049992	-0.237000003	200	0	0
9.13300037	6.80049992	-0.186000004	200	0	0
9.11699963	6.80049992	-0.197999999	200	0	0
9.14099979	6.80049992	-0.275000006	200	0	0
9.12699986	6.80060005	-0.186000004	200	0	0
9.11900043	6.80060005	-0.165999994	200	0	0
9.11499977	6.80049992	-0.145999998	200	0	0
9.12699986	6.80060005	-0.238000005	200	0	0
9.12300014	6.80070019	-0.236000001	200	0	0
9.12300014	6.80070019	-0.184	200	0	0
9.13099957	6.80080032	-0.238999993	200	0	0
9.11499977	6.80080032	-0.181999996	200	0	0
9.10400009	6.80080032	-0.162	200	0	0
9.10200024	6.80070019	-0.160999998	200	0	0
9.10200024	6.80070019	-0.143999994	200	0	0
9.09700012	6.80080032	-0.263000011	200	0	0
9.10700035	6.80080032	-0.248999998	200	0	0
9.11699963	6.80090094	-0.200000003	200	0	0
9.12300014	6.80090094	-0.184	200	0	0
9.11100006	6.80090094	-0.145999998	200	0	0
9.10299969	6.80090094	-0.160999998	200	0	0
9.09399986	6.80099964	-0.245000005	200	0	0
9.1079998	6.80099964	-0.231999993	200	0	0
9.10400009	6.80099964	-0.162	200	0	0
9.10200024	6.80109978	-0.248999998	200	0	0
9.11499977	6.80109978	-0.201000005	200	0	0
9.11600018	6.80109978	-0.184	200	0	0
9.10599995	6.80119991	-0.232999995	200	0	0
9.09399986	6.80109978	-0.159999996	200	0	0
9.10999966	6.80119991	-0.165000007	200	0	0
9.0909996	6.80119991	-0.142000005	200	0	0
9.08899975	6.80130005	-0.245000005	200	0	0
9.11600018	6.80130005	-0.236000001	200	0	0
9.11100006	6.80130005	-0.200000003	200	0	0
9.09300041	6.80130005	-0.159999996	200	0	0
9.10200024	6.80130005	-0.180000007	200	0	0
9.10700035	6.80140018	-0.197999999	200	0	0
9.10700035	6.80140018	-0.180999994	200	0	0
9.09399986	6.80140018	-0.229000002	200	0	0
9.09300041	6.8015008	-0.177000001	200	0	0
9.11699963	6.8015008	-0.166999996	200	0	0
9.10599995	6.8015995	-0.199000001	200	0	0
9.11400032	6.8015995	-0.254000008	200	0	0
9.10400009	6.8015995	-0.232999995	200	0	0
9.11200047	6.8015995	-0.184	200	0	0
9.10200024	6.80169964	-0.233999997	200	0	0
9.09500027	6.80169964	-0.145999998	200	0	0
9.09399986	6.80169964	-0.180000007	200	0	0
9.10599995	6.80169964	-0.201000005	200	0	0
9.07299995	6.80169964	-0.25999999	200	0	0
9.0880003	6.80169964	-0.246999994	200	0	0
9.11800003	6.80179977	-0.171000004	200	0	0
9.10599995	6.80179977	-0.202000007	200	0	0
9.09700012	6.80179977	-0.148000002	200	0	0
9.11299992	6.80189991	-0.206	200	0	0
9.08699989	6.80189991	-0.164000005	200	0	0
9.09799957	6.80200005	-0.236000001	200	0	0
9.09799957	6.80200005	-0.252999991	200	0	0
9.11400032	6.80200005	-0.172000006	200	0	0
9.10700035	6.80200005	-0.187000006	200	0	0
9.07600021	6.80210018	-0.246999994	200	0	0
9.09899998	6.80210018	-0.202000007	200	0	0
9.08899975	6.80210018	-0.232999995	200	0	0
9.08500004	6.80200005	-0.145999998	200	0	0
9.10499954	6.80210018	-0.186000004	200	0	0
9.09399986	6.80210018	-0.165999994	200	0	0
9.07400036	6.80219984	-0.246000007	200	0	0
9.08500004	6.80219984	-0.231999993	200	0	0
9.10099983	6.80219984	-0.202000007	200	0	0
9.09899998	6.80219984	-0.166999996	200	0	0
9.10000038	6.80219984	-0.185000002	200	0	0
9.10499954	6.80229998	-0.238000005	200	0	0
9.09799957	6.80229998	-0.184	200	0	0
9.07199955	6.80229998	-0.158999994	200	0	0
9.10200024	6.80240011	-0.202000007	200	0	0
9.0880003	6.80240011	-0.164000005	200	0	0
9.09599972	6.80240011	-0.182999998	200	0	0
9.0880003	6.80249977	-0.164000005	200	0	0
9.09500027	6.80249977	-0.234999999	200	0	0
9.08300018	6.80240011	-0.248999998	200	0	0
9.07999992	6.80249977	-0.195999995	200	0	0
9.07800007	6.80240011	-0.230000004	200	0	0
9.10099983	6.80259991	-0.202000007	200	0	0
9.0880003	6.80259991	-0.25	200	0	0
9.08300018	6.80259991	-0.231000006	200	0	0
9.08699989	6.80259991	-0.180999994	200	0	0
9.08100033	6.80259991	-0.162	200	0	0
9.08899975	6.80270004	-0.180999994	200	0	0
9.09500027	6.80270004	-0.165999994	200	0	0
9.07600021	6.80270004	-0.229000002	200	0	0
9.06499958	6.80270004	-0.140000001	200	0	0
9.08600044	6.80280113	-0.180999994	200	0	0
9.08899975	6.80289984	-0.268000007	200	0	0
9.06999969	6.80280113	-0.245000005	200	0	0
9.07699966	6.80289984	-0.178000003	200	0	0
9.07199955	6.80299997	-0.228	200	0	0
9.0909996	6.80299997	-0.199000001	200	0	0
9.06599998	6.80299997	-0.140000001	200	0	0
9.06000042	6.80299997	-0.156000003	200	0	0
9.06499958	6.80310011	-0.157000005	200	0	0
9.07699966	6.80320024	-0.158999994	200	0	0
9.07999992	6.80320024	-0.194000006	200	0	0
9.0880003	6.80320024	-0.179000005	200	0	0
9.07400036	6.80310011	-0.108000003	200	0	0
9.06200027	6.80320024	-0.136999995	200	0	0
9.06400013	6.80299997	-0.104999997	200	0	0
9.06999969	6.80330038	-0.225999996	200	0	0
9.08100033	6.80330038	-0.194999993	200	0	0
9.08199978	6.80330038	-0.159999996	200	0	0
9.07699966	6.80340099	-0.194999993	200	0	0
9.06599998	6.80320024	-0.104000002	200	0	0
9.07199955	6.80340099	-0.142000005	200	0	0
9.06200027	6.80340099	-0.224999994	200	0	0
9.06999969	6.80330038	-0.243000001	200	0	0
9.0710001	6.8034997	-0.175999999	200	0	0
9.09599972	6.8034997	-0.270000011	200	0	0
9.04800034	6.80340099	-0.238000005	200	0	0
9.06700039	6.8034997	-0.157000005	200	0	0
9.07900047	6.80359983	-0.160999998	200	0	0
9.07299995	6.80359983	-0.194000006	200	0	0
9.0539999	6.80359983	-0.239999995	200	0	0
9.07199955	6.80359983	-0.228	200	0	0
9.06599998	6.80369997	-0.157000005	200	0	0
9.06999969	6.80369997	-0.193000004	200	0	0
9.05799961	6.80380011	-0.240999997	200	0	0
9.06599998	6.80369997	-0.225999996	200	0	0
9.06099987	6.80380011	-0.138999999	200	0	0
9.04800034	6.80369997	-0.135000005	200	0	0
9.06400013	6.80380011	-0.157000005	200	0	0
9.07299995	6.80380011	-0.175999999	200	0	0
9.06000042	6.80390024	-0.189999998	200	0	0
9.04800034	6.80390024	-0.219999999	200	0	0
9.07299995	6.80390024	-0.175999999	200	0	0
9.05799961	6.80390024	-0.155000001	200	0	0
9.06099987	6.80390024	-0.138999999	200	0	0
9.08199978	6.80369997	-0.109999999	200	0	0
9.06299973	6.80400085	-0.191	200	0	0
9.07699966	6.80400085	-0.178000003	200	0	0
9.06400013	6.80400085	-0.156000003	200	0	0
9.06400013	6.80409956	-0.191	200	0	0
9.05500031	6.80409956	-0.136999995	200	0	0
9.0539999	6.80409956	-0.153999999	200	0	0
9.06599998	6.80409956	-0.173999995	200	0	0
9.04800034	6.80400085	-0.219999999	200	0	0
9.04100037	6.8041997	-0.217999995	200	0	0
9.06200027	6.8041997	-0.172999993	200	0	0
9.05099964	6.8041997	-0.136000007	200	0	0
9.05300045	6.8041997	-0.152999997	200	0	0
9.05200005	6.80499983	-0.152999997	200	0	0
9.03999996	6.80499983	-0.131999999	200	0	0
9.02799988	6.80509996	-0.163000003	200	0	0
9.04100037	6.80509996	-0.133000001	200	0	0
9.02299976	6.8057003	-0.0960000008	200	0	0
9.02700043	6.80560017	-0.0979999974	200	0	0
9.03899956	6.80579996	-0.151999995	200	0	0
9.03499985	6.80509996	-0.0790000036	200	0	0
9.04199982	6.8052001	-0.0810000002	200	0	0
9.0369997	6.80550003	-0.100000001	200	0	0
9.04599953	6.8057003	-0.136999995	200	0	0
9.03299999	6.8052001	-0.216000006	200	0	0
9.05200005	6.80560017	-0.138999999	200	0	0
9.03600025	6.80550003	-0.169	200	0	0
9.0340004	6.80550003	-0.150999993	200	0	0
9.0340004	6.80539989	-0.182999998	200	0	0
9.02900028	6.80539989	-0.165000007	200	0	0
9.02900028	6.8052001	-0.180000007	200	0	0
9.02099991	6.80590105	-0.216000006	200	0	0
9.02999973	6.80599976	-0.133000001	200	0	0
9.03600025	6.80599976	-0.150999993	200	0	0
9.02299976	6.80599976	-0.165000007	200	0	0
9.02299976	6.80599976	-0.0960000008	200	0	0
9.02200031	6.80590105	-0.0790000036	200	0	0
9.03299999	6.80659962	-0.131999999	200	0	0
9.0170002	6.80659962	-0.0939999968	200	0	0
9.02000046	6.80650091	-0.129999995	200	0	0
9.01500034	6.80650091	-0.0769999996	200	0	0
9.02799988	6.80650091	-0.0979999974	200	0	0
9.03100014	6.80620003	-0.151999995	200	0	0
9.01000023	6.8064003	-0.0930000022	200	0	0
9.02000046	6.80630016	-0.130999997	200	0	0
9.01099968	6.80630016	-0.0949999988	200	0	0
9.02200031	6.80609989	-0.131999999	200	0	0
9.02099991	6.80620003	-0.0979999974	200	0	0
9.02900028	6.80609989	-0.0829999968	200	0	0
9.01500034	6.80669975	-0.143999994	200	0	0
9.03199959	6.80669975	-0.131999999	200	0	0
9.03499985	6.80609989	-0.238000005	200	0	0
9.0170002	6.80609989	-0.216000006	200	0	0
9.02600002	6.80599976	-0.216999993	200	0	0
9.00199986	6.80659962	-0.209000006	200	0	0
9.01200008	6.80679989	-0.0920000002	200	0	0
9.01599979	6.80690002	-0.127000004	200	0	0
9.00899982	6.80669975	-0.0909999982	200	0	0
9.01900005	6.80679989	-0.144999996	200	0	0
9.02000046	6.80679989	-0.128999993	200	0	0
9.00399971	6.80729961	-0.0879999995	200	0	0
9.01099968	6.80729961	-0.141000003	200	0	0
9.00300026	6.8071003	-0.174999997	200	0	0
9.01099968	6.8071003	-0.0920000002	200	0	0
9.01000023	6.80700016	-0.0920000002	200	0	0
9.0170002	6.8071003	-0.144999996	200	0	0
9.01399994	6.8071003	-0.127000004	200	0	0
9.01500034	6.80700016	-0.127000004	200	0	0
9.00500011	6.80749989	-0.0719999969	200	0	0
9.00399971	6.80749989	-0.0879999995	200	0	0
9.0010004	6.80760002	-0.172999993	200	0	0
9.01299953	6.80760002	-0.125	200	0	0
9.00699997	6.80760002	-0.158000007	200	0	0
8.98900032	6.8071003	-0.222000003	200	0	0
9.01099968	6.80760002	-0.142000005	200	0	0
8.98099995	6.8071003	-0.202000007	200	0	0
9.02799988	6.80760002	-0.0949999988	200	0	0
9.02200031	6.80770016	-0.0599999987	200	0	0
9.00300026	6.80770016	-0.0710000023	200	0	0
9.01299953	6.80770016	-0.0909999982	200	0	0
9.01000023	6.80760002	-0.0560000017	200	0	0
9.00500011	6.80760002	-0.0719999969	200	0	0
9.01599979	6.80789995	-0.125	200	0	0
9.02000046	6.80780077	-0.0920000002	200	0	0
9.01299953	6.80770016	-0.158999994	200	0	0
9.00300026	6.80819988	-0.122000001	200	0	0
9.00199986	6.80809975	-0.137999997	200	0	0
9.00800037	6.80800009	-0.138999999	200	0	0
8.98400021	6.80809975	-0.0649999976	200	0	0
8.98900032	6.80809975	-0.0829999968	200	0	0
9.00899982	6.80800009	-0.123000003	200	0	0
8.99499989	6.80800009	-0.0680000037	200	0	0
9.00899982	6.80800009	-0.0879999995	200	0	0
8.99600029	6.80789995	-0.0850000009	200	0	0
9.0010004	6.80780077	-0.0689999983	200	0	0
8.99199963	6.80819988	-0.136000007	200	0	0
8.97599983	6.80770016	-0.200000003	200	0	0
8.99400043	6.80760002	-0.204999998	200	0	0
9.0010004	6.80830002	-0.122000001	200	0	0
9.01299953	6.80840111	-0.0909999982	200	0	0
8.98999977	6.80840111	-0.0680000037	200	0	0
9.01299953	6.80830002	-0.0909999982	200	0	0
8.99400043	6.80830002	-0.0689999983	200	0	0
8.98700047	6.80840111	-0.118000001	200	0	0
8.99499989	6.80840111	-0.206	200	0	0
8.98499966	6.80809975	-0.201000005	200	0	0
8.98799992	6.80849981	-0.119000003	200	0	0
8.9829998	6.80859995	-0.050999999	200	0	0
8.99800014	6.80859995	-0.0890000015	200	0	0
8.99499989	6.80859995	-0.0710000023	200	0	0
8.97700024	6.80849981	-0.0810000002	200	0	0
9.00399971	6.80880022	-0.0930000022	200	0	0
9.00300026	6.80870008	-0.0909999982	200	0	0
8.9989996	6.80870008	-0.123000003	200	0	0
8.98600006	6.80870008	-0.0689999983	200	0	0
8.97999954	6.80880022	-0.0520000011	200	0	0
9	6.80909967	-0.0930000022	200	0	0
8.99800014	6.80900097	-0.074000001	200	0	0
8.98900032	6.80909967	-0.141000003	200	0	0
8.98499966	6.80870008	-0.0520000011	200	0	0
8.97500038	6.80900097	-0.118000001	200	0	0
8.97999954	6.80900097	-0.0520000011	200	0	0
8.96199989	6.80890036	-0.063000001	200	0	0
8.94999981	6.80849981	-0.0399999991	200	0	0
8.99499989	6.80919981	-0.143000007	200	0	0
8.98900032	6.80919981	-0.123999998	200	0	0
9	6.80929995	-0.0759999976	200	0	0
9.00300026	6.80929995	-0.0939999968	200	0	0
8.97999954	6.80909967	-0.0529999994	200	0	0
8.97200012	6.80929995	-0.050999999	200	0	0
8.98400021	6.80929995	-0.140000001	200	0	0
8.97399998	6.80940008	-0.153999999	200	0	0
8.97500038	6.80950022	-0.0879999995	200	0	0
8.96899986	6.80950022	-0.0689999983	200	0	0
8.97599983	6.80950022	-0.0540000014	200	0	0
8.97299957	6.80940008	-0.0520000011	200	0	0
8.97999954	6.80950022	-0.123000003	200	0	0
8.9829998	6.80969954	-0.123999998	200	0	0
8.97200012	6.80969954	-0.0869999975	200	0	0
8.98499966	6.80960035	-0.125	200	0	0
8.97399998	6.80960035	-0.0710000023	200	0	0
8.99300003	6.80950022	-0.143999994	200	0	0
8.98999977	6.80960035	-0.0920000002	200	0	0
8.96100044	6.80969954	-0.0500000007	200	0	0
8.98099995	6.80960035	-0.174999997	200	0	0
8.97999954	6.80999994	-0.123999998	200	0	0
8.97900009	6.80979967	-0.157000005	200	0	0
8.96899986	6.80999994	-0.0869999975	200	0	0
8.97200012	6.80989981	-0.0529999994	200	0	0
8.99499989	6.80999994	-0.0769999996	200	0	0
8.98400021	6.80989981	-0.125	200	0	0
8.98600006	6.80979967	-0.142000005	200	0	0
8.97599983	6.80989981	-0.0719999969	200	0	0
8.98600006	6.80989981	-0.0909999982	200	0	0
8.98200035	6.80969954	-0.141000003	200	0	0
8.98099995	6.80979967	-0.123999998	200	0	0
8.98799992	6.80979967	-0.075000003	200	0	0
8.97900009	6.80979967	-0.0890000015	200	0	0
8.98099995	6.80999994	-0.141000003	200	0	0
8.95800018	6.81010008	-0.050999999	200	0	0
8.98099995	6.81020021	-0.0920000002	200	0	0
8.98799992	6.81020021	-0.0769999996	200	0	0
8.96199989	6.80999994	-0.050999999	200	0	0
8.98499966	6.81010008	-0.0759999976	200	0	0
8.98099995	6.81020021	-0.126000002	200	0	0
8.95499992	6.81020021	-0.050999999	200	0	0
8.97200012	6.81020021	-0.157000005	200	0	0
8.94400024	6.80999994	-0.215000004	200	0	0
8.97200012	6.81030083	-0.157000005	200	0	0
8.96000004	6.81040001	-0.0520000011	200	0	0
8.97099972	6.81040001	-0.0719999969	200	0	0
8.98200035	6.81040001	-0.0920000002	200	0	0
8.97500038	6.81030083	-0.0560000017	200	0	0
8.97999954	6.81030083	-0.075000003	200	0	0
8.97700024	6.81030083	-0.0909999982	200	0	0
8.96800041	6.8105998	-0.155000001	200	0	0
8.98200035	6.81049967	-0.074000001	200	0	0
8.97200012	6.8105998	-0.138999999	200	0	0
8.98400021	6.81049967	-0.0909999982	200	0	0
8.97599983	6.81049967	-0.123000003	200	0	0
8.96800041	6.8105998	-0.0700000003	200	0	0
8.96800041	6.81049967	-0.0529999994	200	0	0
8.93700027	6.8105998	-0.0439999998	200	0	0
8.93799973	6.81040001	-0.215000004	200	0	0
8.96899986	6.81080008	-0.0710000023	200	0	0
8.97900009	6.81090069	-0.0900000036	200	0	0
8.96000004	6.81090069	-0.119000003	200	0	0
8.97599983	6.81090069	-0.140000001	200	0	0
8.9630003	6.81080008	-0.0860000029	200	0	0
8.95499992	6.81080008	-0.116999999	200	0	0
8.96100044	6.81069994	-0.136000007	200	0	0
8.95400047	6.81090069	-0.0489999987	200	0	0
8.94799995	6.81090069	-0.0649999976	200	0	0
8.97700024	6.81080008	-0.0560000017	200	0	0
8.9630003	6.81099987	-0.0860000029	200	0	0
8.96700001	6.81099987	-0.0700000003	200	0	0
8.95400047	6.81110001	-0.116999999	200	0	0
8.97299957	6.81099987	-0.138999999	200	0	0
8.97299957	6.81110001	-0.0890000015	200	0	0
