-11.0410004	6.89280081	0.0160000008	200	0	0
-11.0500002	6.89359999	-0.0670000017	200	0	0
-11.0629997	6.89359999	-0.0500000007	200	0	0
-11.0480003	6.89349985	-0.0670000017	200	0	0
-11.0380001	6.89349985	-0.0439999998	200	0	0
-11.0340004	6.89349985	-0.023	200	0	0
-11.026	6.89389992	-0.143000007	200	0	0
-11.0299997	6.89409971	0.0179999992	200	0	0
-11.0430002	6.89389992	-0.126000002	200	0	0
-11.0360003	6.89429998	-0.064000003	200	0	0
-11.052	6.89400101	-0.0879999995	200	0	0
-11.0500002	6.89409971	-0.0270000007	200	0	0
-11.0139999	6.89389992	-0.0390000008	200	0	0
-11.0270004	6.89389992	-0.0209999997	200	0	0
-11.0550003	6.89380026	-0.0890000015	200	0	0
-11.0349998	6.89389992	-0.064000003	200	0	0
-11.0489998	6.89380026	-0.0469999984	200	0	0
-11.0620003	6.89450026	-0.0900000036	200	0	0
-11.0310001	6.89440012	-0.0430000015	200	0	0
-11.0579996	6.89429998	-0.0890000015	200	0	0
-11.0120001	6.89440012	-0.0179999992	200	0	0
-11.0319996	6.89440012	0.0179999992	200	0	0
-11.0480003	6.89460039	-0.0869999975	200	0	0
-11.0240002	6.89469957	-0.122000001	200	0	0
-11.0459995	6.89469957	-0.147	200	0	0
-11.0179996	6.89460039	-0.120999999	200	0	0
-11.0220003	6.89460039	-0.142000005	200	0	0
-11.04	6.89499998	0.0160000008	200	0	0
-11.0290003	6.89489985	-0.0219999999	200	0	0
-11.0439997	6.89469957	-0.0460000001	200	0	0
-11.0509996	6.89469957	-0.0879999995	200	0	0
-11.0410004	6.89510012	-0.0250000004	200	0	0
-11.033	6.89510012	-0.0430000015	200	0	0
-11.0550003	6.89499998	-0.0280000009	200	0	0
-11.0579996	6.89499998	-0.0489999987	200	0	0
-11.0649996	6.89489985	-0.0710000023	200	0	0
-11.0270004	6.89489985	-0.0419999994	200	0	0
-11.026	6.89489985	-0.0820000023	200	0	0
-11.0640001	6.89479971	-0.0700000003	200	0	0
-11.04	6.89539957	-0.0850000009	200	0	0
-11.0489998	6.89530087	-0.0469999984	200	0	0
-11.0389996	6.89530087	-0.0850000009	200	0	0
-11.033	6.89510012	0.0179999992	200	0	0
-11.0450001	6.89530087	-0.0260000005	200	0	0
-11.0229998	6.89539957	-0.122000001	200	0	0
-11.0299997	6.89590073	0.0179999992	200	0	0
-11.0410004	6.89569998	-0.0250000004	200	0	0
-11.0430002	6.89559984	0.0149999997	200	0	0
-11.0719995	6.89539957	0.0289999992	200	0	0
-11.0369997	6.89539957	0.0170000009	200	0	0
-11.0530005	6.89620018	-0.0289999992	200	0	0
-11.0439997	6.89629984	-0.0489999987	200	0	0
-11.0349998	6.89610004	-0.0250000004	200	0	0
-11.0539999	6.89629984	-0.0719999969	200	0	0
-11.0509996	6.89610004	-0.0489999987	200	0	0
-11.0419998	6.89610004	-0.0670000017	200	0	0
-11.0450001	6.89620018	0.0130000003	200	0	0
-11.0489998	6.89669991	-0.0320000015	200	0	0
-11.0279999	6.89680004	0.0130000003	200	0	0
-11.0550003	6.89639997	-0.0520000011	200	0	0
-11.0369997	6.89650106	-0.0480000004	200	0	0
-11.033	6.89659977	-0.0280000009	200	0	0
-11.0419998	6.89669991	0.00999999978	200	0	0
-11.0509996	6.89650106	-0.0299999993	200	0	0
-11.0550003	6.89659977	0.00700000022	200	0	0
-11.0319996	6.89639997	-0.0260000005	200	0	0
-11.0209999	6.89650106	0.0170000009	200	0	0
-11.0480003	6.89639997	0.0109999999	200	0	0
-11.0349998	6.89629984	0.0329999998	200	0	0
-11.0389996	6.89629984	0.0120000001	200	0	0
-11.066	6.89650106	-0.075000003	200	0	0
-11.0609999	6.89659977	-0.0549999997	200	0	0
-11.0489998	6.89639997	-0.0710000023	200	0	0
-11.0670004	6.89710045	-0.0700000003	200	0	0
-11.0710001	6.89710045	0.00999999978	200	0	0
-11.059	6.89710045	-0.0280000009	200	0	0
-11.0509996	6.89700031	0.0120000001	200	0	0
-11.04	6.89700031	-0.0659999996	200	0	0
-11.0299997	6.89700031	-0.0430000015	200	0	0
-11.0369997	6.89700031	-0.0250000004	200	0	0
-11.0579996	6.89690018	0.0109999999	200	0	0
-11.0509996	6.89690018	-0.0689999983	200	0	0
-11.066	6.89680004	-0.0759999976	200	0	0
-11.033	6.89690018	-0.0240000002	200	0	0
-11.0609999	6.89659977	-0.075000003	200	0	0
-11.0509996	6.89680004	-0.0320000015	200	0	0
-11.0450001	6.89719963	-0.0260000005	200	0	0
-11.0530005	6.89719963	-0.0689999983	200	0	0
-11.0559998	6.89719963	-0.0489999987	200	0	0
-11.0430002	6.89750004	0.0130000003	200	0	0
-11.04	6.89750004	-0.0680000037	200	0	0
-11.0290003	6.89750004	-0.0250000004	200	0	0
-11.0579996	6.8973999	0.0109999999	200	0	0
-11.0439997	6.89729977	-0.0869999975	200	0	0
-11.0349998	6.89729977	0.0160000008	200	0	0
-11.0620003	6.8973999	-0.0500000007	200	0	0
-11.0559998	6.89729977	-0.0700000003	200	0	0
-11.0360003	6.89719963	0.0160000008	200	0	0
-11.059	6.89729977	-0.0500000007	200	0	0
-11.0559998	6.89729977	-0.0289999992	200	0	0
-11.0299997	6.89770031	0.0359999985	200	0	0
-11.0439997	6.89770031	0.0130000003	200	0	0
-11.0469999	6.89760017	0.0140000004	200	0	0
-11.0349998	6.89799976	-0.0480000004	200	0	0
-11.0419998	6.89789963	-0.0289999992	200	0	0
-11.052	6.89789963	-0.0520000011	200	0	0
-11.0509996	6.89770031	-0.0500000007	200	0	0
-11.0670004	6.89789963	0.00499999989	200	0	0
-11.0360003	6.89799976	-0.0280000009	200	0	0
-11.0509996	6.8980999	0.00800000038	200	0	0
-11.0319996	6.8980999	-0.0489999987	200	0	0
-11.04	6.8980999	-0.0299999993	200	0	0
-11.0380001	6.89840078	0.00700000022	200	0	0
-11.0270004	6.89799976	0.0350000001	200	0	0
-11.0410004	6.89840078	-0.0540000014	200	0	0
-11.0369997	6.89840078	-0.074000001	200	0	0
-11.0439997	6.89890003	-0.0529999994	200	0	0
-11.0719995	6.8987999	-0.0590000004	200	0	0
-11.0340004	6.8987999	-0.0700000003	200	0	0
-11.0579996	6.89849997	-0.0780000016	200	0	0
-11.0089998	6.89900064	0.0160000008	200	0	0
-11.0360003	6.89900064	-0.0299999993	200	0	0
-11.0360003	6.89900064	-0.0710000023	200	0	0
-11.0319996	6.89900064	-0.0500000007	200	0	0
-11.0419998	6.89909983	-0.0520000011	200	0	0
-11.052	6.89909983	-0.0340000018	200	0	0
-11.0310001	6.89909983	0.0109999999	200	0	0
-11.0430002	6.89969969	0.00700000022	200	0	0
-11.0109997	6.89949989	0.0140000004	200	0	0
-11.0240002	6.89969969	-0.0289999992	200	0	0
-11.0620003	6.89969969	-0.0780000016	200	0	0
-11.0450001	6.89969969	-0.0540000014	200	0	0
-11.0360003	6.89949989	-0.0320000015	200	0	0
-11.0509996	6.89989996	0.00499999989	200	0	0
-11.04	6.89989996	-0.0329999998	200	0	0
-11.0410004	6.9000001	-0.0309999995	200	0	0
-11.0539999	6.9000001	0.00700000022	200	0	0
-11.033	6.9000001	0.0320000015	200	0	0
-11.0450001	6.90059996	0.0270000007	200	0	0
-11.0389996	6.90059996	0.00800000038	200	0	0
-11.007	6.90039968	0.0160000008	200	0	0
-11.0310001	6.90020037	-0.0480000004	200	0	0
-11.052	6.90010023	-0.0329999998	200	0	0
-11.0559998	6.90010023	0.0270000007	200	0	0
-11.0550003	6.90010023	0.00700000022	200	0	0
-11.0279999	6.90070009	-0.0289999992	200	0	0
-11.026	6.90070009	0.0320000015	200	0	0
-11.04	6.90129995	-0.0320000015	200	0	0
-11.04	6.90099955	-0.0520000011	200	0	0
-11.0459995	6.90119982	-0.0350000001	200	0	0
-11.0319996	6.90109968	-0.0299999993	200	0	0
-11.0509996	6.90129995	0.00600000005	200	0	0
-11.0380001	6.90099955	-0.0309999995	200	0	0
-11.0249996	6.90099955	0.0120000001	200	0	0
-11.026	6.90099955	0.0320000015	200	0	0
-11.0340004	6.90049982	-0.131999999	200	0	0
-11.0500002	6.9015007	-0.0560000017	200	0	0
-11.0410004	6.90210009	0.0270000007	200	0	0
-11.04	6.90219975	-0.0729999989	200	0	0
-11.0649996	6.90210009	0.00200000009	200	0	0
-11.0380001	6.90210009	-0.0529999994	200	0	0
-11.066	6.90189981	0.00100000005	200	0	0
-11.0139999	6.90159988	-0.0879999995	200	0	0
-11.0270004	6.90180016	0.00999999978	200	0	0
-11.0179996	6.90189981	-0.0480000004	200	0	0
-11.04	6.90180016	-0.0729999989	200	0	0
-11.0559998	6.90189981	-0.0370000005	200	0	0
-11.0310001	6.90170002	-0.0719999969	200	0	0
-11.0559998	6.90159988	-0.0769999996	200	0	0
-11.0419998	6.90180016	-0.0540000014	200	0	0
-11.0419998	6.90180016	-0.0329999998	200	0	0
-11.0159998	6.90119982	-0.128999993	200	0	0
-11.0509996	6.90250015	-0.0579999983	200	0	0
-11.0430002	6.90229988	-0.0340000018	200	0	0
-11.0200005	6.90219975	-0.0890000015	200	0	0
-11.0480003	6.90229988	-0.075000003	200	0	0
-11.0489998	6.90280104	-0.0370000005	200	0	0
-11.0550003	6.90250015	-0.0379999988	200	0	0
-11.052	6.90280104	0.00300000003	200	0	0
-11.0270004	6.90280104	0.0289999992	200	0	0
-11.0530005	6.90270042	0.00300000003	200	0	0
-11.0389996	6.90250015	0.00600000005	200	0	0
-11.0469999	6.90299988	-0.0359999985	200	0	0
-11.0360003	6.90299988	-0.0540000014	200	0	0
-11.0139999	6.90289974	-0.0689999983	200	0	0
-11.04	6.90289974	-0.0549999997	200	0	0
-11.0620003	6.90280104	-0.0599999987	200	0	0
-11.0489998	6.90219975	-0.136999995	200	0	0
-11.0299997	6.90270042	-0.0529999994	200	0	0
-11.0579996	6.9034009	-0.0970000029	200	0	0
-11.0600004	6.90310001	0.00100000005	200	0	0
-11.0200005	6.90320015	-0.0299999993	200	0	0
-11.0459995	6.90310001	0.0250000004	200	0	0
-11.0220003	6.9034009	0.0329999998	200	0	0
-11.0279999	6.90330029	0.0309999995	200	0	0
-11.033	6.90359974	-0.0280000009	200	0	0
-11.0290003	6.9034009	0.0109999999	200	0	0
-11.0450001	6.90320015	0.0250000004	200	0	0
-11.0209999	6.90320015	0.00999999978	200	0	0
-11.0109997	6.90359974	0.0170000009	200	0	0
-11.0430002	6.90359974	0.0299999993	200	0	0
-11.0340004	6.90380001	0.0120000001	200	0	0
-11.026	6.90409994	-0.0649999976	200	0	0
-11.0310001	6.90409994	-0.0860000029	200	0	0
-11.0539999	6.90400076	0.0299999993	200	0	0
-11.0579996	6.90400076	0.00899999961	200	0	0
-11.0270004	6.90390015	0.0160000008	200	0	0
-11.0450001	6.90380001	0.0299999993	200	0	0
-11.0299997	6.90429974	0.0149999997	200	0	0
-11.033	6.90429974	0.0350000001	200	0	0
-11.0089998	6.9046998	0.0439999998	200	0	0
-11.0389996	6.90460014	-0.0250000004	200	0	0
-11.0129995	6.90500021	-0.0350000001	200	0	0
-11.0319996	6.90479994	-0.061999999	200	0	0
-11.052	6.90460014	-0.0480000004	200	0	0
-11.0150003	6.90460014	-0.0599999987	200	0	0
-11.0179996	6.90490007	0.0419999994	200	0	0
-11.0229998	6.90490007	0.0209999997	200	0	0
-11.0419998	6.90500021	-0.0219999999	200	0	0
-11.0469999	6.90500021	0.0170000009	200	0	0
-11.0439997	6.9052	0.0579999983	200	0	0
-11.0480003	6.90560007	0.0390000008	200	0	0
-11.0150003	6.90560007	0.0270000007	200	0	0
-11.0240002	6.90530109	-0.0179999992	200	0	0
-11.0270004	6.90530109	0.0419999994	200	0	0
-11.0389996	6.90549994	-0.0410000011	200	0	0
-11.0489998	6.9053998	-0.0240000002	200	0	0
-11.026	6.90530109	-0.0390000008	200	0	0
-11.026	6.90549994	-0.119000003	200	0	0
-11.0439997	6.90590096	-0.0199999996	200	0	0
-11.0459995	6.90590096	-0.0410000011	200	0	0
-11.0200005	6.90570021	-0.0549999997	200	0	0
-11.0410004	6.90560007	-0.0199999996	200	0	0
-11.0410004	6.90580034	0.0410000011	200	0	0
-11.0539999	6.90590096	-0.063000001	200	0	0
-11.0240002	6.90590096	0.0450000018	200	0	0
-11.0279999	6.90590096	0.0240000002	200	0	0
-11.0530005	6.9060998	0.0179999992	200	0	0
-11.026	6.90599966	0.0240000002	200	0	0
-11.0120001	6.90599966	0.0469999984	200	0	0
-11.0369997	6.90619993	-0.0189999994	200	0	0
-11.0550003	6.90630007	0.0179999992	200	0	0
-11.0129995	6.90619993	0.0469999984	200	0	0
-11.0059996	6.9060998	-0.0520000011	200	0	0
-11.0240002	6.9060998	-0.116999999	200	0	0
-11.0299997	6.9060998	-0.0780000016	200	0	0
-11.0609999	6.90679979	0.0170000009	200	0	0
-11.0150003	6.90669966	0.0270000007	200	0	0
-11.0150003	6.90659952	-0.074000001	200	0	0
-11.0469999	6.90679979	-0.0209999997	200	0	0
-11.0430002	6.90659952	-0.0399999991	200	0	0
-11.0389996	6.90669966	0.0410000011	200	0	0
-11.0450001	6.90700006	-0.0199999996	200	0	0
-11.0459995	6.90689993	0.0199999996	200	0	0
-11.0509996	6.9071002	0.0189999994	200	0	0
-11.0489998	6.90700006	-0.0410000011	200	0	0
-11.0229998	6.9071002	0.0450000018	200	0	0
-11.0030003	6.9071002	-0.050999999	200	0	0
-11.0249996	6.90759993	0.0450000018	200	0	0
-11.0279999	6.90719986	-0.057	200	0	0
-11.04	6.90759993	0.0209999997	200	0	0
-11.0570002	6.90719986	-0.0430000015	200	0	0
-11.0469999	6.9073	0.0199999996	200	0	0
-11.0500002	6.9073	-0.0820000023	200	0	0
-11.0559998	6.90719986	-0.0839999989	200	0	0
-11.0480003	6.90780067	-0.0209999997	200	0	0
-11.0380001	6.90780067	0.0419999994	200	0	0
-11.0410004	6.90799999	-0.0189999994	200	0	0
-11.0229998	6.90799999	0.0250000004	200	0	0
-11.0469999	6.90799999	-0.0410000011	200	0	0
-11.0080004	6.90799999	-0.0520000011	200	0	0
-11.0459995	6.90849972	0.0219999999	200	0	0
-11.0279999	6.90820026	-0.0170000009	200	0	0
-11.0719995	6.9083004	0.0560000017	200	0	0
-11.0360003	6.9083004	0.0240000002	200	0	0
-11.0389996	6.90820026	0.0209999997	200	0	0
-11.0170002	6.90820026	0.0460000001	200	0	0
-11.0509996	6.9083004	-0.0399999991	200	0	0
-11.0279999	6.90869999	-0.0130000003	200	0	0
-11.0340004	6.90869999	-0.0340000018	200	0	0
-11.0570002	6.90859985	0.0189999994	200	0	0
-11.066	6.90849972	-0.0439999998	200	0	0
-11.0129995	6.90869999	0.050999999	200	0	0
-11.033	6.90869999	0.0260000005	200	0	0
-11.033	6.90890026	0.0469999984	200	0	0
-11.0120001	6.90880013	0.050999999	200	0	0
-11.0530005	6.90909958	-0.057	200	0	0
-11.0530005	6.90929985	0.0460000001	200	0	0
-11.033	6.90929985	0.0299999993	200	0	0
-11.0430002	6.90909958	0.0460000001	200	0	0
-11.033	6.90909958	0.0280000009	200	0	0
-11.0190001	6.90900087	0.0309999995	200	0	0
-11.0209999	6.90919971	-0.0700000003	200	0	0
-11.0150003	6.90919971	-0.0489999987	200	0	0
-11.0559998	6.90929985	-0.0560000017	200	0	0
-11.052	6.90979958	0.0250000004	200	0	0
-11.0340004	6.90979958	0.0500000007	200	0	0
-11.0500002	6.90999985	-0.0140000004	200	0	0
-11.033	6.90999985	-0.0309999995	200	0	0
-11.0719995	6.90989971	-0.0799999982	200	0	0
-11.0389996	6.90979958	-0.0120000001	200	0	0
-11.0579996	6.90979958	-0.0359999985	200	0	0
-11.0600004	6.90969992	-0.0170000009	200	0	0
-11.0270004	6.90969992	-0.0500000007	200	0	0
-11.0430002	6.90969992	-0.0329999998	200	0	0
-11.0620003	6.91009998	0.023	200	0	0
-11.0690002	6.90999985	0.0219999999	200	0	0
-11.0419998	6.90999985	0.0480000004	200	0	0
-11.052	6.91009998	-0.0549999997	200	0	0
-11.007	6.90999985	-0.0450000018	200	0	0
-11.0579996	6.91009998	-0.0370000005	200	0	0
-11.0480003	6.91069984	0.0500000007	200	0	0
-11.0170002	6.91039991	-0.0270000007	200	0	0
-11.0150003	6.91039991	0.0340000018	200	0	0
-11.0349998	6.91099977	-0.00800000038	200	0	0
-11.0319996	6.91099977	0.0329999998	200	0	0
-11.0530005	6.91099977	0.0489999987	200	0	0
-11.0170002	6.91099977	-0.0240000002	200	0	0
-11.0559998	6.91109991	-0.0329999998	200	0	0
-11.0340004	6.91159964	0.0529999994	200	0	0
-11.0629997	6.91109991	-0.0140000004	200	0	0
-11.0459995	6.91140032	0.0500000007	200	0	0
-11.0270004	6.91109991	0.0540000014	200	0	0
-11.0249996	6.91099977	0.075000003	200	0	0
-11.059	6.91109991	-0.0540000014	200	0	0
-11.0249996	6.91190004	-0.00400000019	200	0	0
-11.04	6.91169977	-0.0500000007	200	0	0
-11.0010004	6.91159964	-0.0410000011	200	0	0
-11.0179996	6.91190004	0.0379999988	200	0	0
-11.0380001	6.91200018	-0.0460000001	200	0	0
-11.04	6.91239977	0.0370000005	200	0	0
-11.0299997	6.91229963	0.0590000004	200	0	0
-11.0179996	6.91210032	0.0599999987	200	0	0
-11.0179996	6.91200018	0.0399999991	200	0	0
-11.0450001	6.91200018	0.0540000014	200	0	0
-11.04	6.91270018	0.0379999988	200	0	0
-11.0380001	6.91280079	-0.00100000005	200	0	0
-11.0439997	6.91260004	-0.00300000003	200	0	0
-11.0120001	6.91289997	-0.0359999985	200	0	0
-11.033	6.91289997	-0.0209999997	200	0	0
-11.0459995	6.91330004	0.057	200	0	0
-11.0080004	6.91300011	-0.0149999997	200	0	0
-11.0430002	6.9131999	0.0579999983	200	0	0
-11.0270004	6.91300011	0.00100000005	200	0	0
-11.0380001	6.91309977	0.0390000008	200	0	0
-11.033	6.91300011	0.0599999987	200	0	0
-11.0220003	6.91289997	0.00200000009	200	0	0
-11.0530005	6.91300011	0.0359999985	200	0	0
-11.0249996	6.91289997	0.061999999	200	0	0
-11.0439997	6.91359997	0.0579999983	200	0	0
-11.0319996	6.91349983	0	200	0	0
-11.0299997	6.91330004	0.101000004	200	0	0
-11.0550003	6.91349983	0.0549999997	200	0	0
-11.0150003	6.91340065	0.0439999998	200	0	0
-11.0649996	6.9137001	-0.0280000009	200	0	0
-11.04	6.9137001	-0.00200000009	200	0	0
-11.0500002	6.91349983	-0.0240000002	200	0	0
-11.0620003	6.9137001	-0.0469999984	200	0	0
-11.0109997	6.91380024	-0.0160000008	200	0	0
-11.033	6.91409969	0.00200000009	200	0	0
-11.0570002	6.91400099	-0.00400000019	200	0	0
-11.0469999	6.91409969	0.0390000008	200	0	0
-11.0430002	6.91409969	0.0599999987	200	0	0
-11.0109997	6.9144001	0.0670000017	200	0	0
-11.0719995	6.91429996	0.074000001	200	0	0
-11.0229998	6.91429996	0.064000003	200	0	0
-11.0480003	6.91429996	0.0390000008	200	0	0
-11.0179996	6.91429996	-0.0350000001	200	0	0
-11.0290003	6.91429996	-0.0179999992	200	0	0
-11.0139999	6.91409969	-0.0340000018	200	0	0
-11.0410004	6.91460037	0.00200000009	200	0	0
-11.04	6.91469955	0.00200000009	200	0	0
-11.0319996	6.91469955	-0.0160000008	200	0	0
-11.0430002	6.91499996	-0.0390000008	200	0	0
-11.0430002	6.91499996	0.0419999994	200	0	0
-11.0430002	6.91479969	0.061999999	200	0	0
-11.0410004	6.91499996	-0.0179999992	200	0	0
-11.0170002	6.91469955	0.0670000017	200	0	0
-11.0489998	6.91479969	0.0399999991	200	0	0
-11.0419998	6.91489983	0.00100000005	200	0	0
-11.0609999	6.91460037	0.0579999983	200	0	0
-11.0220003	6.91479969	-0.0340000018	200	0	0
-11.0360003	6.91479969	0.00300000003	200	0	0
-11.0430002	6.91460037	0.0419999994	200	0	0
-11.033	6.91499996	0.064000003	200	0	0
-11.0380001	6.9151001	0.00200000009	200	0	0
-11.0380001	6.91530085	0.063000001	200	0	0
-11.0469999	6.9151001	0.0410000011	200	0	0
-11.0190001	6.9151001	0.0670000017	200	0	0
-11.0220003	6.91539955	-0.0340000018	200	0	0
-11.052	6.91559982	0.0399999991	200	0	0
-11.0489998	6.91539955	-0.0610000007	200	0	0
-11.0109997	6.91559982	-0.0520000011	200	0	0
-11.0240002	6.91569996	-0.0149999997	200	0	0
-11.0389996	6.91569996	0.0419999994	200	0	0
-11.0209999	6.91559982	0.0670000017	200	0	0
-11.0229998	6.91549969	0.0659999996	200	0	0
-11.04	6.91610003	0.00200000009	200	0	0
-11.0459995	6.91599989	0.0410000011	200	0	0
-11.0609999	6.91599989	-0.00300000003	200	0	0
-11.0380001	6.91620016	0.063000001	200	0	0
-11.0170002	6.91610003	0.0879999995	200	0	0
-11.0299997	6.91610003	0.064000003	200	0	0
-11.0439997	6.91599989	0.0610000007	200	0	0
-11.0799999	6.91610003	-0.0680000037	200	0	0
-11.033	6.91620016	0.00300000003	200	0	0
-11.0489998	6.91620016	-0.0410000011	200	0	0
-11.0469999	6.91610003	-0.0399999991	200	0	0
-11.0310001	6.91650105	0.00400000019	200	0	0
-11.0270004	6.91650105	0.0649999976	200	0	0
-11.0419998	6.91650105	0.0419999994	200	0	0
-11.0310001	6.91639996	0.0439999998	200	0	0
-11.0500002	6.91629982	0	200	0	0
-11.0600004	6.91629982	0.0379999988	200	0	0
-11.0129995	6.91659975	-0.0529999994	200	0	0
-11.0389996	6.91659975	-0.0379999988	200	0	0
-11.0109997	6.91659975	-0.0120000001	200	0	0
-11.0349998	6.91659975	0.063000001	200	0	0
-11.0410004	6.91659975	0.0419999994	200	0	0
-11.0080004	6.91669989	0.0700000003	200	0	0
-11.0480003	6.91700029	-0.0140000004	200	0	0
-11.0570002	6.91690016	0.0419999994	200	0	0
-11.0369997	6.91690016	-0.0140000004	200	0	0
-11.0209999	6.91669989	0.0460000001	200	0	0
-11.0319996	6.91680002	0.00800000038	200	0	0
-11.0430002	6.91669989	-0.0189999994	200	0	0
-11.0389996	6.91669989	0.00200000009	200	0	0
-11.0419998	6.91690016	0.0659999996	200	0	0
-11.0389996	6.91710043	0.0500000007	200	0	0
-11.04	6.91710043	0.0700000003	200	0	0
-11.0480003	6.91700029	0.0460000001	200	0	0
-11.059	6.91710043	0.00499999989	200	0	0
-11.0380001	6.91729975	-0.00800000038	200	0	0
-11.0480003	6.91729975	0.0700000003	200	0	0
-11.0290003	6.91750002	0.0140000004	200	0	0
-11.0080004	6.91750002	-0.00100000005	200	0	0
-11.0539999	6.91750002	0.0489999987	200	0	0
-11.0229998	6.91760015	0.0759999976	200	0	0
-11.0249996	6.91789961	0.0149999997	200	0	0
-11.0340004	6.91760015	-0.0879999995	200	0	0
-11.0310001	6.91789961	-0.00700000022	200	0	0
-11.0469999	6.91789961	-0.0309999995	200	0	0
-11.052	6.91760015	0.0489999987	200	0	0
-11.0369997	6.9178009	0.0120000001	200	0	0
-11.0200005	6.91760015	-0.0439999998	200	0	0
-11.0360003	6.91760015	0.0130000003	200	0	0
-11.0539999	6.91799974	0.0689999983	200	0	0
-11.0459995	6.91809988	0.0500000007	200	0	0
-11.0209999	6.91809988	0.0160000008	200	0	0
-11.0129995	6.91820002	0.0780000016	200	0	0
-11.0150003	6.91820002	0.057	200	0	0
-11.0430002	6.91840076	0.050999999	200	0	0
-11.04	6.91830015	-0.0289999992	200	0	0
-11.0229998	6.91830015	0.0560000017	200	0	0
-11.0439997	6.91830015	-0.00999999978	200	0	0
-11.0310001	6.91830015	0.0130000003	200	0	0
-11.0270004	6.91840076	0.075000003	200	0	0
-11.0270004	6.91830015	0.075000003	200	0	0
-11.0500002	6.91849995	0.0489999987	200	0	0
-11.0010004	6.91849995	0.0799999982	200	0	0
-11.0279999	6.91879988	-0.0270000007	200	0	0
-11.0179996	6.91879988	0.0160000008	200	0	0
-11.0550003	6.91860008	0.0480000004	200	0	0
-11.0290003	6.91860008	-0.0270000007	200	0	0
-11.0459995	6.91860008	-0.00999999978	200	0	0
-11.0550003	6.91860008	0.00800000038	200	0	0
-11.0139999	6.91849995	0.0170000009	200	0	0
-11.059	6.91879988	0.0680000037	200	0	0
-11.0480003	6.91900063	0.0700000003	200	0	0
-11.0299997	6.91900063	0.0540000014	200	0	0
-11.059	6.91900063	0.00700000022	200	0	0
-11.0220003	6.91930008	0.0759999976	200	0	0
-11.052	6.91919994	0.00800000038	200	0	0
-11.0459995	6.91919994	0.0500000007	200	0	0
-11.0719995	6.91919994	-0.057	200	0	0
-11.0240002	6.91969967	0.0130000003	200	0	0
-11.0209999	6.91919994	-0.105999999	200	0	0
-11.0340004	6.91919994	-0.0890000015	200	0	0
-11.066	6.91989994	0.0439999998	200	0	0
-11.0190001	6.9197998	0.0540000014	200	0	0
-11.0109997	6.9197998	-0.0240000002	200	0	0
-11.0579996	6.91989994	0.00499999989	200	0	0
-11.0369997	6.9197998	-0.00999999978	200	0	0
-11.0319996	6.92000008	0.0109999999	200	0	0
-11.04	6.92020035	0.0489999987	200	0	0
-11.0290003	6.92020035	0.0719999969	200	0	0
-11.0340004	6.92010021	0.050999999	200	0	0
-11.0139999	6.92000008	0.0549999997	200	0	0
-11.0279999	6.92000008	0.0719999969	200	0	0
-11.0430002	6.92010021	-0.0120000001	200	0	0
-11.0469999	6.92000008	-0.0329999998	200	0	0
-11.0349998	6.92059994	0.050999999	200	0	0
-11.0450001	6.92039967	0.0680000037	200	0	0
-11.0559998	6.92039967	0.0460000001	200	0	0
-11.0139999	6.92039967	-0.0250000004	200	0	0
-11.0310001	6.92039967	0.0109999999	200	0	0
-11.0410004	6.92020035	0.00899999961	200	0	0
-11.0039997	6.92059994	0.0769999996	200	0	0
-11.0539999	6.92080021	0.0460000001	200	0	0
-11.0469999	6.92070007	0.00800000038	200	0	0
-11.033	6.92070007	0.050999999	200	0	0
-11.0150003	6.92070007	-0.0460000001	200	0	0
-11.0220003	6.92039967	-0.0879999995	200	0	0
-11.0509996	6.92039967	-0.0540000014	200	0	0
-11.033	6.92080021	0.0109999999	200	0	0
-11.0179996	6.92080021	-0.0469999984	200	0	0
-11.0019999	6.92080021	-0.023	200	0	0
-11.0170002	6.92109966	0.0140000004	200	0	0
-11.0489998	6.92109966	0.0469999984	200	0	0
-11.0120001	6.9211998	-0.0250000004	200	0	0
-11.0299997	6.92150068	0.0109999999	200	0	0
-11.0500002	6.92129993	-0.0140000004	200	0	0
-11.026	6.92150068	0.0719999969	200	0	0
-11.0129995	6.92150068	0.0549999997	200	0	0
-11.0500002	6.9211998	-0.0130000003	200	0	0
-11.0290003	6.92129993	0.0109999999	200	0	0
-11.0030003	6.9211998	0.0170000009	200	0	0
-11.0419998	6.92129993	0.0489999987	200	0	0
-11.0450001	6.9211998	0.0680000037	200	0	0
-11.0369997	6.9211998	0.0500000007	200	0	0
-11.0419998	6.92140007	-0.0520000011	200	0	0
-11.0190001	6.92140007	-0.0270000007	200	0	0
-10.9879999	6.9211998	-0.100000001	200	0	0
-11.0279999	6.9211998	-0.0900000036	200	0	0
-11.0340004	6.92229986	0.0710000023	200	0	0
-11.0290003	6.9224	0.0520000011	200	0	0
-11.0279999	6.9224	-0.0289999992	200	0	0
-11.033	6.92229986	-0.0299999993	200	0	0
-11.0469999	6.92229986	0.0480000004	200	0	0
-11.0290003	6.92229986	-0.00899999961	200	0	0
-11.0500002	6.92299986	0.00600000005	200	0	0
-11.0229998	6.92320013	0.0529999994	200	0	0
-11.0489998	6.92260027	0.00700000022	200	0	0
-11.0559998	6.92280102	0.0659999996	200	0	0
-11.0629997	6.92260027	0.0439999998	200	0	0
-11.052	6.92260027	0.0670000017	200	0	0
-11.0190001	6.92320013	-0.00700000022	200	0	0
-11.0200005	6.92250013	-0.0469999984	200	0	0
-11.0369997	6.92320013	0.00899999961	200	0	0
-11.0389996	6.92270041	-0.0320000015	200	0	0
-11.0419998	6.92299986	-0.0320000015	200	0	0
-11.0360003	6.92270041	-0.050999999	200	0	0
-11.0290003	6.92379999	0.050999999	200	0	0
-11.0389996	6.92349958	0.0689999983	200	0	0
-11.033	6.92359972	0.0500000007	200	0	0
-11.0270004	6.92359972	-0.0289999992	200	0	0
-11.0649996	6.92340088	0.064000003	200	0	0
-11.0299997	6.92349958	0.050999999	200	0	0
-11.0159998	6.92359972	0.0140000004	200	0	0
-11.0430002	6.92359972	-0.0120000001	200	0	0
-11.0419998	6.92349958	0.00800000038	200	0	0
-11.0209999	6.92409992	0.0130000003	200	0	0
-11.0270004	6.92400074	0.0520000011	200	0	0
-11.0340004	6.92390013	0.0700000003	200	0	0
-11.0299997	6.92390013	0.050999999	200	0	0
-11.0190001	6.92340088	0.0939999968	200	0	0
-11.0150003	6.92379999	-0.0460000001	200	0	0
-11.0209999	6.92469978	0.0130000003	200	0	0
-11.007	6.92469978	0.0759999976	200	0	0
-11.0369997	6.92460012	0.00899999961	200	0	0
-11.0220003	6.92469978	0.0529999994	200	0	0
-11.0229998	6.92439985	-0.00800000038	200	0	0
-11.0410004	6.92460012	0.0689999983	200	0	0
-11.0170002	6.92460012	0.0540000014	200	0	0
-11.0530005	6.92439985	0.0659999996	200	0	0
-11.0369997	6.92429972	0.00899999961	200	0	0
-11.0419998	6.92439985	0.0480000004	200	0	0
-11.0500002	6.92420006	0.0670000017	200	0	0
-11.0209999	6.92500019	0.0529999994	200	0	0
-11.0439997	6.92500019	0.00700000022	200	0	0
-11.0450001	6.92479992	0.0680000037	200	0	0
-11.0530005	6.92479992	0.0460000001	200	0	0
-11.0220003	6.92490005	0.0729999989	200	0	0
-11.0459995	6.92549992	-0.0329999998	200	0	0
-11.0080004	6.92539978	0.0759999976	200	0	0
-11.0220003	6.92560005	-0.00800000038	200	0	0
-11.0249996	6.92549992	0.0520000011	200	0	0
-11.0450001	6.92549992	-0.0130000003	200	0	0
-11.0240002	6.92530107	0.0719999969	200	0	0
-11.0410004	6.92539978	0.0489999987	200	0	0
-11.026	6.92549992	0.0120000001	200	0	0
-11.0500002	6.92500019	0.0670000017	200	0	0
-11.0459995	6.92530107	0.00700000022	200	0	0
-11.0369997	6.92519999	0.00899999961	200	0	0
-11.0439997	6.92590094	0.0480000004	200	0	0
-11.0220003	6.92580032	0.0729999989	200	0	0
-11.0319996	6.92590094	-0.00999999978	200	0	0
-11.052	6.92609978	0.0460000001	200	0	0
-11.0319996	6.9265008	0.00999999978	200	0	0
-11.0299997	6.9265008	-0.00999999978	200	0	0
-11.0200005	6.92640018	0.0130000003	200	0	0
-11.0539999	6.92640018	0.0460000001	200	0	0
-11.0319996	6.92640018	0.0710000023	200	0	0
-11.0270004	6.92679977	0.0109999999	200	0	0
-11.0389996	6.92679977	0.0689999983	200	0	0
-11.0319996	6.92679977	0.0500000007	200	0	0
-11.0200005	6.92669964	0.0130000003	200	0	0
-11.0240002	6.92669964	0.0719999969	200	0	0
-11.0360003	6.92669964	0.0500000007	200	0	0
-11.0360003	6.9265008	0.0700000003	200	0	0
-11.0030003	6.92679977	-0.0240000002	200	0	0
-11.0410004	6.92700005	0.00800000038	200	0	0
-11.0290003	6.92710018	0.0710000023	200	0	0
-11.0050001	6.92710018	-0.0240000002	200	0	0
-11.0270004	6.92710018	-0.00899999961	200	0	0
-11.0349998	6.92710018	0.00899999961	200	0	0
-11.0310001	6.92749977	0.0710000023	200	0	0
-11.0439997	6.92770004	0.00899999961	200	0	0
-11.0159998	6.92749977	-0.0469999984	200	0	0
-11.0389996	6.92740011	0.0689999983	200	0	0
-11.0419998	6.92759991	-0.00999999978	200	0	0
-10.9980001	6.92749977	-0.023	200	0	0
-11.0439997	6.92759991	0.00899999961	200	0	0
-11.0380001	6.92749977	0.0489999987	200	0	0
-11.0220003	6.92770004	0.075000003	200	0	0
-11.0349998	6.92780113	0.0520000011	200	0	0
-11.0509996	6.92799997	0.0480000004	200	0	0
-11.0299997	6.92799997	0.0729999989	200	0	0
-11.0209999	6.92780113	0.075000003	200	0	0
-11.0419998	6.92799997	-0.00999999978	200	0	0
-11.0480003	6.92799997	-0.0320000015	200	0	0
-11.0360003	6.92799997	0.0109999999	200	0	0
-11.059	6.92830038	0.0670000017	200	0	0
-11.0430002	6.92830038	0.0500000007	200	0	0
-11.0349998	6.92820024	0.0520000011	200	0	0
-11.0249996	6.92820024	0.074000001	200	0	0
-11.0200005	6.92859983	-0.00499999989	200	0	0
-11.0410004	6.92830038	-0.0299999993	200	0	0
-11.0439997	6.92830038	-0.0109999999	200	0	0
-11.0389996	6.92830038	0.00999999978	200	0	0
-11.0349998	6.92859983	0.0520000011	200	0	0
-11.0030003	6.92859983	0.0790000036	200	0	0
-11.04	6.92880011	-0.00999999978	200	0	0
-11.0240002	6.92890024	0.074000001	200	0	0
-11.0179996	6.92869997	-0.00499999989	200	0	0
-11.0369997	6.92890024	0.050999999	200	0	0
-11.0190001	6.92869997	0.0960000008	200	0	0
-11.0550003	6.92869997	0.00700000022	200	0	0
-11.0550003	6.92880011	0.0469999984	200	0	0
-11.0229998	6.92890024	0.0140000004	200	0	0
-11.0080004	6.92869997	-0.023	200	0	0
-11.0410004	6.9291997	0.0500000007	200	0	0
-11.0489998	6.92900085	0.00800000038	200	0	0
-11.0500002	6.92909956	0.0480000004	200	0	0
-11.0369997	6.92900085	0.050999999	200	0	0
-11.0380001	6.92900085	0.0710000023	200	0	0
-11.0649996	6.92900085	-0.0160000008	200	0	0
-11.0299997	6.92909956	0.0120000001	200	0	0
-11.0509996	6.92929983	0.0480000004	200	0	0
-11.0340004	6.9295001	0.0120000001	200	0	0
-11.0349998	6.9295001	-0.00899999961	200	0	0
-11.0290003	6.92939997	-0.0280000009	200	0	0
-11.0380001	6.92939997	-0.00899999961	200	0	0
-11.0380001	6.92929983	0.0109999999	200	0	0
-11.0279999	6.92929983	-0.00700000022	200	0	0
-11.0290003	6.92909956	-0.0280000009	200	0	0
-11.0059996	6.9295001	0.0780000016	200	0	0
-11.0299997	6.9295001	0.0529999994	200	0	0
-11.026	6.92939997	0.074000001	200	0	0
-11.0290003	6.92929983	0.0729999989	200	0	0
-11.0380001	6.9296999	0.0109999999	200	0	0
-11.0139999	6.92980003	0.057	200	0	0
-11.0319996	6.92980003	0.0729999989	200	0	0
-11.0299997	6.92960024	0.0729999989	200	0	0
-11.0419998	6.92980003	0.00999999978	200	0	0
-11.0299997	6.93009996	0.0729999989	200	0	0
-11.04	6.93009996	0.050999999	200	0	0
-11.026	6.92999983	0.0130000003	200	0	0
-11.0369997	6.92999983	0.0710000023	200	0	0
-11.0360003	6.92999983	0.0520000011	200	0	0
-11.0170002	6.92999983	-0.0250000004	200	0	0
-11.0360003	6.9302001	0.0109999999	200	0	0
-11.0310001	6.9302001	0.0729999989	200	0	0
-11.0539999	6.93009996	0.00700000022	200	0	0
-11.0340004	6.93050003	0.0120000001	200	0	0
-11.0480003	6.93030071	0.0689999983	200	0	0
-11.0579996	6.93030071	-0.0340000018	200	0	0
-11.052	6.93030071	0.0480000004	200	0	0
-11.0380001	6.93009996	-0.0299999993	200	0	0
-11.0240002	6.93009996	-0.00600000005	200	0	0
-11.0279999	6.93030071	-0.0480000004	200	0	0
-11.0229998	6.93039989	0.075000003	200	0	0
-11.0340004	6.93060017	0.0520000011	200	0	0
-11.0340004	6.93060017	0.0120000001	200	0	0
-11.0539999	6.9307003	0.0460000001	200	0	0
-11.0389996	6.93060017	0.0710000023	200	0	0
-11.0290003	6.93050003	0.0729999989	200	0	0
-11.0340004	6.93060017	-0.0489999987	200	0	0
-11.0050001	6.93060017	-0.0219999999	200	0	0
-11.0229998	6.9307003	-0.00800000038	200	0	0
-11.0249996	6.9307003	0.0120000001	200	0	0
-11.0299997	6.93079996	0.0109999999	200	0	0
-11.033	6.93099976	0.050999999	200	0	0
-11.0500002	6.93099976	0.0670000017	200	0	0
-11.0480003	6.93090105	0.0469999984	200	0	0
-11.0430002	6.93079996	0.0680000037	200	0	0
-11.0249996	6.93099976	0.0120000001	200	0	0
-11.026	6.93090105	0.0120000001	200	0	0
-11.0039997	6.93079996	-0.0240000002	200	0	0
-11.0089998	6.9307003	-0.0250000004	200	0	0
-11.052	6.93109989	0.0450000018	200	0	0
-11.04	6.93099976	-0.0320000015	200	0	0
-11.04	6.93130016	0.0680000037	200	0	0
-11.0550003	6.9314003	0.0439999998	200	0	0
-11.0430002	6.93130016	0.0469999984	200	0	0
-11.0500002	6.93130016	0.00499999989	200	0	0
-11.026	6.93120003	0.00999999978	200	0	0
-11.0419998	6.93150091	0.0649999976	200	0	0
-11.0349998	6.93150091	0.0460000001	200	0	0
-11.033	6.9314003	0.0689999983	200	0	0
-11.0500002	6.93150091	-0.0170000009	200	0	0
-11.0349998	6.9314003	-0.0320000015	200	0	0
-11.0389996	6.93150091	-0.0350000001	200	0	0
-11.0600004	6.93169975	0.00100000005	200	0	0
-11.026	6.93169975	-0.0120000001	200	0	0
-11.0609999	6.93179989	0	200	0	0
-11.0249996	6.93179989	0.0489999987	200	0	0
-11.0279999	6.93179989	-0.0130000003	200	0	0
-11.0410004	6.93200016	0.00499999989	200	0	0
-11.0270004	6.93200016	0.0480000004	200	0	0
-11.0389996	6.93200016	0.0659999996	200	0	0
-11.0609999	6.93179989	-0.0399999991	200	0	0
-11.0349998	6.93219948	0.0450000018	200	0	0
-11.0299997	6.93219948	0.0659999996	200	0	0
-11.0469999	6.9321003	0.0419999994	200	0	0
-11.0459995	6.93229961	0.00200000009	200	0	0
-11.0249996	6.93229961	0.0670000017	200	0	0
-11.04	6.93229961	0.0439999998	200	0	0
-11.0489998	6.93219948	0.00100000005	200	0	0
-11.0120001	6.93200016	-0.0489999987	200	0	0
-11.0050001	6.93200016	-0.0270000007	200	0	0
-11.0310001	6.93239975	0.0460000001	200	0	0
-11.033	6.93239975	0.0649999976	200	0	0
-11.0530005	6.93239975	0	200	0	0
-11.0380001	6.93229961	-0.0370000005	200	0	0
-11.059	6.93229961	-0.0209999997	200	0	0
-11.0200005	6.93239975	-0.0529999994	200	0	0
-11.0170002	6.93249989	-0.0320000015	200	0	0
-11.0159998	6.93260002	0.00899999961	200	0	0
-11.0089998	6.93260002	-0.00999999978	200	0	0
-11.0489998	6.93260002	0.061999999	200	0	0
-11.0019999	6.93249989	0.0719999969	200	0	0
-11.0200005	6.93280077	0.0480000004	200	0	0
-11.0389996	6.93289995	0.00400000019	200	0	0
-11.0380001	6.93309975	0.00400000019	200	0	0
-11.04	6.93309975	0.0439999998	200	0	0
-11.0419998	6.93300009	0.063000001	200	0	0
-11.0410004	6.93300009	0.0439999998	200	0	0
-11.0469999	6.93319988	0.0439999998	200	0	0
-11.0229998	6.93319988	-0.0309999995	200	0	0
-11.0500002	6.93289995	-0.0390000008	200	0	0
-11.0539999	6.93319988	0.063000001	200	0	0
-11.0349998	6.93330002	0.0670000017	200	0	0
-11.026	6.93330002	-0.0320000015	200	0	0
-11.0299997	6.93319988	-0.0529999994	200	0	0
-11.0469999	6.93330002	0.00400000019	200	0	0
-11.0240002	6.93340111	0.0489999987	200	0	0
-11.0319996	6.93349981	-0.0329999998	200	0	0
-11.04	6.93340111	0.0659999996	200	0	0
-11.0340004	6.93370008	0.00700000022	200	0	0
-11.0240002	6.93370008	0.0689999983	200	0	0
-11.0459995	6.93359995	0.0649999976	200	0	0
-11.0489998	6.93359995	0.0439999998	200	0	0
-11.04	6.93380022	0.0460000001	200	0	0
-11.0640001	6.93370008	0.0399999991	200	0	0
-11.0679998	6.93349981	-0.0209999997	200	0	0
-11.0579996	6.93400097	0.0419999994	200	0	0
-11.0530005	6.93400097	-0.0179999992	200	0	0
-11.0249996	6.93400097	0.00899999961	200	0	0
-11.0450001	6.93390036	0.0649999976	200	0	0
-11.059	6.93409967	0.061999999	200	0	0
-11.0600004	6.93409967	0.0410000011	200	0	0
-11.0270004	6.93429995	-0.0320000015	200	0	0
-11.0640001	6.93429995	0.0410000011	200	0	0
-11.026	6.93429995	0.00899999961	200	0	0
-11.0159998	6.93429995	-0.0500000007	200	0	0
-11.0690002	6.93429995	0.0599999987	200	0	0
-11.0620003	6.93440008	0	200	0	0
-11.0299997	6.93489981	0.0680000037	200	0	0
-11.0369997	6.93479967	0.00600000005	200	0	0
-11.0389996	6.93479967	0.0659999996	200	0	0
-11.0690002	6.93479967	0.0390000008	200	0	0
-10.9980001	6.93429995	-0.0860000029	200	0	0
-11.0270004	6.93479967	-0.0120000001	200	0	0
-11.04	6.93499994	0.00499999989	200	0	0
-11.059	6.93510008	0.00100000005	200	0	0
-11.0439997	6.93510008	-0.0160000008	200	0	0
-11.0319996	6.93510008	-0.0540000014	200	0	0
-11.026	6.93510008	-0.0320000015	200	0	0
-11.0559998	6.93520021	0.00200000009	200	0	0
-11.0459995	6.93510008	0.0649999976	200	0	0
-11.0570002	6.93510008	0.0419999994	200	0	0
-11.059	6.93530083	0.0419999994	200	0	0
-11.0620003	6.93530083	-0.0199999996	200	0	0
-11.0579996	6.93580008	0.0419999994	200	0	0
-11.0539999	6.93549967	0.00200000009	200	0	0
-11.0489998	6.93580008	0.064000003	200	0	0
-11.0600004	6.93569994	0.0410000011	200	0	0
-11.0380001	6.93569994	0.0659999996	200	0	0
-11.0459995	6.9355998	0.0439999998	200	0	0
-11.0559998	6.93549967	0.0419999994	200	0	0
-11.0310001	6.9355998	0.0680000037	200	0	0
-11.0389996	6.93549967	0.0659999996	200	0	0
-11.0380001	6.93540001	0.0460000001	200	0	0
-11.0430002	6.93530083	0.0649999976	200	0	0
-11.0319996	6.93549967	-0.0329999998	200	0	0
-11.0360003	6.93549967	-0.0140000004	200	0	0
-11.0430002	6.93590069	0.0450000018	200	0	0
-11.0539999	6.93590069	0.00200000009	200	0	0
-11.0469999	6.93580008	0.00400000019	200	0	0
-11.0489998	6.93599987	-0.0170000009	200	0	0
-11.0290003	6.93599987	-0.0329999998	200	0	0
-11.073	6.93599987	0.0590000004	200	0	0
-11.0509996	6.93610001	0.0430000015	200	0	0
-11.0369997	6.93590069	0.0670000017	200	0	0
-11.0389996	6.93639994	-0.0350000001	200	0	0
-11.0369997	6.93630028	-0.0340000018	200	0	0
-11.0550003	6.93650103	-0.0179999992	200	0	0
-11.0579996	6.93659973	0.00100000005	200	0	0
-11.0500002	6.93639994	-0.0170000009	200	0	0
-11.0500002	6.93659973	0.064000003	200	0	0
-11.0439997	6.93659973	0.0450000018	200	0	0
-11.0600004	6.93650103	0.00100000005	200	0	0
-11.0480003	6.93630028	-0.0170000009	200	0	0
-11.0600004	6.93650103	0.061999999	200	0	0
-11.0459995	6.93639994	0.00400000019	200	0	0
-11.0609999	6.93650103	0.0410000011	200	0	0
-11.0319996	6.93630028	0.00700000022	200	0	0
-11.0240002	6.93630028	0.0689999983	200	0	0
-11.0410004	6.93639994	0.0450000018	200	0	0
-11.0480003	6.93630028	0.0439999998	200	0	0
-11.0340004	6.93639994	-0.0540000014	200	0	0
-11.0349998	6.9368	0.00600000005	200	0	0
-11.0550003	6.93659973	-0.0179999992	200	0	0
-11.0279999	6.9368	0.0680000037	200	0	0
-11.0380001	6.9368	0.0460000001	200	0	0
-11.0310001	6.93690014	0.0480000004	200	0	0
-11.0480003	6.93700027	0.00400000019	200	0	0
-11.0299997	6.93700027	0.0680000037	200	0	0
-11.0480003	6.93700027	0.0439999998	200	0	0
-11.052	6.93719959	0.00300000003	200	0	0
-11.0310001	6.93710041	0.00700000022	200	0	0
-11.0220003	6.93710041	-0.0109999999	200	0	0
-11.0369997	6.93700027	-0.0140000004	200	0	0
-11.0559998	6.93729973	0.0419999994	200	0	0
-11.0450001	6.93719959	0.0450000018	200	0	0
-11.0670004	6.9375	-0.0410000011	200	0	0
-11.0500002	6.93729973	0.064000003	200	0	0
-11.0670004	6.9375	-0.0209999997	200	0	0
-11.0450001	6.9375	0.00400000019	200	0	0
-11.0430002	6.93719959	0.0649999976	200	0	0
-11.0439997	6.9375	0.0450000018	200	0	0
-11.0310001	6.93739986	0.0879999995	200	0	0
-11.0550003	6.93739986	0.063000001	200	0	0
-11.0500002	6.93770027	0.0439999998	200	0	0
-11.0500002	6.93770027	-0.0170000009	200	0	0
-11.0410004	6.93770027	0.00499999989	200	0	0
-11.0480003	6.93760014	0.0439999998	200	0	0
-11.0500002	6.93760014	0.00300000003	200	0	0
-11.0360003	6.93770027	0.0670000017	200	0	0
-11.0059996	6.93760014	0.0930000022	200	0	0
-11.0380001	6.93760014	0.0659999996	200	0	0
-11.0019999	6.93739986	0.114	200	0	0
-11.0349998	6.93789959	-0.0340000018	200	0	0
-11.0480003	6.93789959	0.0439999998	200	0	0
-11.073	6.93789959	-0.0219999999	200	0	0
-11.0550003	6.93789959	0.00200000009	200	0	0
-11.0489998	6.93780088	-0.0170000009	200	0	0
-11.0629997	6.93780088	0	200	0	0
-11.0319996	6.93799973	0.0680000037	200	0	0
-11.0299997	6.93809986	-0.0329999998	200	0	0
-11.066	6.93809986	0.0399999991	200	0	0
-11.0649996	6.93809986	-0.0209999997	200	0	0
-11.0530005	6.93809986	0.00200000009	200	0	0
-11.0530005	6.93799973	0.0430000015	200	0	0
-11.0480003	6.93799973	-0.0170000009	200	0	0
-11.0430002	6.9382	0.00499999989	200	0	0
-11.0349998	6.9382	0.0469999984	200	0	0
-11.059	6.9382	0.061999999	200	0	0
-11.0509996	6.93830013	0.00300000003	200	0	0
-11.0430002	6.93830013	-0.0160000008	200	0	0
-11.0419998	6.9382	-0.0149999997	200	0	0
-11.0539999	6.93830013	0.0430000015	200	0	0
-11.0279999	6.93830013	0.0680000037	200	0	0
-11.0319996	6.93849993	-0.0109999999	200	0	0
-11.0349998	6.93860006	0.00800000038	200	0	0
-11.0279999	6.93860006	0.0700000003	200	0	0
-11.0109997	6.93849993	0.074000001	200	0	0
-11.0410004	6.93860006	0.0469999984	200	0	0
-11.0489998	6.93849993	0.00499999989	200	0	0
-11.033	6.93849993	0.0489999987	200	0	0
-11.0209999	6.93849993	-0.0289999992	200	0	0
-11.0480003	6.93879986	0.00499999989	200	0	0
-11.033	6.93879986	0.0689999983	200	0	0
-11.0550003	6.93879986	0.0439999998	200	0	0
-11.0249996	6.93869972	0.0710000023	200	0	0
-11.0550003	6.93869972	0.0439999998	200	0	0
-11.059	6.93900108	-0.0160000008	200	0	0
-11.026	6.93889999	-0.00999999978	200	0	0
-11.0539999	6.93900108	0.00600000005	200	0	0
-11.0530005	6.93900108	0.0670000017	200	0	0
-11.04	6.93900108	0.0489999987	200	0	0
-11.0480003	6.93909979	0.0480000004	200	0	0
-11.0620003	6.93909979	-0.0160000008	200	0	0
-11.059	6.93909979	0.00499999989	200	0	0
-11.0629997	6.93909979	-0.0370000005	200	0	0
-11.0550003	6.93919992	0.0700000003	200	0	0
-11.0360003	6.93919992	0.0540000014	200	0	0
-11.0450001	6.9394002	0.0109999999	200	0	0
-11.0539999	6.9394002	-0.0109999999	200	0	0
-11.0270004	6.9394002	-0.0250000004	200	0	0
-11.0369997	6.93930006	0.0130000003	200	0	0
-11.0279999	6.93950033	-0.023	200	0	0
-11.059	6.93950033	-0.00999999978	200	0	0
-11.0570002	6.9394002	0.0489999987	200	0	0
-11.0389996	6.93950033	0.0149999997	200	0	0
-11.0530005	6.93950033	0.0719999969	200	0	0
-11.0509996	6.9394002	0.0710000023	200	0	0
-11.052	6.93959999	0.0520000011	200	0	0
-11.0620003	6.93959999	0.00899999961	200	0	0
-11.0559998	6.93969965	0.0529999994	200	0	0
-11.0530005	6.93959999	0.0719999969	200	0	0
-11.0559998	6.93979979	0.0130000003	200	0	0
-11.0489998	6.93979979	-0.00600000005	200	0	0
-11.0550003	6.93979979	-0.0270000007	200	0	0
-11.0310001	6.93989992	0.0179999992	200	0	0
-11.0389996	6.93989992	0.0769999996	200	0	0
-11.0469999	6.93989992	0.0549999997	200	0	0
-11.0679998	6.94000006	0.00999999978	200	0	0
-11.0609999	6.94000006	0.0520000011	200	0	0
-11.0459995	6.94000006	-0.0250000004	200	0	0
-11.0570002	6.94000006	-0.00800000038	200	0	0
-11.0270004	6.94010019	0.0799999982	200	0	0
-11.0310001	6.94010019	0.0590000004	200	0	0
-11.0419998	6.94010019	0.0160000008	200	0	0
-11.0679998	6.94020033	0.050999999	200	0	0
-11.0600004	6.94020033	-0.0289999992	200	0	0
-11.0530005	6.94030094	0.0160000008	200	0	0
-11.0579996	6.94020033	-0.00800000038	200	0	0
-11.0629997	6.94020033	0.0109999999	200	0	0
-11.0459995	6.94010019	-0.0250000004	200	0	0
-11.0620003	6.94010019	-0.00899999961	200	0	0
-11.0439997	6.94039965	0.0170000009	200	0	0
-11.0480003	6.94030094	0.0769999996	200	0	0
-11.0439997	6.94020033	0.0759999976	200	0	0
-11.0640001	6.94039965	0.0939999968	200	0	0
-11.0570002	6.94039965	0.075000003	200	0	0
-11.0719995	6.94049978	0.0109999999	200	0	0
-11.033	6.94059992	0.0199999996	200	0	0
-11.0649996	6.94059992	0.0529999994	200	0	0
-11.0459995	6.94070005	0.0170000009	200	0	0
-11.0360003	6.94080019	-0.0209999997	200	0	0
-11.052	6.94080019	0.0160000008	200	0	0
-11.033	6.94070005	0.0599999987	200	0	0
-11.0579996	6.94080019	0.0549999997	200	0	0
-11.0629997	6.94080019	0.074000001	200	0	0
-11.0410004	6.94070005	0.0790000036	200	0	0
-11.0389996	6.9409008	-0.00200000009	200	0	0
-11.0539999	6.9409008	0.0149999997	200	0	0
-11.0790005	6.94080019	-0.0109999999	200	0	0
-11.0459995	6.9409008	0.0780000016	200	0	0
-11.0609999	6.9409008	0.0540000014	200	0	0
-11.026	6.9409008	-0.0189999994	200	0	0
-11.0349998	6.94099998	0.0799999982	200	0	0
-11.0419998	6.94099998	0.0179999992	200	0	0
-11.0670004	6.94109964	0.0529999994	200	0	0
-11.0530005	6.94129992	0.0149999997	200	0	0
-11.0459995	6.94129992	-0.023	200	0	0
-11.0430002	6.94129992	-0.00300000003	200	0	0
-11.0469999	6.94129992	0.0769999996	200	0	0
-11.073	6.94129992	0.0520000011	200	0	0
-11.0539999	6.94140005	-0.00499999989	200	0	0
-11.052	6.94140005	0.0160000008	200	0	0
-11.0469999	6.94140005	0.0769999996	200	0	0
-11.0299997	6.94150066	-0.0199999996	200	0	0
-11.0410004	6.94129992	-0.0430000015	200	0	0
-11.0539999	6.94150066	0.0149999997	200	0	0
-11.0389996	6.94140005	0.0590000004	200	0	0
-11.0249996	6.94150066	-0.0390000008	200	0	0
-11.0360003	6.94159985	0.0189999994	200	0	0
-11.0500002	6.94169998	-0.00200000009	200	0	0
-11.0310001	6.94169998	0.0829999968	200	0	0
-11.0550003	6.94180012	0.0769999996	200	0	0
-11.0539999	6.94190025	0.0579999983	200	0	0
-11.0609999	6.94190025	-0.00499999989	200	0	0
-11.059	6.94199991	0.0160000008	200	0	0
-11.0459995	6.94199991	0.0590000004	200	0	0
-11.0279999	6.94210005	-0.0379999988	200	0	0
-11.04	6.94219971	-0.0199999996	200	0	0
-11.0559998	6.94219971	-0.00300000003	200	0	0
-11.0629997	6.94219971	0.0149999997	200	0	0
-11.0690002	6.94210005	0.0540000014	200	0	0
-11.0299997	6.94210005	-0.0179999992	200	0	0
-11.0279999	6.94190025	-0.0379999988	200	0	0
-11.0600004	6.94210005	-0.00400000019	200	0	0
-11.0550003	6.94210005	0.0170000009	200	0	0
-11.0299997	6.94199991	0.00200000009	200	0	0
-11.0450001	6.94229984	0.0189999994	200	0	0
-11.073	6.94229984	-0.00700000022	200	0	0
-11.059	6.94229984	0.057	200	0	0
-11.0220003	6.94219971	0.125	200	0	0
-11.0530005	6.94229984	0.0780000016	200	0	0
-11.0279999	6.94239998	0.00499999989	200	0	0
-11.0489998	6.94239998	0.0610000007	200	0	0
-11.0629997	6.94260025	0.0170000009	200	0	0
-11.0679998	6.94260025	0.0769999996	200	0	0
-11.0450001	6.94250011	0.061999999	200	0	0
-11.04	6.94250011	0.0829999968	200	0	0
-11.0349998	6.94239998	0.0839999989	200	0	0
-11.0270004	6.94270039	0.0879999995	200	0	0
-11.0430002	6.94270039	0.064000003	200	0	0
-11.0369997	6.9428997	-0.0149999997	200	0	0
-11.0310001	6.9428997	0.0260000005	200	0	0
-11.0550003	6.9428997	0.00100000005	200	0	0
-11.0480003	6.9428997	0.0829999968	200	0	0
-11.0410004	6.9428997	0.0649999976	200	0	0
-11.0279999	6.94299984	-0.0130000003	200	0	0
-11.059	6.94299984	0.0199999996	200	0	0
-11.0380001	6.94309998	-0.0149999997	200	0	0
-11.0270004	6.94299984	0.00700000022	200	0	0
-11.0570002	6.94299984	0.0610000007	200	0	0
-11.0439997	6.94299984	0.0839999989	200	0	0
-11.052	6.94309998	0.061999999	200	0	0
-11.0360003	6.94320011	0.0250000004	200	0	0
-11.0670004	6.94320011	-0.0219999999	200	0	0
-11.059	6.94320011	0.0810000002	200	0	0
-11.0430002	6.94309998	0.0839999989	200	0	0
-11.0299997	6.94330025	-0.0340000018	200	0	0
-11.0559998	6.94330025	0	200	0	0
-11.0310001	6.94330025	-0.0140000004	200	0	0
-11.0679998	6.94330025	0.0790000036	200	0	0
-11.0550003	6.94330025	0.061999999	200	0	0
-11.066	6.94349957	0.0590000004	200	0	0
-11.0459995	6.94349957	-0.0170000009	200	0	0
-11.0439997	6.94340086	0.064000003	200	0	0
-11.0600004	6.94349957	0	200	0	0
-11.0740004	6.94340086	-0.0240000002	200	0	0
-11.0459995	6.94340086	0.023	200	0	0
-11.0559998	6.94340086	0.00100000005	200	0	0
-11.0640001	6.94349957	0.100000001	200	0	0
-11.0500002	6.94349957	0.0829999968	200	0	0
-11.0550003	6.94340086	0.0820000023	200	0	0
-11.0349998	6.9435997	0.0659999996	200	0	0
-11.0419998	6.9435997	0.0839999989	200	0	0
-11.0340004	6.9435997	0.0260000005	200	0	0
-11.0570002	6.94379997	0.0209999997	200	0	0
-11.0670004	6.94369984	0.0179999992	200	0	0
-11.0039997	6.94330025	-0.0680000037	200	0	0
-11.0310001	6.9435997	-0.0140000004	200	0	0
-11.0749998	6.94379997	0.057	200	0	0
-11.0489998	6.94379997	0.0829999968	200	0	0
-11.04	6.94390011	0.0240000002	200	0	0
-11.0459995	6.94390011	-0.0170000009	200	0	0
-11.0480003	6.94400072	0.023	200	0	0
-11.0500002	6.94400072	-0.0179999992	200	0	0
-11.0719995	6.94400072	0.0579999983	200	0	0
-11.0609999	6.94400072	0.0799999982	200	0	0
-11.0319996	6.9440999	-0.0140000004	200	0	0
-11.0430002	6.9440999	0.00400000019	200	0	0
-11.0360003	6.9440999	0.0250000004	200	0	0
-11.0710001	6.9440999	0.0579999983	200	0	0
-11.0609999	6.9440999	0.0799999982	200	0	0
-11.0349998	6.94420004	0.00499999989	200	0	0
-11.0299997	6.94400072	-0.074000001	200	0	0
-11.04	6.94439983	0.063000001	200	0	0
-11.0530005	6.9442997	0.0799999982	200	0	0
-11.066	6.94449997	0.0579999983	200	0	0
-11.0559998	6.94449997	-0.00100000005	200	0	0
-11.0509996	6.94449997	0.0199999996	200	0	0
-11.0450001	6.94469976	0.0599999987	200	0	0
-11.0679998	6.94460011	0.0759999976	200	0	0
-11.0380001	6.94460011	0.061999999	200	0	0
-11.0450001	6.94460011	-0.0209999997	200	0	0
-11.059	6.94449997	-0.0219999999	200	0	0
-11.0450001	6.94460011	0.0199999996	200	0	0
-11.0579996	6.94469976	0.0780000016	200	0	0
-11.0649996	6.9447999	0.0560000017	200	0	0
-11.0570002	6.9447999	0.0780000016	200	0	0
-11.0799999	6.94490004	0.0729999989	200	0	0
-11.0410004	6.94500017	0.0189999994	200	0	0
-11.0629997	6.94500017	-0.0260000005	200	0	0
-11.052	6.94500017	-0.00400000019	200	0	0
-11.052	6.94500017	0.057	200	0	0
-11.0459995	6.94510031	0.0179999992	200	0	0
-11.0050001	6.94469976	-0.0920000002	200	0	0
-11.0410004	6.94519997	0.0590000004	200	0	0
-11.0640001	6.94510031	0.075000003	200	0	0
-11.0229998	6.94510031	0.063000001	200	0	0
-11.0170002	6.94500017	0.0850000009	200	0	0
-11.0299997	6.94539976	0.0599999987	200	0	0
-11.0500002	6.94539976	0.0759999976	200	0	0
-11.0469999	6.94530106	0.0160000008	200	0	0
-11.0670004	6.94539976	0.0120000001	200	0	0
-11.0480003	6.94539976	-0.00400000019	200	0	0
-11.0340004	6.9454999	0.0189999994	200	0	0
-11.0179996	6.9454999	0.0829999968	200	0	0
-11.04	6.9454999	0.0579999983	200	0	0
-11.0430002	6.9458003	0.057	200	0	0
-11.0389996	6.94590092	0.0579999983	200	0	0
-11.0489998	6.9458003	-0.0250000004	200	0	0
-11.04	6.94590092	0.0179999992	200	0	0
-11.0469999	6.9458003	-0.00400000019	200	0	0
