7.3499999	6.75080013	0.165000007	200	0	0
7.29400015	6.75110006	0.238000005	200	0	0
7.31599998	6.75159979	0.202999994	200	0	0
7.30200005	6.75150108	0.207000002	200	0	0
7.296	6.75099993	0.238000005	200	0	0
7.32600021	6.75090075	0.243000001	200	0	0
7.31899977	6.75090075	0.231000006	200	0	0
7.30200005	6.75110006	0.208000004	200	0	0
7.3130002	6.75090075	0.204999998	200	0	0
7.33099985	6.75180006	0.294999987	200	0	0
7.3499999	6.75080013	0.165000007	200	0	0
7.31400013	6.75159979	0.314999998	200	0	0
7.33599997	6.75180006	0.280000001	200	0	0
7.33400011	6.75180006	0.195999995	200	0	0
7.31599998	6.7519002	0.202000007	200	0	0
7.31400013	6.75169992	0.301999986	200	0	0
7.33699989	6.75180006	0.266000003	200	0	0
7.31599998	6.75159979	0.300999999	200	0	0
7.32399988	6.75090075	0.312999994	200	0	0
7.30200005	6.75110006	0.319000006	200	0	0
7.32200003	6.75119972	0.312999994	200	0	0
7.3130002	6.75169992	0.287999988	200	0	0
7.32499981	6.75180006	0.226999998	200	0	0
7.32499981	6.75180006	0.240999997	200	0	0
7.28700018	6.75169992	0.282000005	200	0	0
7.30800009	6.75159979	0.289000005	200	0	0
7.32200003	6.75090075	0.300000012	200	0	0
7.31500006	6.75159979	0.273000002	200	0	0
7.3039999	6.75169992	0.248999998	200	0	0
7.33099985	6.75090075	0.282999992	200	0	0
7.296	6.75169992	0.237000003	200	0	0
7.29400015	6.75099993	0.294	200	0	0
7.31899977	6.75119972	0.286000013	200	0	0
7.30700016	6.75110006	0.289999992	200	0	0
7.30999994	6.75159979	0.246999994	200	0	0
7.30999994	6.75159979	0.232999995	200	0	0
7.32499981	6.75090075	0.270999998	200	0	0
7.31799984	6.75119972	0.273000002	200	0	0
7.31799984	6.75099993	0.273000002	200	0	0
7.30900002	6.75110006	0.275000006	200	0	0
7.29899979	6.75099993	0.250999987	200	0	0
7.30100012	6.75119972	0.25	200	0	0
7.30299997	6.75110006	0.248999998	200	0	0
7.33199978	6.75119972	0.338	200	0	0
7.33500004	6.75090075	0.337000012	200	0	0
7.3119998	6.75110006	0.35800001	200	0	0
7.30600023	6.75129986	0.372999996	200	0	0
7.30900002	6.75159979	0.386000007	200	0	0
7.30800009	6.75169992	0.386000007	200	0	0
7.3130002	6.75110006	0.344000012	200	0	0
7.33199978	6.75180006	0.377999991	200	0	0
7.3130002	6.75129986	0.356999993	200	0	0
7.30800009	6.75169992	0.372000009	200	0	0
7.31500006	6.75159979	0.370000005	200	0	0
7.32299995	6.75180006	0.367000014	200	0	0
7.3130002	6.75169992	0.356999993	200	0	0
7.32200003	6.75159979	0.354999989	200	0	0
7.33400011	6.75180006	0.349999994	200	0	0
7.3210001	6.75159979	0.340999991	200	0	0
7.3210001	6.75169992	0.340999991	200	0	0
7.33199978	6.75180006	0.337000012	200	0	0
7.3130002	6.75169992	0.316000015	200	0	0
7.33300018	6.75180006	0.308999985	200	0	0
7.3119998	6.75159979	0.412999988	200	0	0
7.32800007	6.75090075	0.367000014	200	0	0
7.30900002	6.75110006	0.386000007	200	0	0
7.32999992	6.75090075	0.352999985	200	0	0
7.30299997	6.75110006	0.374000013	200	0	0
7.30900002	6.75129986	0.386000007	200	0	0
7.28499985	6.75099993	0.351999998	200	0	0
7.28299999	6.75099993	0.393999994	200	0	0
7.30499983	6.75110006	0.414999992	200	0	0
7.31799984	6.75129986	0.411000013	200	0	0
7.3130002	6.75159979	0.425999999	200	0	0
7.28499985	6.75099993	0.421000004	200	0	0
7.33400011	6.75110006	0.433999985	200	0	0
7.3039999	6.75169992	0.414999992	200	0	0
7.31500006	6.75110006	0.425999999	200	0	0
7.31500006	6.75139999	0.453000009	200	0	0
7.32700014	6.75110006	0.449999988	200	0	0
7.30800009	6.75169992	0.428000003	200	0	0
7.29899979	6.75099993	0.444000006	200	0	0
7.31400013	6.75139999	0.439999998	200	0	0
7.29199982	6.75099993	0.432000011	200	0	0
7.30100012	6.75169992	0.456999987	200	0	0
7.29899979	6.75099993	0.458000004	200	0	0
7.29899979	6.75169992	0.444000006	200	0	0
7.30999994	6.75139999	0.481999993	200	0	0
7.30900002	6.75169992	0.481999993	200	0	0
7.31099987	6.75169992	0.509000003	200	0	0
7.32999992	6.75139999	0.504000008	200	0	0
7.32200003	6.75110006	0.493000001	200	0	0
7.30100012	6.75099993	0.485000014	200	0	0
7.31699991	6.75110006	0.481000006	200	0	0
7.30800009	6.75169992	0.495999992	200	0	0
7.29799986	6.75099993	0.513000011	200	0	0
7.32200003	6.75110006	0.507000029	200	0	0
7.32299995	6.75099993	0.493000001	200	0	0
7.30900002	6.75169992	0.523999989	200	0	0
7.32499981	6.75150108	0.518999994	200	0	0
7.30100012	6.75099993	0.526000023	200	0	0
7.3119998	6.75110006	0.523000002	200	0	0
7.31799984	6.75150108	0.549000025	200	0	0
7.30999994	6.75169992	0.550999999	200	0	0
7.3039999	6.75099993	0.551999986	200	0	0
7.31400013	6.75110006	0.577000022	200	0	0
7.31699991	6.75169992	0.575999975	200	0	0
7.33500004	6.75150108	0.57099998	200	0	0
7.30800009	6.75099993	0.564999998	200	0	0
7.31099987	6.75110006	0.56400001	200	0	0
7.32000017	6.75169992	0.561999977	200	0	0
7.32800007	6.75150108	0.560000002	200	0	0
7.33900023	6.75150108	0.583999991	200	0	0
7.31599998	6.75169992	0.589999974	200	0	0
7.30999994	6.75099993	0.592000008	200	0	0
7.31599998	6.75110006	0.589999974	200	0	0
7.30100012	6.75099993	0.579999983	200	0	0
7.33599997	6.75150108	0.611999989	200	0	0
7.31500006	6.75169992	0.616999984	200	0	0
7.33699989	6.75159979	0.611999989	200	0	0
7.30100012	6.75099993	0.620999992	200	0	0
7.32299995	6.75110006	0.615999997	200	0	0
7.30999994	6.75099993	0.633000016	200	0	0
7.31400013	6.75169992	0.644999981	200	0	0
7.32800007	6.75159979	0.640999973	200	0	0
7.31099987	6.75110006	0.632000029	200	0	0
7.31699991	6.75169992	0.629999995	200	0	0
7.32800007	6.75159979	0.628000021	200	0	0
7.3119998	6.75110006	0.646000028	200	0	0
7.30900002	6.75099993	0.646000028	200	0	0
7.33199978	6.75159979	0.653999984	200	0	0
7.30999994	6.75099993	0.660000026	200	0	0
7.30900002	6.75110006	0.660000026	200	0	0
7.31099987	6.75169992	0.658999979	200	0	0
7.34499979	6.75159979	0.677999973	200	0	0
7.329	6.75169992	0.681999981	200	0	0
7.31599998	6.75099993	0.685000002	200	0	0
7.32399988	6.75110006	0.683000028	200	0	0
7.31400013	6.75110006	0.699000001	200	0	0
7.329	6.75159979	0.708999991	200	0	0
7.3210001	6.75169992	0.697000027	200	0	0
7.32999992	6.75159979	0.694999993	200	0	0
7.31899977	6.75169992	0.712000012	200	0	0
7.3039999	6.75099993	0.714999974	200	0	0
7.31799984	6.75110006	0.712000012	200	0	0
7.31500006	6.75099993	0.699000001	200	0	0
7.31699991	6.75110006	0.726000011	200	0	0
7.31699991	6.75099993	0.726000011	200	0	0
7.31599998	6.75169992	0.726000011	200	0	0
7.33599997	6.75159979	0.721000016	200	0	0
7.32000017	6.75169992	0.751999974	200	0	0
7.32200003	6.75159979	0.750999987	200	0	0
7.3210001	6.75110006	0.751999974	200	0	0
7.31500006	6.75099993	0.753000021	200	0	0
7.31699991	6.75169992	0.765999973	200	0	0
7.31899977	6.75169992	0.778999984	200	0	0
7.31099987	6.75099993	0.781000018	200	0	0
7.31400013	6.75110006	0.779999971	200	0	0
7.3130002	6.75099993	0.76700002	200	0	0
7.32000017	6.75110006	0.764999986	200	0	0
7.31400013	6.75099993	0.79400003	200	0	0
7.31799984	6.75110006	0.792999983	200	0	0
7.32200003	6.75169992	0.791999996	200	0	0
7.31599998	6.75099993	0.819999993	200	0	0
7.31599998	6.75110006	0.819999993	200	0	0
7.32399988	6.75169992	0.818000019	200	0	0
7.31500006	6.75169992	0.847000003	200	0	0
7.31799984	6.75169992	0.833000004	200	0	0
7.31500006	6.75110006	0.833999991	200	0	0
7.30999994	6.75099993	0.84799999	200	0	0
7.32000017	6.75110006	0.846000016	200	0	0
7.31799984	6.75099993	0.833000004	200	0	0
7.32000017	6.75169992	0.859000027	200	0	0
7.32600021	6.75110006	0.85799998	200	0	0
7.31699991	6.75099993	0.860000014	200	0	0
7.31899977	6.75110006	0.887000024	200	0	0
7.31699991	6.75099993	0.887000024	200	0	0
7.32299995	6.75169992	0.885999978	200	0	0
7.31599998	6.75110006	0.913999975	200	0	0
7.31699991	6.75099993	0.913999975	200	0	0
7.3119998	6.75169992	0.915000021	200	0	0
7.32999992	6.75110006	0.924000025	200	0	0
7.32700014	6.75159979	0.925000012	200	0	0
7.33099985	6.75169992	0.924000025	200	0	0
7.31799984	6.75099993	0.926999986	200	0	0
7.32499981	6.75169992	0.952000022	200	0	0
7.34100008	6.75159979	0.949000001	200	0	0
7.32000017	6.75099993	0.953000009	200	0	0
7.32000017	6.75110006	0.953000009	200	0	0
7.32600021	6.75169992	0.964999974	200	0	0
7.31400013	6.75099993	0.981000006	200	0	0
7.33599997	6.75159979	0.963	200	0	0
7.32700014	6.75110006	0.977999985	200	0	0
7.31500006	6.75099993	0.967999995	200	0	0
7.32999992	6.75110006	0.963999987	200	0	0
7.34000015	6.75159979	0.976000011	200	0	0
7.32600021	6.75169992	0.977999985	200	0	0
7.32200003	6.75169992	0.992999971	200	0	0
7.33099985	6.75159979	0.990999997	200	0	0
7.31599998	6.75099993	0.994000018	200	0	0
7.31899977	6.75110006	0.992999971	200	0	0
7.3210001	6.75099993	1.01999998	200	0	0
7.31799984	6.75110006	1.01999998	200	0	0
7.33400011	6.75159979	1.01699996	200	0	0
7.33599997	6.75169992	1.01600003	200	0	0
7.34399986	6.75150108	1.04200006	200	0	0
7.32299995	6.75169992	1.046	200	0	0
7.34200001	6.75159979	1.04200006	200	0	0
7.32200003	6.75169992	1.03199995	200	0	0
7.33400011	6.75159979	1.02999997	200	0	0
7.31500006	6.75099993	1.04700005	200	0	0
7.32299995	6.75110006	1.046	200	0	0
7.31799984	6.75110006	1.03299999	200	0	0
7.32600021	6.75099993	1.03199995	200	0	0
7.34100008	6.75150108	1.05499995	200	0	0
7.32600021	6.75169992	1.05799997	200	0	0
7.32499981	6.75110006	1.05900002	200	0	0
7.32200003	6.75099993	1.05900002	200	0	0
7.34200001	6.75150108	1.08200002	200	0	0
7.32499981	6.75169992	1.08500004	200	0	0
7.31599998	6.75099993	1.08700001	200	0	0
7.32600021	6.75110006	1.08500004	200	0	0
7.30999994	6.75099993	1.11500001	200	0	0
7.32299995	6.75110006	1.11199999	200	0	0
7.33099985	6.75150108	1.097	200	0	0
7.32200003	6.75099993	1.09899998	200	0	0
7.33300018	6.75110006	1.097	200	0	0
7.33599997	6.75150108	1.10899997	200	0	0
7.33400011	6.75169992	1.097	200	0	0
7.32800007	6.75169992	1.11099994	200	0	0
7.32600021	6.75169992	1.13800001	200	0	0
7.32800007	6.75110006	1.12399995	200	0	0
7.33199978	6.75169992	1.12300003	200	0	0
7.31400013	6.75099993	1.12699997	200	0	0
7.34399986	6.75150108	1.148	200	0	0
7.34600019	6.75139999	1.14699996	200	0	0
7.3210001	6.75099993	1.15199995	200	0	0
7.329	6.75169992	1.17700005	200	0	0
7.33400011	6.75139999	1.176	200	0	0
7.33199978	6.75169992	1.16299999	200	0	0
7.34499979	6.75139999	1.16100001	200	0	0
7.32499981	6.75110006	1.17799997	200	0	0
7.32299995	6.75099993	1.17799997	200	0	0
7.30299997	6.75110006	1.16799998	200	0	0
7.31599998	6.75099993	1.16600001	200	0	0
7.33300018	6.75139999	1.18900001	200	0	0
7.31500006	6.75110006	1.19299996	200	0	0
7.31500006	6.75099993	1.19299996	200	0	0
7.32499981	6.75169992	1.19099998	200	0	0
7.32499981	6.75110006	1.21700001	200	0	0
7.33799982	6.75139999	1.22800004	200	0	0
7.33300018	6.75169992	1.22899997	200	0	0
7.34100008	6.75139999	1.21399999	200	0	0
7.33099985	6.75169992	1.21599996	200	0	0
7.3210001	6.75099993	1.21800005	200	0	0
7.32000017	6.75099993	1.23099995	200	0	0
7.32800007	6.75169992	1.24300003	200	0	0
7.34100008	6.75129986	1.24100006	200	0	0
7.30800009	6.75110006	1.23300004	200	0	0
7.3130002	6.75110006	1.24600005	200	0	0
7.32299995	6.75099993	1.24399996	200	0	0
7.33199978	6.75129986	1.25600004	200	0	0
7.329	6.75169992	1.25600004	200	0	0
7.32399988	6.75099993	1.25699997	200	0	0
7.31599998	6.75110006	1.25800002	200	0	0
7.33400011	6.75129986	1.28100002	200	0	0
7.3119998	6.75110006	1.28499997	200	0	0
7.32600021	6.75099993	1.28299999	200	0	0
7.32000017	6.75169992	1.28400004	200	0	0
7.33599997	6.75169992	1.29400003	200	0	0
7.31699991	6.75110006	1.31099999	200	0	0
7.3210001	6.75099993	1.30999994	200	0	0
7.33599997	6.75129986	1.30700004	200	0	0
7.32200003	6.75099993	1.29700005	200	0	0
7.32399988	6.75110006	1.296	200	0	0
7.32499981	6.75110006	1.32200003	200	0	0
7.32600021	6.75169992	1.32200003	200	0	0
7.32800007	6.75129986	1.32200003	200	0	0
7.34200001	6.75119972	1.32000005	200	0	0
7.32200003	6.75169992	1.30999994	200	0	0
7.32399988	6.75099993	1.32299995	200	0	0
7.33799982	6.75169992	1.34599996	200	0	0
7.33400011	6.75099993	1.347	200	0	0
7.32200003	6.75110006	1.34899998	200	0	0
7.33500004	6.75119972	1.347	200	0	0
7.32700014	6.75099993	1.375	200	0	0
7.32000017	6.75110006	1.37600005	200	0	0
7.33500004	6.75119972	1.37300003	200	0	0
7.32999992	6.75169992	1.36099994	200	0	0
7.31699991	6.75110006	1.36300004	200	0	0
7.32700014	6.75099993	1.36099994	200	0	0
7.34200001	6.75119972	1.35899997	200	0	0
7.32499981	6.75169992	1.375	200	0	0
7.32499981	6.75169992	1.38800001	200	0	0
7.31400013	6.75099993	1.38999999	200	0	0
7.33400011	6.75119972	1.38699996	200	0	0
7.32000017	6.75110006	1.38900006	200	0	0
7.3130002	6.75110006	1.41600001	200	0	0
7.32800007	6.75099993	1.41400003	200	0	0
7.32999992	6.75169992	1.41299999	200	0	0
7.33500004	6.75169992	1.43900001	200	0	0
7.34299994	6.75119972	1.42400002	200	0	0
7.32999992	6.75169992	1.426	200	0	0
7.3210001	6.75110006	1.44099998	200	0	0
7.32399988	6.75099993	1.44000006	200	0	0
7.32499981	6.75110006	1.42700005	200	0	0
7.32700014	6.75099993	1.42700005	200	0	0
7.3210001	6.75110006	1.454	200	0	0
7.31699991	6.75099993	1.454	200	0	0
7.32999992	6.75169992	1.45200002	200	0	0
7.33799982	6.75169992	1.477	200	0	0
7.31899977	6.75110006	1.48000002	200	0	0
7.329	6.75099993	1.47899997	200	0	0
7.33300018	6.75169992	1.49100006	200	0	0
7.3210001	6.75099993	1.50600004	200	0	0
7.31899977	6.75110006	1.50600004	200	0	0
7.329	6.75099993	1.49199998	200	0	0
7.32700014	6.75110006	1.49199998	200	0	0
7.33199978	6.75169992	1.50399995	200	0	0
7.32600021	6.75110006	1.51800001	200	0	0
7.33199978	6.75169992	1.51699996	200	0	0
7.32499981	6.75099993	1.51800001	200	0	0
7.33099985	6.75099993	1.54400003	200	0	0
7.32499981	6.75110006	1.54400003	200	0	0
7.33199978	6.75169992	1.54299998	200	0	0
7.33799982	6.75169992	1.56900001	200	0	0
7.33599997	6.75169992	1.55599999	200	0	0
7.33099985	6.75099993	1.57000005	200	0	0
7.32499981	6.75110006	1.57000005	200	0	0
7.32600021	6.75099993	1.55700004	200	0	0
7.32600021	6.75110006	1.55700004	200	0	0
7.33099985	6.75169992	1.58200002	200	0	0
7.32200003	6.75099993	1.58399999	200	0	0
7.32600021	6.75110006	1.58299994	200	0	0
7.32200003	6.75110006	1.61000001	200	0	0
7.33199978	6.75099993	1.60899997	200	0	0
7.33599997	6.75169992	1.60800004	200	0	0
7.32299995	6.75110006	1.63499999	200	0	0
7.32999992	6.75099993	1.63499999	200	0	0
7.32999992	6.75110006	1.62199998	200	0	0
7.329	6.75099993	1.62199998	200	0	0
7.33199978	6.75169992	1.62100005	200	0	0
7.33199978	6.75169992	1.63399994	200	0	0
7.32800007	6.75110006	1.648	200	0	0
7.33500004	6.75169992	1.64699996	200	0	0
7.32399988	6.75099993	1.648	200	0	0
7.34100008	6.75169992	1.67200005	200	0	0
7.32299995	6.75110006	1.67400002	200	0	0
7.32800007	6.75099993	1.67400002	200	0	0
7.33599997	6.75169992	1.68599999	200	0	0
7.32800007	6.75099993	1.70000005	200	0	0
7.32800007	6.75110006	1.70000005	200	0	0
7.33300018	6.75099993	1.68599999	200	0	0
7.32999992	6.75110006	1.68599999	200	0	0
7.33900023	6.75169992	1.69799995	200	0	0
7.33199978	6.75169992	1.71200001	200	0	0
7.33400011	6.75099993	1.71200001	200	0	0
7.32700014	6.75110006	1.71300006	200	0	0
7.33599997	6.75119972	1.73800004	200	0	0
7.33199978	6.75099993	1.73800004	200	0	0
7.32999992	6.75110006	1.73800004	200	0	0
7.33500004	6.75169992	1.73800004	200	0	0
7.329	6.75110006	1.75100005	200	0	0
7.34000015	6.75119972	1.75	200	0	0
7.33699989	6.75169992	1.76300001	200	0	0
7.33500004	6.75169992	1.75100005	200	0	0
7.34399986	6.75119972	1.76300001	200	0	0
7.3210001	6.75099993	1.76499999	200	0	0
7.32600021	6.75110006	1.76499999	200	0	0
7.329	6.75099993	1.75100005	200	0	0
7.33699989	6.75169992	1.77600002	200	0	0
7.34299994	6.75119972	1.78900003	200	0	0
7.32000017	6.75099993	1.79100001	200	0	0
7.32800007	6.75110006	1.78999996	200	0	0
7.3499999	6.75119972	1.77499998	200	0	0
7.32399988	6.75110006	1.778	200	0	0
7.32700014	6.75099993	1.77699995	200	0	0
7.33599997	6.75169992	1.78900003	200	0	0
7.32600021	6.75099993	1.829	200	0	0
7.33699989	6.75169992	1.81500006	200	0	0
7.32999992	6.75110006	1.829	200	0	0
7.34299994	6.75129986	1.82799995	200	0	0
7.34499979	6.75119972	1.82700002	200	0	0
7.329	6.75099993	1.81599998	200	0	0
7.32800007	6.75110006	1.81599998	200	0	0
7.34700012	6.75119972	1.81400001	200	0	0
7.33599997	6.75169992	1.82799995	200	0	0
7.34200001	6.75129986	1.84099996	200	0	0
7.32700014	6.75099993	1.84200001	200	0	0
7.32499981	6.75110006	1.84200001	200	0	0
7.33799982	6.75169992	1.84099996	200	0	0
7.34600019	6.75129986	1.86600006	200	0	0
7.33599997	6.75169992	1.86699998	200	0	0
7.33099985	6.75099993	1.88	200	0	0
7.32700014	6.75110006	1.88	200	0	0
7.34600019	6.75129986	1.87899995	200	0	0
7.33400011	6.75099993	1.86699998	200	0	0
7.33199978	6.75110006	1.86699998	200	0	0
7.33799982	6.75169992	1.88	200	0	0
7.34000015	6.75169992	1.89199996	200	0	0
7.34700012	6.75139999	1.90499997	200	0	0
7.34700012	6.75129986	1.90499997	200	0	0
7.32700014	6.75110006	1.90600002	200	0	0
7.33099985	6.75099993	1.90600002	200	0	0
7.33099985	6.75110006	1.89300001	200	0	0
7.329	6.75099993	1.89300001	200	0	0
7.33599997	6.75169992	1.90600002	200	0	0
7.33300018	6.75099993	1.93200004	200	0	0
7.32999992	6.75110006	1.93200004	200	0	0
7.34700012	6.75139999	1.93099999	200	0	0
7.3499999	6.75129986	1.92999995	200	0	0
7.33099985	6.75169992	1.93200004	200	0	0
7.33599997	6.75169992	1.95700002	200	0	0
7.33300018	6.75099993	1.95700002	200	0	0
7.32700014	6.75110006	1.95799994	200	0	0
7.34200001	6.75139999	1.95700002	200	0	0
7.33699989	6.75169992	1.94400001	200	0	0
7.33599997	6.75099993	1.94400001	200	0	0
7.33099985	6.75110006	1.94500005	200	0	0
7.34600019	6.75139999	1.94299996	200	0	0
7.34899998	6.75139999	1.96899998	200	0	0
7.33099985	6.75110006	1.97000003	200	0	0
7.33099985	6.75099993	1.97000003	200	0	0
7.33500004	6.75169992	1.97000003	200	0	0
7.33400011	6.75110006	1.99600005	200	0	0
7.34299994	6.75169992	1.995	200	0	0
7.3499999	6.75150108	1.995	200	0	0
7.35699987	6.75139999	1.99399996	200	0	0
7.33599997	6.75099993	1.99600005	200	0	0
7.35200024	6.75150108	2.0079999	200	0	0
7.33199978	6.75099993	2.02200007	200	0	0
7.33599997	6.75110006	2.02099991	200	0	0
7.35400009	6.75139999	2.00699997	200	0	0
7.33300018	6.75110006	2.00900006	200	0	0
7.33199978	6.75099993	2.00900006	200	0	0
7.34399986	6.75150108	2.02099991	200	0	0
7.34600019	6.75169992	2.0079999	200	0	0
7.33699989	6.75169992	2.02099991	200	0	0
7.33500004	6.75110006	2.03399992	200	0	0
7.34399986	6.75169992	2.03399992	200	0	0
7.33400011	6.75099993	2.03399992	200	0	0
7.33400011	6.75110006	2.05999994	200	0	0
7.35099983	6.75169992	2.05900002	200	0	0
7.3499999	6.75150108	2.05900002	200	0	0
7.32800007	6.75099993	2.06100011	200	0	0
7.35500002	6.75150108	2.08500004	200	0	0
7.34600019	6.75169992	2.07200003	200	0	0
7.33199978	6.75099993	2.08599997	200	0	0
7.32999992	6.75110006	2.08599997	200	0	0
7.35099983	6.75150108	2.07200003	200	0	0
7.33400011	6.75099993	2.07299995	200	0	0
7.34000015	6.75110006	2.07299995	200	0	0
7.33699989	6.75169992	2.08599997	200	0	0
7.34700012	6.75159979	2.08500004	200	0	0
7.34600019	6.75169992	2.09800005	200	0	0
7.35500002	6.75159979	2.09800005	200	0	0
7.33400011	6.75110006	2.09899998	200	0	0
7.33099985	6.75099993	2.09899998	200	0	0
7.33699989	6.75099993	2.12400007	200	0	0
7.33699989	6.75110006	2.12400007	200	0	0
7.33799982	6.75169992	2.12400007	200	0	0
7.33599997	6.75099993	2.1500001	200	0	0
7.33699989	6.75110006	2.1500001	200	0	0
7.34899998	6.75159979	2.14899993	200	0	0
7.34800005	6.75169992	2.14899993	200	0	0
7.33599997	6.75099993	2.16300011	200	0	0
7.33300018	6.75110006	2.16300011	200	0	0
7.34200001	6.75169992	2.16199994	200	0	0
7.35599995	6.75159979	2.16199994	200	0	0
7.34399986	6.75169992	2.18799996	200	0	0
7.32999992	6.75099993	2.18899989	200	0	0
7.33699989	6.75110006	2.18799996	200	0	0
7.3579998	6.75159979	2.20000005	200	0	0
7.33400011	6.75110006	2.21399999	200	0	0
7.33400011	6.75099993	2.21399999	200	0	0
7.33599997	6.75110006	2.20099998	200	0	0
7.33400011	6.75099993	2.20099998	200	0	0
7.34899998	6.75169992	2.20099998	200	0	0
7.34700012	6.75169992	2.21399999	200	0	0
7.329	6.75110006	2.227	200	0	0
7.33699989	6.75099993	2.227	200	0	0
7.34000015	6.75169992	2.227	200	0	0
7.33099985	6.75110006	2.25300002	200	0	0
7.34399986	6.75099993	2.25200009	200	0	0
7.34299994	6.75169992	2.25200009	200	0	0
7.33699989	6.75110006	2.2650001	200	0	0
7.34000015	6.75169992	2.27800012	200	0	0
7.34499979	6.75169992	2.2650001	200	0	0
7.33400011	6.75110006	2.27800012	200	0	0
7.33799982	6.75099993	2.27800012	200	0	0
7.33400011	6.75099993	2.26600003	200	0	0
7.34800005	6.75169992	2.29099989	200	0	0
7.33400011	6.75099993	2.29099989	200	0	0
7.33099985	6.75110006	2.29099989	200	0	0
7.34000015	6.75099993	2.31699991	200	0	0
7.33599997	6.75110006	2.31699991	200	0	0
7.34200001	6.75169992	2.31699991	200	0	0
7.34299994	6.75169992	2.329	200	0	0
7.33699989	6.75099993	2.34200001	200	0	0
7.33199978	6.75110006	2.34200001	200	0	0
7.33799982	6.75099993	2.32999992	200	0	0
7.33900023	6.75169992	2.34200001	200	0	0
7.33500004	6.75099993	2.35500002	200	0	0
7.34600019	6.75169992	2.35500002	200	0	0
7.34100008	6.75169992	2.38100004	200	0	0
7.33300018	6.75110006	2.38100004	200	0	0
7.33199978	6.75099993	2.38100004	200	0	0
7.34200001	6.75110006	2.4059999	200	0	0
7.33699989	6.75099993	2.4059999	200	0	0
7.33900023	6.75110006	2.39400005	200	0	0
7.34100008	6.75099993	2.39400005	200	0	0
7.34100008	6.75169992	2.39400005	200	0	0
7.35500002	6.75159979	2.4059999	200	0	0
7.34100008	6.75169992	2.4059999	200	0	0
7.35300016	6.75169992	2.41899991	200	0	0
7.34000015	6.75099993	2.41899991	200	0	0
7.33900023	6.75110006	2.45799994	200	0	0
7.3670001	6.75159979	2.45799994	200	0	0
7.35400009	6.75169992	2.45799994	200	0	0
7.33699989	6.75099993	2.45799994	200	0	0
7.35699987	6.75150108	2.49600005	200	0	0
7.34600019	6.75169992	2.48300004	200	0	0
7.34499979	6.75099993	2.49600005	200	0	0
7.33500004	6.75110006	2.49600005	200	0	0
7.35900021	6.75150108	2.48300004	200	0	0
7.34200001	6.75099993	2.48300004	200	0	0
7.33599997	6.75110006	2.48300004	200	0	0
7.33900023	6.75169992	2.49600005	200	0	0
7.36299992	6.75159979	2.49600005	200	0	0
7.35599995	6.75150108	2.50900006	200	0	0
7.34899998	6.75169992	2.50900006	200	0	0
7.33500004	6.75110006	2.50900006	200	0	0
7.33300018	6.75099993	2.50900006	200	0	0
7.34399986	6.75099993	2.54699993	200	0	0
7.34200001	6.75110006	2.54699993	200	0	0
7.34200001	6.75169992	2.52200007	200	0	0
7.36000013	6.75150108	2.52200007	200	0	0
7.33799982	6.75099993	2.52200007	200	0	0
7.33599997	6.75110006	2.52200007	200	0	0
7.34499979	6.75169992	2.54699993	200	0	0
7.3579998	6.75150108	2.5480001	200	0	0
7.34000015	6.75110006	2.58599997	200	0	0
7.329	6.75139999	2.58599997	200	0	0
7.34000015	6.75099993	2.57299995	200	0	0
7.34899998	6.75169992	2.58599997	200	0	0
7.34299994	6.75110006	2.57299995	200	0	0
7.33799982	6.75099993	2.55999994	200	0	0
7.34899998	6.75169992	2.57299995	200	0	0
7.33300018	6.75110006	2.55999994	200	0	0
7.3579998	6.75139999	2.57299995	200	0	0
7.36399984	6.75150108	2.57299995	200	0	0
7.34800005	6.75169992	2.55999994	200	0	0
7.36399984	6.75150108	2.56100011	200	0	0
7.33900023	6.75099993	2.58599997	200	0	0
7.34899998	6.75169992	2.61199999	200	0	0
7.34299994	6.75110006	2.63700008	200	0	0
7.3499999	6.75099993	2.63700008	200	0	0
7.34399986	6.75139999	2.62400007	200	0	0
7.34000015	6.75110006	2.62400007	200	0	0
7.33900023	6.75099993	2.62400007	200	0	0
7.3499999	6.75139999	2.61199999	200	0	0
7.33799982	6.75110006	2.61100006	200	0	0
7.34299994	6.75099993	2.61199999	200	0	0
7.35200024	6.75169992	2.625	200	0	0
7.35900021	6.75139999	2.63800001	200	0	0
7.35099983	6.75169992	2.63700008	200	0	0
7.35900021	6.75139999	2.67600012	200	0	0
7.3579998	6.75129986	2.67600012	200	0	0
7.34200001	6.75099993	2.67600012	200	0	0
7.33900023	6.75110006	2.67600012	200	0	0
7.35099983	6.75169992	2.6500001	200	0	0
7.36100006	6.75139999	2.65100002	200	0	0
7.36399984	6.75129986	2.65100002	200	0	0
7.34399986	6.75099993	2.6500001	200	0	0
7.34899998	6.75110006	2.6500001	200	0	0
7.34700012	6.75169992	2.67600012	200	0	0
7.34899998	6.75129986	2.7019999	200	0	0
7.34200001	6.75110006	2.68899989	200	0	0
7.34499979	6.75169992	2.70099998	200	0	0
7.35699987	6.75129986	2.68899989	200	0	0
7.35200024	6.75169992	2.68899989	200	0	0
7.3499999	6.75169992	2.71499991	200	0	0
7.35699987	6.75129986	2.71499991	200	0	0
7.34100008	6.75099993	2.71399999	200	0	0
7.34100008	6.75110006	2.71399999	200	0	0
7.34000015	6.75099993	2.70099998	200	0	0
7.34299994	6.75110006	2.70099998	200	0	0
7.34200001	6.75099993	2.76600003	200	0	0
7.33400011	6.75110006	2.7650001	200	0	0
7.3499999	6.75169992	2.76600003	200	0	0
7.35900021	6.75119972	2.76600003	200	0	0
7.34700012	6.75099993	2.75300002	200	0	0
7.34100008	6.75110006	2.75300002	200	0	0
7.35500002	6.75169992	2.75300002	200	0	0
7.36100006	6.75119972	2.75300002	200	0	0
7.34000015	6.75099993	2.74000001	200	0	0
7.36000013	6.75129986	2.75300002	200	0	0
7.33799982	6.75110006	2.74000001	200	0	0
7.34499979	6.75169992	2.74000001	200	0	0
7.35699987	6.75169992	2.77900004	200	0	0
7.34399986	6.75099993	2.77800012	200	0	0
7.35699987	6.75119972	2.77900004	200	0	0
7.35200024	6.75169992	2.80500007	200	0	0
7.33900023	6.75099993	2.8039999	200	0	0
7.34399986	6.75110006	2.8039999	200	0	0
7.34600019	6.75119972	2.8039999	200	0	0
7.35500002	6.75169992	2.82999992	200	0	0
7.3579998	6.75169992	2.81800008	200	0	0
7.34100008	6.75110006	2.84299994	200	0	0
7.34800005	6.75099993	2.84299994	200	0	0
7.35900021	6.75119972	2.83100009	200	0	0
7.33599997	6.75110006	2.82999992	200	0	0
7.34899998	6.75099993	2.82999992	200	0	0
7.3499999	6.75119972	2.81699991	200	0	0
7.329	6.75110006	2.81599998	200	0	0
7.33599997	6.75099993	2.81699991	200	0	0
7.35500002	6.75169992	2.84299994	200	0	0
7.35500002	6.75169992	2.86899996	200	0	0
7.34499979	6.75099993	2.86899996	200	0	0
7.34200001	6.75110006	2.86800003	200	0	0
7.34000015	6.75110006	2.88100004	200	0	0
7.35500002	6.75169992	2.89499998	200	0	0
7.35599995	6.75169992	2.88199997	200	0	0
7.34899998	6.75099993	2.89499998	200	0	0
7.34200001	6.75110006	2.89400005	200	0	0
7.34899998	6.75099993	2.88199997	200	0	0
7.34299994	6.75110006	2.90700006	200	0	0
7.35400009	6.75169992	2.90799999	200	0	0
7.34800005	6.75099993	2.93300009	200	0	0
7.34000015	6.75110006	2.93300009	200	0	0
7.34600019	6.75099993	2.90700006	200	0	0
7.35699987	6.75169992	2.93400002	200	0	0
7.34499979	6.75110006	2.9460001	200	0	0
7.35200024	6.75169992	2.9460001	200	0	0
7.35200024	6.75099993	2.95900011	200	0	0
7.34200001	6.75110006	2.95799994	200	0	0
7.36100006	6.75099993	2.94700003	200	0	0
7.35300016	6.75099993	2.97199988	200	0	0
7.34299994	6.75110006	2.97099996	200	0	0
7.35300016	6.75169992	2.97199988	200	0	0
7.34899998	6.75099993	2.99799991	200	0	0
7.3499999	6.75110006	2.99799991	200	0	0
7.35099983	6.75169992	2.99799991	200	0	0
7.34700012	6.75110006	3.023	200	0	0
7.34800005	6.75099993	3.023	200	0	0
7.35300016	6.75099993	3.01099992	200	0	0
7.34600019	6.75110006	3.00999999	200	0	0
7.35200024	6.75169992	3.01099992	200	0	0
7.38000011	6.75159979	3.02600002	200	0	0
7.35599995	6.75169992	3.02399993	200	0	0
7.34399986	6.75099993	3.03600001	200	0	0
7.34700012	6.75110006	3.03600001	200	0	0
7.37900019	6.75159979	3.03900003	200	0	0
7.36199999	6.75169992	3.03699994	200	0	0
7.34200001	6.75110006	3.06200004	200	0	0
7.35599995	6.75099993	3.06299996	200	0	0
7.36999989	6.75159979	3.06399989	200	0	0
7.36100006	6.75169992	3.06299996	200	0	0
7.36899996	6.75119972	3.08999991	200	0	0
7.34399986	6.75110006	3.08800006	200	0	0
7.35200024	6.75099993	3.08800006	200	0	0
7.34499979	6.75110006	3.07500005	200	0	0
7.34700012	6.75099993	3.07500005	200	0	0
7.36100006	6.75169992	3.07599998	200	0	0
7.36999989	6.75159979	3.0769999	200	0	0
7.37099981	6.75159979	3.08999991	200	0	0
7.36000013	6.75169992	3.08899999	200	0	0
7.35599995	6.75169992	3.102	200	0	0
7.3670001	6.75159979	3.102	200	0	0
7.36299992	6.75119972	3.102	200	0	0
7.35200024	6.75099993	3.10100007	200	0	0
7.34700012	6.75110006	3.10100007	200	0	0
7.36000013	6.75119972	3.12800002	200	0	0
7.35400009	6.75110006	3.12700009	200	0	0
7.34600019	6.75099993	3.12599993	200	0	0
7.35200024	6.75169992	3.12700009	200	0	0
7.37200022	6.75159979	3.12899995	200	0	0
7.36899996	6.75159979	3.14199996	200	0	0
7.35900021	6.75119972	3.15400004	200	0	0
7.34899998	6.75099993	3.15300012	200	0	0
7.34399986	6.75110006	3.15199995	200	0	0
7.35900021	6.75119972	3.14100003	200	0	0
7.3499999	6.75099993	3.1400001	200	0	0
7.34800005	6.75110006	3.1400001	200	0	0
7.35699987	6.75169992	3.15300012	200	0	0
7.36399984	6.75159979	3.15400004	200	0	0
7.36100006	6.75169992	3.14100003	200	0	0
7.36199999	6.75169992	3.16700006	200	0	0
7.35200024	6.75099993	3.16599989	200	0	0
7.34700012	6.75110006	3.16499996	200	0	0
7.35599995	6.75119972	3.16599989	200	0	0
7.36399984	6.75129986	3.19300008	200	0	0
7.36399984	6.75159979	3.19300008	200	0	0
7.3579998	6.75169992	3.19199991	200	0	0
7.36299992	6.75119972	3.19300008	200	0	0
7.34100008	6.75110006	3.19099998	200	0	0
7.36499977	6.75159979	3.2190001	200	0	0
7.34800005	6.75099993	3.21700001	200	0	0
7.35699987	6.75169992	3.20499992	200	0	0
7.36600018	6.75129986	3.2190001	200	0	0
7.34800005	6.75110006	3.21700001	200	0	0
7.36499977	6.75159979	3.20600009	200	0	0
7.35099983	6.75099993	3.20499992	200	0	0
7.36600018	6.75129986	3.20600009	200	0	0
7.34800005	6.75110006	3.204	200	0	0
7.35599995	6.75169992	3.21799994	200	0	0
7.36899996	6.75129986	3.23200011	200	0	0
7.36600018	6.75169992	3.23200011	200	0	0
7.36399984	6.75159979	3.23200011	200	0	0
7.3499999	6.75099993	3.23000002	200	0	0
7.34499979	6.75110006	3.23000002	200	0	0
7.3670001	6.75129986	3.2579999	200	0	0
7.36100006	6.75159979	3.2579999	200	0	0
7.36299992	6.75169992	3.2579999	200	0	0
7.35300016	6.75099993	3.25699997	200	0	0
7.3499999	6.75110006	3.25600004	200	0	0
7.36199999	6.75169992	3.28399992	200	0	0
7.3670001	6.75159979	3.28399992	200	0	0
7.35099983	6.75099993	3.28299999	200	0	0
7.34600019	6.75110006	3.28200006	200	0	0
7.36499977	6.75139999	3.28399992	200	0	0
7.35599995	6.75169992	3.26999998	200	0	0
7.36100006	6.75159979	3.27099991	200	0	0
7.34700012	6.75099993	3.26900005	200	0	0
7.35200024	6.75110006	3.26999998	200	0	0
7.36000013	6.75129986	3.27099991	200	0	0
7.35099983	6.75099993	3.29500008	200	0	0
7.35200024	6.75110006	3.296	200	0	0
7.36600018	6.75139999	3.29699993	200	0	0
7.36399984	6.75169992	3.29699993	200	0	0
7.36199999	6.75159979	3.29699993	200	0	0
7.36100006	6.75169992	3.32299995	200	0	0
7.34700012	6.75099993	3.3210001	200	0	0
7.36199999	6.75159979	3.32299995	200	0	0
7.35099983	6.75110006	3.3210001	200	0	0
7.36499977	6.75169992	3.34899998	200	0	0
7.36800003	6.75159979	3.3499999	200	0	0
7.34700012	6.75110006	3.34699988	200	0	0
7.37400007	6.75139999	3.3499999	200	0	0
7.36600018	6.75169992	3.33599997	200	0	0
7.36899996	6.75159979	3.33699989	200	0	0
7.35699987	6.75099993	3.33500004	200	0	0
7.34600019	6.75110006	3.33400011	200	0	0
7.36899996	6.75139999	3.33699989	200	0	0
7.34800005	6.75110006	3.3599999	200	0	0
7.3670001	6.75139999	3.36199999	200	0	0
7.37099981	6.75150108	3.36299992	200	0	0
7.37400007	6.75169992	3.36299992	200	0	0
7.36600018	6.75159979	3.36199999	200	0	0
7.35400009	6.75099993	3.36100006	200	0	0
7.35300016	6.75099993	3.38700008	200	0	0
7.34499979	6.75110006	3.38599992	200	0	0
7.3670001	6.75169992	3.38899994	200	0	0
7.37400007	6.75150108	3.3900001	200	0	0
7.35200024	6.75110006	3.4000001	200	0	0
7.3670001	6.75150108	3.41499996	200	0	0
7.36499977	6.75159979	3.41499996	200	0	0
7.36100006	6.75169992	3.41400003	200	0	0
7.36800003	6.75150108	3.40199995	200	0	0
7.36399984	6.75159979	3.40100002	200	0	0
7.36199999	6.75169992	3.40100002	200	0	0
7.35200024	6.75110006	3.41300011	200	0	0
7.35699987	6.75099993	3.41300011	200	0	0
7.35200024	6.75099993	3.4000001	200	0	0
7.35500002	6.75110006	3.42600012	200	0	0
7.36800003	6.75150108	3.42799997	200	0	0
7.37200022	6.75159979	3.4289999	200	0	0
7.36800003	6.75169992	3.42799997	200	0	0
7.35900021	6.75099993	3.42700005	200	0	0
7.35500002	6.75110006	3.4519999	200	0	0
7.34800005	6.75099993	3.45099998	200	0	0
7.35599995	6.75169992	3.45300007	200	0	0
7.36399984	6.75159979	3.454	200	0	0
7.36499977	6.75150108	3.454	200	0	0
7.37599993	6.75150108	3.46799994	200	0	0
7.35599995	6.75099993	3.47900009	200	0	0
7.34600019	6.75110006	3.477	200	0	0
7.35099983	6.75099993	3.46499991	200	0	0
7.34600019	6.75110006	3.46399999	200	0	0
7.36499977	6.75159979	3.46700001	200	0	0
7.36299992	6.75159979	3.48000002	200	0	0
7.35300016	6.75169992	3.47799993	200	0	0
7.35500002	6.75169992	3.46600008	200	0	0
7.35300016	6.75099993	3.49099994	200	0	0
7.34800005	6.75110006	3.49099994	200	0	0
7.35900021	6.75169992	3.4920001	200	0	0
7.36800003	6.75159979	3.49300003	200	0	0
7.35200024	6.75099993	3.51699996	200	0	0
7.34399986	6.75110006	3.51600003	200	0	0
7.35599995	6.75169992	3.51799989	200	0	0
7.36499977	6.75159979	3.51900005	200	0	0
7.36999989	6.75159979	3.53299999	200	0	0
7.35900021	6.75099993	3.54399991	200	0	0
7.3499999	6.75110006	3.54299998	200	0	0
7.34600019	6.75110006	3.52999997	200	0	0
7.36800003	6.75159979	3.546	200	0	0
7.36199999	6.75169992	3.54500008	200	0	0
7.36499977	6.75169992	3.53200006	200	0	0
7.35500002	6.75110006	3.55699992	200	0	0
7.36600018	6.75169992	3.55900002	200	0	0
7.3670001	6.75159979	3.55900002	200	0	0
7.35599995	6.75099993	3.55699992	200	0	0
7.35900021	6.75110006	3.58400011	200	0	0
7.3499999	6.75099993	3.58299994	200	0	0
7.36399984	6.75169992	3.58500004	200	0	0
7.37699986	6.75099993	3.61299992	200	0	0
7.36000013	6.75110006	3.61100006	200	0	0
7.36600018	6.75099993	3.59800005	200	0	0
7.35400009	6.75110006	3.59599996	200	0	0
7.36199999	6.75159979	3.59800005	200	0	0
7.36800003	6.75159979	3.61199999	200	0	0
7.36899996	6.75169992	3.61199999	200	0	0
7.3670001	6.75169992	3.59800005	200	0	0
7.37200022	6.75169992	3.62599993	200	0	0
7.36899996	6.75159979	3.625	200	0	0
7.38600016	6.75099993	3.62800002	200	0	0
7.35900021	6.75110006	3.62400007	200	0	0
7.35400009	6.75110006	3.64899993	200	0	0
7.36899996	6.75159979	3.65100002	200	0	0
7.36299992	6.75169992	3.65100002	200	0	0
7.38000011	6.75099993	3.68000007	200	0	0
7.36100006	6.75159979	3.66300011	200	0	0
7.39599991	6.75099993	3.66899991	200	0	0
7.35099983	6.75110006	3.67499995	200	0	0
7.34600019	6.75110006	3.66100001	200	0	0
7.3670001	6.75159979	3.67799997	200	0	0
7.3670001	6.75169992	3.67799997	200	0	0
7.36600018	6.75169992	3.66400003	200	0	0
7.36899996	6.75159979	3.69099998	200	0	0
7.35500002	6.75110006	3.68899989	200	0	0
7.36199999	6.75169992	3.69000006	200	0	0
7.36899996	6.75169992	3.71799994	200	0	0
7.40199995	6.75099993	3.72300005	200	0	0
7.35599995	6.75110006	3.71499991	200	0	0
7.37099981	6.75159979	3.73099995	200	0	0
7.34700012	6.75110006	3.74000001	200	0	0
7.35099983	6.75110006	3.72799993	200	0	0
7.36999989	6.75169992	3.74399996	200	0	0
7.3670001	6.75159979	3.74399996	200	0	0
7.36399984	6.75169992	3.73000002	200	0	0
7.36999989	6.75159979	3.7579999	200	0	0
7.35099983	6.75110006	3.75399995	200	0	0
7.37599993	6.75169992	3.75900006	200	0	0
7.36199999	6.75169992	3.78299999	200	0	0
7.3670001	6.75159979	3.78299999	200	0	0
7.35300016	6.75110006	3.7809999	200	0	0
7.35300016	6.75110006	3.79399991	200	0	0
7.37300014	6.75150108	3.81100011	200	0	0
7.37099981	6.75169992	3.81100011	200	0	0
7.3670001	6.75159979	3.80999994	200	0	0
7.375	6.75159979	3.7980001	200	0	0
7.3670001	6.75169992	3.79699993	200	0	0
7.35400009	6.75110006	3.80800009	200	0	0
7.38000011	6.75150108	3.82599998	200	0	0
7.36999989	6.75169992	3.82399988	200	0	0
7.37099981	6.75159979	3.82399988	200	0	0
7.35900021	6.75110006	3.82200003	200	0	0
7.38500023	6.75150108	3.85299993	200	0	0
7.36800003	6.75159979	3.8499999	200	0	0
7.35900021	6.75169992	3.84800005	200	0	0
7.35400009	6.75110006	3.84699988	200	0	0
7.34800005	6.75110006	3.8599999	200	0	0
7.37099981	6.75159979	3.87700009	200	0	0
7.37099981	6.75169992	3.87700009	200	0	0
7.3670001	6.75169992	3.86299992	200	0	0
7.38199997	6.75150108	3.87899995	200	0	0
7.375	6.75139999	3.87800002	200	0	0
7.35599995	6.75110006	3.87400007	200	0	0
7.36100006	6.75110006	3.88899994	200	0	0
7.37699986	6.75139999	3.89199996	200	0	0
7.36800003	6.75169992	3.8900001	200	0	0
7.35500002	6.75110006	3.91400003	200	0	0
7.36899996	6.75169992	3.91700006	200	0	0
7.36899996	6.75139999	3.91700006	200	0	0
7.36600018	6.75159979	3.91599989	200	0	0
7.37400007	6.75169992	3.94499993	200	0	0
7.36899996	6.75159979	3.94400001	200	0	0
7.35699987	6.75110006	3.92799997	200	0	0
7.37300014	6.75169992	3.93099999	200	0	0
7.37599993	6.75139999	3.93199992	200	0	0
7.36999989	6.75159979	3.93099999	200	0	0
7.36100006	6.75110006	3.94199991	200	0	0
7.35699987	6.75110006	3.95499992	200	0	0
7.37799978	6.75139999	3.95900011	200	0	0
7.37200022	6.75159979	3.95799994	200	0	0
7.36899996	6.75169992	3.95700002	200	0	0
7.37300014	6.75129986	3.9849999	200	0	0
7.35599995	6.75110006	3.98099995	200	0	0
7.36899996	6.75169992	3.98399997	200	0	0
7.36999989	6.75159979	3.98399997	200	0	0
7.38100004	6.75139999	3.98600006	200	0	0
7.36800003	6.75129986	4.01100016	200	0	0
7.37200022	6.75159979	3.99799991	200	0	0
7.35200024	6.75110006	4.00699997	200	0	0
7.36999989	6.75129986	3.99699998	200	0	0
7.35599995	6.75110006	3.99399996	200	0	0
7.3829999	6.75159979	4.01399994	200	0	0
7.375	6.75169992	4.01200008	200	0	0
7.37900019	6.75169992	3.99900007	200	0	0
7.36100006	6.75110006	4.02199984	200	0	0
7.35599995	6.75129986	4.02099991	200	0	0
7.37099981	6.75159979	4.0250001	200	0	0
7.375	6.75169992	4.0250001	200	0	0
7.36100006	6.75110006	4.04899979	200	0	0
7.36199999	6.75169992	4.05000019	200	0	0
7.36800003	6.75159979	4.05100012	200	0	0
7.37200022	6.75129986	4.05200005	200	0	0
7.36800003	6.75159979	4.07800007	200	0	0
7.38000011	6.75129986	4.07999992	200	0	0
7.36199999	6.75110006	4.07600021	200	0	0
7.36999989	6.75119972	4.07800007	200	0	0
7.36899996	6.75169992	4.06400013	200	0	0
7.37200022	6.75159979	4.06500006	200	0	0
7.375	6.75129986	4.06599998	200	0	0
7.3579998	6.75110006	4.0619998	200	0	0
7.37300014	6.75169992	4.079	200	0	0
7.37900019	6.75169992	4.09399986	200	0	0
7.37900019	6.75159979	4.09399986	200	0	0
7.38100004	6.75119972	4.09399986	200	0	0
7.36299992	6.75110006	4.09000015	200	0	0
7.37099981	6.75119972	4.11899996	200	0	0
7.3579998	6.75110006	4.11600018	200	0	0
7.38100004	6.75169992	4.12099981	200	0	0
7.36999989	6.75159979	4.11899996	200	0	0
7.36899996	6.75159979	4.13199997	200	0	0
7.36299992	6.75110006	4.14400005	200	0	0
7.38100004	6.75119972	4.13500023	200	0	0
7.35400009	6.75110006	4.12900019	200	0	0
7.37599993	6.75159979	4.14699984	200	0	0
7.375	6.75169992	4.14699984	200	0	0
7.37300014	6.75169992	4.1329999	200	0	0
7.38000011	6.75119972	4.14799976	200	0	0
7.36600018	6.75110006	4.15799999	200	0	0
7.37699986	6.75159979	4.16099977	200	0	0
7.36999989	6.75169992	4.15899992	200	0	0
7.37900019	6.75169992	4.1880002	200	0	0
7.36800003	6.75159979	4.18599987	200	0	0
7.35900021	6.75110006	4.18400002	200	0	0
7.38199997	6.75169992	4.20300007	200	0	0
7.3670001	6.75110006	4.21299982	200	0	0
7.3670001	6.75159979	4.19899988	200	0	0
7.34899998	6.75110006	4.19500017	200	0	0
7.38600016	6.75169992	4.21700001	200	0	0
7.36899996	6.75159979	4.21299982	200	0	0
7.38000011	6.75159979	4.22900009	200	0	0
7.37400007	6.75169992	4.22800016	200	0	0
7.36000013	6.75110006	4.2249999	200	0	0
