7.84299994	6.69190025	-0.751999974	200	0	0
7.83500004	6.69199991	-0.764999986	200	0	0
7.84499979	6.69190025	-0.768999994	200	0	0
7.80499983	6.69199991	-0.816999972	200	0	0
7.82299995	6.69199991	-0.791999996	200	0	0
7.829	6.69190025	-0.795000017	200	0	0
7.82499981	6.69199991	-0.809000015	200	0	0
7.84299994	6.69199991	-0.657000005	200	0	0
7.82999992	6.69190025	-0.81099999	200	0	0
7.82000017	6.69340086	-0.726999998	200	0	0
7.85900021	6.69260025	-0.647000015	200	0	0
7.86100006	6.69250011	-0.648000002	200	0	0
7.829	6.69190025	-0.683000028	200	0	0
7.85200024	6.69260025	-0.660000026	200	0	0
7.85400009	6.69250011	-0.661000013	200	0	0
7.83599997	6.69199991	-0.68599999	200	0	0
7.84800005	6.69250011	-0.689999998	200	0	0
7.85200024	6.69260025	-0.691999972	200	0	0
7.84000015	6.69250011	-0.718999982	200	0	0
7.85300016	6.69260025	-0.725000024	200	0	0
7.84100008	6.69260025	-0.736000001	200	0	0
7.84200001	6.69199991	-0.639999986	200	0	0
7.84299994	6.69190025	-0.640999973	200	0	0
7.86600018	6.69239998	-0.57099998	200	0	0
7.85900021	6.69260025	-0.583999991	200	0	0
7.84399986	6.69199991	-0.561999977	200	0	0
7.8499999	6.69190025	-0.564999998	200	0	0
7.85699987	6.69250011	-0.583000004	200	0	0
7.86299992	6.69260025	-0.601000011	200	0	0
7.86800003	6.69239998	-0.587000012	200	0	0
7.84700012	6.69190025	-0.578999996	200	0	0
7.86499977	6.69250011	-0.601999998	200	0	0
7.85500002	6.69199991	-0.582000017	200	0	0
7.8670001	6.69260025	-0.619000018	200	0	0
7.86499977	6.69239998	-0.601999998	200	0	0
7.85900021	6.69250011	-0.615999997	200	0	0
7.85200024	6.69190025	-0.597000003	200	0	0
7.85200024	6.69199991	-0.597000003	200	0	0
7.85200024	6.69190025	-0.612999976	200	0	0
7.85699987	6.69199991	-0.61500001	200	0	0
7.85699987	6.69260025	-0.566999972	200	0	0
7.85900021	6.69250011	-0.568000019	200	0	0
7.85300016	6.69190025	-0.486999989	200	0	0
7.85400009	6.69199991	-0.488000005	200	0	0
7.84499979	6.69199991	-0.5	200	0	0
7.85699987	6.69190025	-0.504000008	200	0	0
7.8579998	6.69250011	-0.488999993	200	0	0
7.86399984	6.69260025	-0.490999997	200	0	0
7.86299992	6.69229984	-0.490999997	200	0	0
7.85599995	6.69190025	-0.519999981	200	0	0
7.8579998	6.69260025	-0.504999995	200	0	0
7.86499977	6.69250011	-0.507000029	200	0	0
7.85900021	6.69199991	-0.521000028	200	0	0
7.87200022	6.69229984	-0.50999999	200	0	0
7.8579998	6.69190025	-0.536000013	200	0	0
7.88100004	6.69239998	-0.513000011	200	0	0
7.85400009	6.69199991	-0.535000026	200	0	0
7.86600018	6.69260025	-0.523000002	200	0	0
7.88100004	6.69229984	-0.528999984	200	0	0
7.875	6.69239998	-0.52700001	200	0	0
7.86800003	6.69260025	-0.540000021	200	0	0
7.86399984	6.69250011	-0.538999975	200	0	0
7.87099981	6.69239998	-0.541000009	200	0	0
7.86199999	6.69250011	-0.412	200	0	0
7.85599995	6.69260025	-0.425999999	200	0	0
7.8670001	6.69250011	-0.430000007	200	0	0
7.8670001	6.69260025	-0.444999993	200	0	0
7.86899996	6.69219971	-0.414999992	200	0	0
7.85400009	6.69199991	-0.409999996	200	0	0
7.85400009	6.69190025	-0.409999996	200	0	0
7.86899996	6.69260025	-0.462000012	200	0	0
7.87699986	6.69250011	-0.449000001	200	0	0
7.87599993	6.69229984	-0.432999998	200	0	0
7.8670001	6.69219971	-0.430000007	200	0	0
7.8579998	6.69199991	-0.425999999	200	0	0
7.85599995	6.69190025	-0.425999999	200	0	0
7.87799978	6.69229984	-0.449000001	200	0	0
7.87300014	6.69229984	-0.463	200	0	0
7.85200024	6.69199991	-0.439999998	200	0	0
7.86000013	6.69190025	-0.442999989	200	0	0
7.85500002	6.69199991	-0.456999987	200	0	0
7.86199999	6.69190025	-0.458999991	200	0	0
7.86899996	6.69260025	-0.414999992	200	0	0
7.86000013	6.69190025	-0.333999991	200	0	0
7.85900021	6.69199991	-0.333999991	200	0	0
7.85699987	6.69190025	-0.349000007	200	0	0
7.86000013	6.69199991	-0.349999994	200	0	0
7.875	6.69219971	-0.340000004	200	0	0
7.86899996	6.69260025	-0.337000012	200	0	0
7.86299992	6.69190025	-0.365999997	200	0	0
7.87099981	6.69250011	-0.338	200	0	0
7.85500002	6.69199991	-0.363000005	200	0	0
7.86100006	6.69190025	-0.381000012	200	0	0
7.8670001	6.69219971	-0.351999998	200	0	0
7.86100006	6.69260025	-0.349999994	200	0	0
7.86999989	6.69250011	-0.352999985	200	0	0
7.8579998	6.69199991	-0.379999995	200	0	0
7.87699986	6.69219971	-0.370999992	200	0	0
7.87099981	6.69260025	-0.368999988	200	0	0
7.87200022	6.69250011	-0.368999988	200	0	0
7.87699986	6.69219971	-0.386999995	200	0	0
7.87799978	6.69260025	-0.386999995	200	0	0
7.87699986	6.69250011	-0.386999995	200	0	0
7.86800003	6.69250011	-0.25999999	200	0	0
7.87200022	6.69260025	-0.27700001	200	0	0
7.86800003	6.69250011	-0.275000006	200	0	0
7.87400007	6.69260025	-0.293000013	200	0	0
7.8670001	6.69210005	-0.259000003	200	0	0
7.86199999	6.69199991	-0.257999986	200	0	0
7.87799978	6.69260025	-0.308999985	200	0	0
7.86299992	6.69190025	-0.257999986	200	0	0
7.87099981	6.69250011	-0.291999996	200	0	0
7.87599993	6.69250011	-0.308999985	200	0	0
7.85599995	6.69199991	-0.270999998	200	0	0
7.85500002	6.69190025	-0.270999998	200	0	0
7.87900019	6.69210005	-0.279000014	200	0	0
7.88500023	6.69219971	-0.296999991	200	0	0
7.8829999	6.69210005	-0.296000004	200	0	0
7.86000013	6.69199991	-0.287999988	200	0	0
7.86000013	6.69190025	-0.287999988	200	0	0
7.88700008	6.69219971	-0.312999994	200	0	0
7.8829999	6.69210005	-0.31099999	200	0	0
7.86000013	6.69199991	-0.303000003	200	0	0
7.86499977	6.69190025	-0.305000007	200	0	0
7.87599993	6.69260025	-0.261999995	200	0	0
7.85900021	6.69199991	-0.180000007	200	0	0
7.86399984	6.69190025	-0.196999997	200	0	0
7.87099981	6.69199991	-0.199000001	200	0	0
7.86899996	6.69260025	-0.182999998	200	0	0
7.87200022	6.69190025	-0.215000004	200	0	0
7.87699986	6.69250011	-0.186000004	200	0	0
7.8670001	6.69199991	-0.213	200	0	0
7.87099981	6.69190025	-0.230000004	200	0	0
7.87599993	6.69260025	-0.201000005	200	0	0
7.87200022	6.69250011	-0.200000003	200	0	0
7.87799978	6.69210005	-0.216999993	200	0	0
7.8670001	6.69199991	-0.228	200	0	0
7.88399982	6.69210005	-0.233999997	200	0	0
7.875	6.69260025	-0.216000006	200	0	0
7.88100004	6.69250011	-0.217999995	200	0	0
7.87699986	6.69260025	-0.231999993	200	0	0
7.86000013	6.69190025	-0.180000007	200	0	0
7.88199997	6.69260025	-0.111000001	200	0	0
7.87400007	6.69250011	-0.108999997	200	0	0
7.87699986	6.69260025	-0.125	200	0	0
7.84899998	6.69190025	-0.100000001	200	0	0
7.87900019	6.69250011	-0.126000002	200	0	0
7.86399984	6.69199991	-0.104999997	200	0	0
7.87699986	6.69260025	-0.140000001	200	0	0
7.875	6.69260025	-0.155000001	200	0	0
7.87799978	6.69250011	-0.140000001	200	0	0
7.87300014	6.69190025	-0.123000003	200	0	0
7.86999989	6.69199991	-0.122000001	200	0	0
7.87400007	6.69190025	-0.138999999	200	0	0
7.86399984	6.69199991	-0.136000007	200	0	0
7.87099981	6.69190025	-0.152999997	200	0	0
7.86600018	6.69199991	-0.150999993	200	0	0
7.86999989	6.69190025	-0.0460000001	200	0	0
7.86800003	6.69199991	-0.0460000001	200	0	0
7.875	6.69190025	-0.063000001	200	0	0
7.87599993	6.69250011	-0.0329999998	200	0	0
7.87699986	6.69190025	-0.0790000036	200	0	0
7.88000011	6.69199991	-0.0649999976	200	0	0
7.8829999	6.69260025	-0.0359999985	200	0	0
7.87099981	6.69199991	-0.0769999996	200	0	0
7.87599993	6.69250011	-0.0480000004	200	0	0
7.88800001	6.69260025	-0.0520000011	200	0	0
7.8829999	6.69250011	-0.0659999996	200	0	0
7.88800001	6.69260025	-0.0670000017	200	0	0
7.8829999	6.69250011	-0.0810000002	200	0	0
7.88800001	6.69260025	-0.0829999968	200	0	0
7.87099981	6.69190025	-0.0320000015	200	0	0
7.86899996	6.69199991	-0.0309999995	200	0	0
7.88199997	6.69250011	0.0250000004	200	0	0
7.89400005	6.69260025	0.00700000022	200	0	0
7.87599993	6.69199991	0.0419999994	200	0	0
7.87799978	6.69190025	0.0419999994	200	0	0
7.89300013	6.69260025	-0.00800000038	200	0	0
7.87200022	6.69199991	0.0280000009	200	0	0
7.875	6.69190025	0.0280000009	200	0	0
7.88899994	6.69250011	-0.00700000022	200	0	0
7.87599993	6.69190025	0.0120000001	200	0	0
7.88100004	6.69199991	0.00999999978	200	0	0
7.86000013	6.69190025	0.00200000009	200	0	0
7.875	6.69199991	-0.00300000003	200	0	0
7.88899994	6.69250011	0.0379999988	200	0	0
7.88700008	6.69260025	0.0240000002	200	0	0
7.88600016	6.69260025	0.0390000008	200	0	0
7.87200022	6.69190025	0.104000002	200	0	0
7.87900019	6.69210005	0.115999997	200	0	0
7.88700008	6.69260025	0.114	200	0	0
7.88800001	6.69250011	0.114	200	0	0
7.89300013	6.69199991	0.0970000029	200	0	0
7.86999989	6.69190025	0.074000001	200	0	0
7.88399982	6.69260025	0.100000001	200	0	0
7.87300014	6.69199991	0.0729999989	200	0	0
7.88600016	6.69260025	0.0689999983	200	0	0
7.88999987	6.69250011	0.0680000037	200	0	0
7.87400007	6.69199991	0.118000001	200	0	0
7.87900019	6.69190025	0.115999997	200	0	0
7.87200022	6.69250011	0.179000005	200	0	0
7.89099979	6.69219971	0.187999994	200	0	0
7.89599991	6.69260025	0.156000003	200	0	0
7.9000001	6.69210005	0.185000002	200	0	0
7.87799978	6.69190025	0.191	200	0	0
7.88800001	6.69199991	0.188999996	200	0	0
7.8920002	6.69260025	0.143000007	200	0	0
7.89599991	6.69210005	0.171000004	200	0	0
7.88000011	6.69199991	0.175999999	200	0	0
7.88000011	6.69190025	0.175999999	200	0	0
7.89499998	6.69210005	0.157000005	200	0	0
7.90199995	6.69199991	0.155000001	200	0	0
7.87699986	6.69190025	0.162	200	0	0
7.88500023	6.69210005	0.144999996	200	0	0
7.88100004	6.69199991	0.145999998	200	0	0
7.88199997	6.69190025	0.145999998	200	0	0
7.86499977	6.69250011	0.194999993	200	0	0
7.88800001	6.69260025	0.188999996	200	0	0
7.88800001	6.69260025	0.173999995	200	0	0
7.88199997	6.69199991	0.264999986	200	0	0
7.88500023	6.69190025	0.248999998	200	0	0
7.88800001	6.69219971	0.263000011	200	0	0
7.8829999	6.69199991	0.25	200	0	0
7.89499998	6.69260025	0.261000007	200	0	0
7.8920002	6.69250011	0.261999995	200	0	0
7.88600016	6.69190025	0.233999997	200	0	0
7.90199995	6.69219971	0.244000003	200	0	0
7.88800001	6.69199991	0.233999997	200	0	0
7.88600016	6.69190025	0.218999997	200	0	0
7.90700006	6.69210005	0.228	200	0	0
7.89400005	6.69260025	0.246000007	200	0	0
7.89099979	6.69250011	0.246999994	200	0	0
7.8829999	6.69199991	0.219999999	200	0	0
7.9000001	6.69219971	0.230000004	200	0	0
7.90399981	6.69210005	0.214000002	200	0	0
7.89499998	6.69260025	0.231000006	200	0	0
7.89400005	6.69250011	0.231999993	200	0	0
7.90100002	6.69260025	0.215000004	200	0	0
7.88000011	6.69250011	0.221000001	200	0	0
7.88800001	6.69190025	0.263000011	200	0	0
7.88600016	6.69260025	0.338	200	0	0
7.90500021	6.69250011	0.333000004	200	0	0
7.87400007	6.69260025	0.326000005	200	0	0
7.8920002	6.69250011	0.32100001	200	0	0
7.90199995	6.69260025	0.30399999	200	0	0
7.8920002	6.69190025	0.335999995	200	0	0
7.88800001	6.69199991	0.337000012	200	0	0
7.9000001	6.69260025	0.289000005	200	0	0
7.88899994	6.69250011	0.307000011	200	0	0
7.90100002	6.69229984	0.319000006	200	0	0
7.90199995	6.69219971	0.319000006	200	0	0
7.88100004	6.69199991	0.324000001	200	0	0
7.88999987	6.69190025	0.321999997	200	0	0
7.89300013	6.69250011	0.291000009	200	0	0
7.90899992	6.69229984	0.301999986	200	0	0
7.90799999	6.69219971	0.301999986	200	0	0
7.90500021	6.69229984	0.287999988	200	0	0
7.89400005	6.69190025	0.305999994	200	0	0
7.88700008	6.69199991	0.307999998	200	0	0
7.90799999	6.69219971	0.287	200	0	0
7.88700008	6.69190025	0.293000013	200	0	0
7.88800001	6.69199991	0.293000013	200	0	0
7.88999987	6.69199991	0.409999996	200	0	0
7.88800001	6.69190025	0.395999998	200	0	0
7.89099979	6.69199991	0.395999998	200	0	0
7.89699984	6.69190025	0.379000008	200	0	0
7.89799976	6.69190025	0.363999993	200	0	0
7.88700008	6.69199991	0.381999999	200	0	0
7.90100002	6.69250011	0.407999992	200	0	0
7.91099977	6.69260025	0.405000001	200	0	0
7.89099979	6.69199991	0.365999997	200	0	0
7.90600014	6.69229984	0.391000003	200	0	0
7.90299988	6.69250011	0.39199999	200	0	0
7.90700006	6.69229984	0.375999987	200	0	0
7.91200018	6.69229984	0.360000014	200	0	0
7.88899994	6.69250011	0.381000012	200	0	0
7.90100002	6.69260025	0.377999991	200	0	0
7.90199995	6.69250011	0.363000005	200	0	0
7.88800001	6.69190025	0.411000013	200	0	0
7.90700006	6.69260025	0.479999989	200	0	0
7.90399981	6.69250011	0.479999989	200	0	0
7.92000008	6.69239998	0.476000011	200	0	0
7.90799999	6.69260025	0.463999987	200	0	0
7.90399981	6.69250011	0.465999991	200	0	0
7.91599989	6.69260025	0.448000014	200	0	0
7.8920002	6.69190025	0.48300001	200	0	0
7.91200018	6.69239998	0.463	200	0	0
7.9000001	6.69250011	0.451999992	200	0	0
7.88600016	6.69199991	0.469999999	200	0	0
7.89699984	6.69239998	0.453000009	200	0	0
7.89699984	6.69190025	0.467000008	200	0	0
7.90199995	6.69250011	0.437000006	200	0	0
7.91400003	6.69229984	0.433999985	200	0	0
7.89099979	6.69190025	0.453999996	200	0	0
7.88700008	6.69190025	0.441000015	200	0	0
7.8920002	6.69199991	0.43900001	200	0	0
7.91699982	6.69260025	0.505999982	200	0	0
7.90100002	6.69199991	0.55400002	200	0	0
7.89900017	6.69190025	0.540000021	200	0	0
7.89300013	6.69199991	0.541999996	200	0	0
7.90199995	6.69190025	0.524999976	200	0	0
7.89400005	6.69190025	0.512000024	200	0	0
7.89300013	6.69199991	0.52700001	200	0	0
7.90399981	6.69250011	0.55400002	200	0	0
7.90899992	6.69260025	0.551999986	200	0	0
7.89900017	6.69199991	0.510999978	200	0	0
7.90899992	6.69250011	0.537999988	200	0	0
7.92500019	6.69260025	0.533999979	200	0	0
7.91099977	6.69250011	0.523000002	200	0	0
7.91099977	6.69260025	0.523000002	200	0	0
7.91499996	6.69239998	0.507000029	200	0	0
7.90899992	6.69250011	0.508000016	200	0	0
7.9000001	6.69190025	0.555000007	200	0	0
7.90700006	6.69250011	0.597000003	200	0	0
7.93300009	6.69260025	0.589999974	200	0	0
7.91300011	6.69250011	0.58099997	200	0	0
7.91599989	6.69260025	0.579999983	200	0	0
7.91300011	6.69260025	0.624000013	200	0	0
7.91300011	6.69250011	0.624000013	200	0	0
7.91099977	6.69260025	0.610000014	200	0	0
7.90799999	6.69250011	0.611000001	200	0	0
7.90500021	6.69190025	0.625999987	200	0	0
7.90799999	6.69199991	0.625999987	200	0	0
7.89699984	6.69199991	0.614000022	200	0	0
7.90299988	6.69190025	0.611999989	200	0	0
7.89799976	6.69199991	0.598999977	200	0	0
7.90399981	6.69190025	0.597000003	200	0	0
7.90500021	6.69190025	0.583000004	200	0	0
7.89900017	6.69199991	0.583999991	200	0	0
7.92600012	6.69260025	0.649999976	200	0	0
7.91599989	6.69260025	0.69599998	200	0	0
7.90999985	6.69190025	0.66900003	200	0	0
7.90700006	6.69199991	0.66900003	200	0	0
7.90600014	6.69250011	0.684000015	200	0	0
7.91400003	6.69260025	0.681999981	200	0	0
7.90399981	6.69190025	0.656000018	200	0	0
7.90500021	6.69199991	0.654999971	200	0	0
7.91099977	6.69250011	0.66900003	200	0	0
7.92799997	6.69260025	0.665000021	200	0	0
7.90899992	6.69250011	0.653999984	200	0	0
7.90399981	6.69199991	0.699000001	200	0	0
7.90199995	6.69190025	0.685000002	200	0	0
7.89799976	6.69199991	0.68599999	200	0	0
7.90899992	6.69250011	0.698000014	200	0	0
7.90700006	6.69190025	0.698000014	200	0	0
7.90799999	6.69199991	0.726999998	200	0	0
7.92000008	6.69250011	0.739000022	200	0	0
7.92299986	6.69260025	0.737999976	200	0	0
7.91800022	6.69250011	0.725000024	200	0	0
7.92199993	6.69260025	0.723999977	200	0	0
7.9000001	6.69199991	0.772000015	200	0	0
7.89499998	6.69190025	0.745000005	200	0	0
7.90700006	6.69199991	0.755999982	200	0	0
7.90899992	6.69190025	0.726999998	200	0	0
7.90600014	6.69199991	0.741999984	200	0	0
7.92500019	6.69250011	0.76700002	200	0	0
7.92199993	6.69260025	0.76700002	200	0	0
7.91699982	6.69250011	0.754000008	200	0	0
7.92199993	6.69260025	0.753000021	200	0	0
7.88600016	6.69190025	0.760999978	200	0	0
7.93499994	6.69239998	0.79400003	200	0	0
7.921	6.69260025	0.796999991	200	0	0
7.91499996	6.69250011	0.797999978	200	0	0
7.90799999	6.69190025	0.799000025	200	0	0
7.90999985	6.69199991	0.799000025	200	0	0
7.92399979	6.69239998	0.824999988	200	0	0
7.92199993	6.69250011	0.824999988	200	0	0
7.92799997	6.69260025	0.824000001	200	0	0
7.91699982	6.69190025	0.870000005	200	0	0
7.91200018	6.69199991	0.870999992	200	0	0
7.92299986	6.69260025	0.838999987	200	0	0
7.921	6.69250011	0.839999974	200	0	0
7.92999983	6.69239998	0.838	200	0	0
7.90799999	6.69190025	0.842999995	200	0	0
7.90600014	6.69199991	0.842999995	200	0	0
7.91499996	6.69190025	0.827000022	200	0	0
7.91099977	6.69199991	0.828000009	200	0	0
7.93400002	6.69239998	0.865999997	200	0	0
7.93300009	6.69260025	0.865999997	200	0	0
7.92199993	6.69199991	0.883000016	200	0	0
7.92299986	6.69250011	0.883000016	200	0	0
7.92999983	6.69260025	0.880999982	200	0	0
7.93400002	6.69239998	0.880999982	200	0	0
7.921	6.69250011	0.869000018	200	0	0
7.92700005	6.69260025	0.896000028	200	0	0
7.93599987	6.69239998	0.894999981	200	0	0
7.92500019	6.69250011	0.897000015	200	0	0
7.91800022	6.69190025	0.898000002	200	0	0
7.90899992	6.69190025	0.885999978	200	0	0
7.90999985	6.69199991	0.913999975	200	0	0
7.93100023	6.69260025	0.910000026	200	0	0
7.92299986	6.69250011	0.912	200	0	0
7.91099977	6.69199991	0.899999976	200	0	0
7.93599987	6.69229984	0.908999979	200	0	0
7.93900013	6.69229984	0.893999994	200	0	0
7.9289999	6.69260025	0.93900001	200	0	0
7.93100023	6.69229984	0.953000009	200	0	0
7.92999983	6.69250011	0.93900001	200	0	0
7.91699982	6.69199991	0.95599997	200	0	0
7.91800022	6.69190025	0.95599997	200	0	0
7.94099998	6.69229984	0.936999977	200	0	0
7.91099977	6.69199991	0.943000019	200	0	0
7.91900015	6.69190025	0.940999985	200	0	0
7.91499996	6.69190025	0.912999988	200	0	0
7.92000008	6.69190025	0.970000029	200	0	0
7.92799997	6.69250011	0.953999996	200	0	0
7.92999983	6.69260025	0.953000009	200	0	0
7.92199993	6.69199991	0.98299998	200	0	0
7.92600012	6.69250011	0.967999995	200	0	0
7.93300009	6.69229984	0.967000008	200	0	0
7.91499996	6.69199991	0.971000016	200	0	0
7.9289999	6.69250011	0.981999993	200	0	0
7.93400002	6.69260025	0.981000006	200	0	0
7.93300009	6.69229984	0.981000006	200	0	0
7.91400003	6.69190025	0.985000014	200	0	0
7.91900015	6.69190025	1.01300001	200	0	0
7.92600012	6.69199991	1.01100004	200	0	0
7.9289999	6.69250011	1.01100004	200	0	0
7.93300009	6.69260025	1.00999999	200	0	0
7.94099998	6.69219971	1.00800002	200	0	0
7.94000006	6.69260025	1.03699994	200	0	0
7.93200016	6.69250011	1.02499998	200	0	0
7.94000006	6.69260025	1.023	200	0	0
7.9380002	6.69229984	1.00899994	200	0	0
7.92399979	6.69190025	1.03999996	200	0	0
7.92199993	6.69199991	1.04100001	200	0	0
7.921	6.69229984	1.04100001	200	0	0
7.9289999	6.69250011	1.03900003	200	0	0
7.9380002	6.69219971	1.03799999	200	0	0
7.91900015	6.69190025	1.02699995	200	0	0
7.91800022	6.69199991	1.02699995	200	0	0
7.92399979	6.69190025	1.05499995	200	0	0
7.91900015	6.69199991	1.05499995	200	0	0
7.92299986	6.69219971	1.05499995	200	0	0
7.93200016	6.69260025	1.05299997	200	0	0
7.93300009	6.69250011	1.05299997	200	0	0
7.92799997	6.69250011	1.06799996	200	0	0
7.93599987	6.69260025	1.06700003	200	0	0
7.92700005	6.69199991	1.08299994	200	0	0
7.92399979	6.69190025	1.08299994	200	0	0
7.92199993	6.69199991	1.11199999	200	0	0
7.92000008	6.69190025	1.11199999	200	0	0
7.93900013	6.69219971	1.09500003	200	0	0
7.93100023	6.69210005	1.09599996	200	0	0
7.91800022	6.69199991	1.09800005	200	0	0
7.92600012	6.69190025	1.097	200	0	0
7.94399977	6.69219971	1.08000004	200	0	0
7.94000006	6.69210005	1.10899997	200	0	0
7.9380002	6.69250011	1.09500003	200	0	0
7.93300009	6.69260025	1.11000001	200	0	0
7.9380002	6.69260025	1.09500003	200	0	0
7.94000006	6.69210005	1.12300003	200	0	0
7.92999983	6.69250011	1.125	200	0	0
7.94099998	6.69260025	1.12300003	200	0	0
7.94000006	6.69219971	1.10899997	200	0	0
7.92399979	6.69250011	1.11199999	200	0	0
7.921	6.69199991	1.12600005	200	0	0
7.92299986	6.69190025	1.12600005	200	0	0
7.92399979	6.69199991	1.15400004	200	0	0
7.92500019	6.69190025	1.15400004	200	0	0
7.94000006	6.69210005	1.15199995	200	0	0
7.93599987	6.69250011	1.15199995	200	0	0
7.93599987	6.69260025	1.15199995	200	0	0
7.94099998	6.69260025	1.16600001	200	0	0
7.9369998	6.69250011	1.16600001	200	0	0
7.92600012	6.69199991	1.18200004	200	0	0
7.94199991	6.69210005	1.17999995	200	0	0
7.92999983	6.69190025	1.16799998	200	0	0
7.92799997	6.69199991	1.16799998	200	0	0
7.93200016	6.69210005	1.16700006	200	0	0
7.93499994	6.69250011	1.19500005	200	0	0
7.9460001	6.69260025	1.17900002	200	0	0
7.93599987	6.69250011	1.18099999	200	0	0
7.94199991	6.69210005	1.19400001	200	0	0
7.92999983	6.69190025	1.19599998	200	0	0
7.92700005	6.69199991	1.19599998	200	0	0
7.92500019	6.69190025	1.18299997	200	0	0
7.93900013	6.69260025	1.19400001	200	0	0
7.95100021	6.69210005	1.22099996	200	0	0
7.9460001	6.69260025	1.222	200	0	0
7.94299984	6.69250011	1.222	200	0	0
7.9289999	6.69190025	1.22500002	200	0	0
7.92999983	6.69199991	1.22399998	200	0	0
7.93200016	6.69190025	1.25199997	200	0	0
7.9380002	6.69250011	1.23699999	200	0	0
7.91499996	6.69199991	1.24100006	200	0	0
7.93499994	6.69190025	1.23800004	200	0	0
7.95100021	6.69260025	1.23500001	200	0	0
7.94399977	6.69250011	1.25100005	200	0	0
7.9460001	6.69260025	1.25	200	0	0
7.94000006	6.69250011	1.26499999	200	0	0
7.94700003	6.69260025	1.26400006	200	0	0
7.92199993	6.69199991	1.26800001	200	0	0
7.93499994	6.69190025	1.26600003	200	0	0
7.92199993	6.69199991	1.25399995	200	0	0
7.95100021	6.69260025	1.29200006	200	0	0
7.94399977	6.69250011	1.29299998	200	0	0
7.92999983	6.69190025	1.29499996	200	0	0
7.9460001	6.69260025	1.30700004	200	0	0
7.94299984	6.69250011	1.30700004	200	0	0
7.92999983	6.69190025	1.30900002	200	0	0
7.94000006	6.69199991	1.30799997	200	0	0
7.92799997	6.69199991	1.296	200	0	0
7.94500017	6.69250011	1.32099998	200	0	0
7.93200016	6.69199991	1.32299995	200	0	0
7.93400002	6.69190025	1.32299995	200	0	0
7.93599987	6.69260025	1.32299995	200	0	0
7.93499994	6.69199991	1.33700001	200	0	0
7.93400002	6.69190025	1.33700001	200	0	0
7.93900013	6.69260025	1.33599997	200	0	0
7.93900013	6.69250011	1.33599997	200	0	0
7.94000006	6.69260025	1.36399996	200	0	0
7.94799995	6.69250011	1.36300004	200	0	0
7.94000006	6.69190025	1.36399996	200	0	0
7.94199991	6.69199991	1.36399996	200	0	0
7.954	6.69260025	1.39100003	200	0	0
7.94700003	6.69250011	1.37800002	200	0	0
7.95800018	6.69260025	1.37600005	200	0	0
7.93900013	6.69199991	1.37899995	200	0	0
7.94500017	6.69250011	1.39199996	200	0	0
7.93200016	6.69199991	1.39400005	200	0	0
7.94399977	6.69190025	1.37800002	200	0	0
7.94700003	6.69250011	1.40600002	200	0	0
7.94299984	6.69260025	1.40600002	200	0	0
7.93599987	6.69199991	1.40699995	200	0	0
7.9369998	6.69190025	1.40699995	200	0	0
7.92600012	6.69190025	1.39499998	200	0	0
7.9460001	6.69190025	1.43400002	200	0	0
7.9380002	6.69199991	1.43499994	200	0	0
7.95100021	6.69250011	1.43400002	200	0	0
7.95599985	6.69260025	1.43299997	200	0	0
7.95100021	6.69250011	1.46200001	200	0	0
7.95100021	6.69260025	1.46200001	200	0	0
7.94799995	6.69250011	1.44799995	200	0	0
7.954	6.69260025	1.44700003	200	0	0
7.93900013	6.69199991	1.449	200	0	0
7.93900013	6.69199991	1.46300006	200	0	0
7.94199991	6.69190025	1.46300006	200	0	0
7.94299984	6.69190025	1.449	200	0	0
7.94899988	6.69210005	1.47599995	200	0	0
7.94099998	6.69250011	1.477	200	0	0
7.96000004	6.69260025	1.47500002	200	0	0
7.94399977	6.69190025	1.477	200	0	0
7.94099998	6.69199991	1.477	200	0	0
7.95900011	6.69260025	1.50300002	200	0	0
7.954	6.69250011	1.50399995	200	0	0
7.95499992	6.69210005	1.50399995	200	0	0
7.94299984	6.69190025	1.505	200	0	0
7.94099998	6.69199991	1.505	200	0	0
7.94199991	6.69190025	1.53299999	200	0	0
7.96199989	6.69210005	1.51699996	200	0	0
7.93900013	6.69199991	1.51999998	200	0	0
7.94299984	6.69190025	1.51900005	200	0	0
7.93900013	6.69199991	1.53400004	200	0	0
7.96000004	6.69210005	1.53100002	200	0	0
7.95100021	6.69250011	1.51800001	200	0	0
7.954	6.69250011	1.53199995	200	0	0
7.95900011	6.69260025	1.53100002	200	0	0
7.95499992	6.69260025	1.51800001	200	0	0
7.95699978	6.69210005	1.546	200	0	0
7.95499992	6.69250011	1.546	200	0	0
7.95800018	6.69260025	1.54499996	200	0	0
7.94000006	6.69199991	1.54799998	200	0	0
7.94700003	6.69190025	1.54700005	200	0	0
7.94899988	6.69199991	1.57500005	200	0	0
7.96299982	6.69210005	1.57299995	200	0	0
7.96299982	6.69260025	1.57299995	200	0	0
7.95100021	6.69250011	1.574	200	0	0
7.94700003	6.69190025	1.57500005	200	0	0
7.954	6.69250011	1.602	200	0	0
7.96299982	6.69260025	1.60099995	200	0	0
7.96299982	6.69210005	1.58700001	200	0	0
7.96299982	6.69219971	1.58700001	200	0	0
7.954	6.69250011	1.58800006	200	0	0
7.96299982	6.69260025	1.58700001	200	0	0
7.94299984	6.69199991	1.58899999	200	0	0
7.94899988	6.69199991	1.60300004	200	0	0
7.95800018	6.69219971	1.602	200	0	0
7.94999981	6.69190025	1.58899999	200	0	0
7.94799995	6.69190025	1.60300004	200	0	0
7.96999979	6.69219971	1.61399996	200	0	0
7.94099998	6.69199991	1.61800003	200	0	0
7.94700003	6.69190025	1.61699998	200	0	0
7.95800018	6.69250011	1.61600006	200	0	0
7.96799994	6.69260025	1.61500001	200	0	0
7.96999979	6.69219971	1.64300001	200	0	0
7.96099997	6.69250011	1.64400005	200	0	0
7.96400023	6.69260025	1.64300001	200	0	0
7.95100021	6.69190025	1.64499998	200	0	0
7.94700003	6.69199991	1.64499998	200	0	0
7.96099997	6.69250011	1.65799999	200	0	0
7.95499992	6.69199991	1.67200005	200	0	0
7.96400023	6.69219971	1.65699995	200	0	0
7.95100021	6.69190025	1.65900004	200	0	0
7.94999981	6.69199991	1.65900004	200	0	0
7.97100019	6.69219971	1.671	200	0	0
7.96500015	6.69260025	1.65699995	200	0	0
7.95800018	6.69250011	1.67200005	200	0	0
7.96500015	6.69260025	1.671	200	0	0
7.96299982	6.69229984	1.671	200	0	0
7.95499992	6.69199991	1.68599999	200	0	0
7.96600008	6.69219971	1.68499994	200	0	0
7.96199989	6.69229984	1.68599999	200	0	0
7.97800016	6.69260025	1.68400002	200	0	0
7.96099997	6.69250011	1.68599999	200	0	0
7.97100019	6.69229984	1.71300006	200	0	0
7.97100019	6.69260025	1.71300006	200	0	0
7.96299982	6.69250011	1.71399999	200	0	0
7.97200012	6.69229984	1.74100006	200	0	0
7.96899986	6.69260025	1.727	200	0	0
7.95300007	6.69250011	1.72800004	200	0	0
7.95200014	6.69199991	1.72899997	200	0	0
7.96400023	6.69250011	1.74199998	200	0	0
7.96999979	6.69260025	1.74100006	200	0	0
7.95200014	6.69199991	1.74300003	200	0	0
7.96999979	6.69229984	1.755	200	0	0
7.96299982	6.69250011	1.75600004	200	0	0
7.96899986	6.69260025	1.755	200	0	0
7.96199989	6.69199991	1.76999998	200	0	0
7.95699978	6.69199991	1.75600004	200	0	0
7.97599983	6.69239998	1.76800001	200	0	0
7.97599983	6.69229984	1.76800001	200	0	0
7.9749999	6.69260025	1.76900005	200	0	0
7.96299982	6.69250011	1.76999998	200	0	0
7.97800016	6.69239998	1.80999994	200	0	0
7.96000004	6.69199991	1.79799998	200	0	0
7.9749999	6.69260025	1.79700005	200	0	0
7.96500015	6.69250011	1.79700005	200	0	0
7.98000002	6.69239998	1.796	200	0	0
7.97100019	6.69229984	1.79700005	200	0	0
7.96500015	6.69250011	1.81099999	200	0	0
7.97399998	6.69260025	1.81099999	200	0	0
7.96999979	6.69260025	1.82500005	200	0	0
7.96600008	6.69250011	1.82500005	200	0	0
7.97599983	6.69239998	1.82500005	200	0	0
7.96099997	6.69199991	1.81200004	200	0	0
7.97399998	6.69239998	1.85300004	200	0	0
7.96899986	6.69260025	1.85300004	200	0	0
7.96700001	6.69250011	1.85300004	200	0	0
7.96500015	6.69199991	1.86699998	200	0	0
7.96099997	6.69199991	1.85399997	200	0	0
7.96700001	6.69250011	1.86699998	200	0	0
7.98000002	6.69239998	1.86600006	200	0	0
7.97700024	6.69260025	1.86600006	200	0	0
7.96299982	6.69199991	1.89499998	200	0	0
7.97100019	6.69260025	1.89499998	200	0	0
7.96999979	6.69250011	1.89499998	200	0	0
7.95800018	6.69199991	1.88199997	200	0	0
7.97800016	6.69260025	1.88	200	0	0
7.96799994	6.69250011	1.88100004	200	0	0
7.97399998	6.69239998	1.88100004	200	0	0
7.96700001	6.69250011	1.92299998	200	0	0
7.97300005	6.69260025	1.92299998	200	0	0
7.97800016	6.69260025	1.95000005	200	0	0
7.97200012	6.69250011	1.95099998	200	0	0
7.96500015	6.69199991	1.93700004	200	0	0
7.96099997	6.69190025	1.92400002	200	0	0
7.97100019	6.69260025	1.93700004	200	0	0
7.97200012	6.69250011	1.93700004	200	0	0
7.96099997	6.69199991	1.92400002	200	0	0
7.96600008	6.69190025	1.96500003	200	0	0
7.96299982	6.69199991	1.96500003	200	0	0
7.96400023	6.69190025	1.95099998	200	0	0
7.96199989	6.69199991	1.95099998	200	0	0
7.97399998	6.69250011	1.96500003	200	0	0
7.97399998	6.69199991	1.99300003	200	0	0
7.96600008	6.69190025	1.99300003	200	0	0
7.94500017	6.69260025	1.96599996	200	0	0
7.95800018	6.69260025	1.99399996	200	0	0
7.97200012	6.69250011	1.99300003	200	0	0
7.96700001	6.69199991	2.00699997	200	0	0
7.97599983	6.69250011	2.01999998	200	0	0
7.98000002	6.69260025	2.00600004	200	0	0
7.97200012	6.69250011	2.00699997	200	0	0
7.96799994	6.69199991	2.02099991	200	0	0
7.96700001	6.69190025	2.00699997	200	0	0
7.97100019	6.69250011	2.03500009	200	0	0
7.97700024	6.69199991	2.03399992	200	0	0
7.96899986	6.69190025	2.02099991	200	0	0
7.97100019	6.69190025	2.03500009	200	0	0
7.96299982	6.69199991	2.06299996	200	0	0
7.96899986	6.69190025	2.06299996	200	0	0
7.96600008	6.69250011	2.06299996	200	0	0
7.96999979	6.69190025	2.08999991	200	0	0
7.97599983	6.69199991	2.08999991	200	0	0
7.97700024	6.69250011	2.07599998	200	0	0
7.96899986	6.69190025	2.0769999	200	0	0
7.96799994	6.69199991	2.0769999	200	0	0
7.97300005	6.69250011	2.08999991	200	0	0
7.96799994	6.69190025	2.10400009	200	0	0
7.97599983	6.69199991	2.10400009	200	0	0
7.97700024	6.69250011	2.10400009	200	0	0
7.98699999	6.69239998	2.13199997	200	0	0
7.98600006	6.69260025	2.13199997	200	0	0
7.9829998	6.69250011	2.13199997	200	0	0
7.9749999	6.69190025	2.13199997	200	0	0
7.97800016	6.69199991	2.13199997	200	0	0
7.9749999	6.69190025	2.16000009	200	0	0
7.97300005	6.69199991	2.16000009	200	0	0
7.9920001	6.69239998	2.15899992	200	0	0
7.97700024	6.69260025	2.16000009	200	0	0
7.97800016	6.69250011	2.16000009	200	0	0
7.97700024	6.69199991	2.17400002	200	0	0
7.98000002	6.69250011	2.17400002	200	0	0
7.99499989	6.69239998	2.1730001	200	0	0
7.98799992	6.69260025	2.1730001	200	0	0
7.97800016	6.69199991	2.2019999	200	0	0
7.99499989	6.69260025	2.20099998	200	0	0
7.98500013	6.69250011	2.20099998	200	0	0
7.98999977	6.69260025	2.22900009	200	0	0
7.97300005	6.69190025	2.21600008	200	0	0
7.99300003	6.69229984	2.22900009	200	0	0
7.98600006	6.69250011	2.22900009	200	0	0
7.99700022	6.69239998	2.22900009	200	0	0
7.9749999	6.69199991	2.21600008	200	0	0
7.98099995	6.69250011	2.21600008	200	0	0
7.99599981	6.69239998	2.21499991	200	0	0
7.97599983	6.69199991	2.23000002	200	0	0
7.97399998	6.69190025	2.23000002	200	0	0
7.99800014	6.69229984	2.24300003	200	0	0
7.97399998	6.69190025	2.24399996	200	0	0
7.98099995	6.69250011	2.24300003	200	0	0
7.98999977	6.69260025	2.24300003	200	0	0
7.96700001	6.69190025	2.27200007	200	0	0
7.98000002	6.69199991	2.27099991	200	0	0
7.99499989	6.69260025	2.27099991	200	0	0
7.9829998	6.69250011	2.27099991	200	0	0
7.99399996	6.69229984	2.27099991	200	0	0
7.97900009	6.69190025	2.29900002	200	0	0
7.98799992	6.69250011	2.28500009	200	0	0
7.9829998	6.69199991	2.29900002	200	0	0
7.99499989	6.69229984	2.28500009	200	0	0
7.97800016	6.69190025	2.28500009	200	0	0
7.9829998	6.69199991	2.28500009	200	0	0
7.98699999	6.69250011	2.29900002	200	0	0
7.98899984	6.69260025	2.29900002	200	0	0
7.99100018	6.69260025	2.28500009	200	0	0
8.0010004	6.69219971	2.31299996	200	0	0
7.99700022	6.69229984	2.31299996	200	0	0
7.98500013	6.69250011	2.31299996	200	0	0
8.00300026	6.69229984	2.29900002	200	0	0
7.98000002	6.69199991	2.31299996	200	0	0
7.97900009	6.69190025	2.31299996	200	0	0
8.0010004	6.69219971	2.34100008	200	0	0
7.98199987	6.69199991	2.34100008	200	0	0
7.9829998	6.69190025	2.34100008	200	0	0
7.99300003	6.69260025	2.34100008	200	0	0
7.98999977	6.69250011	2.34100008	200	0	0
7.9829998	6.69199991	2.36899996	200	0	0
7.98400021	6.69190025	2.36899996	200	0	0
7.99700022	6.69219971	2.35500002	200	0	0
7.98400021	6.69190025	2.35500002	200	0	0
7.97700024	6.69199991	2.35500002	200	0	0
7.98999977	6.69250011	2.35500002	200	0	0
7.98799992	6.69250011	2.36899996	200	0	0
7.99700022	6.69260025	2.36899996	200	0	0
7.99499989	6.69260025	2.35500002	200	0	0
7.99499989	6.69219971	2.36899996	200	0	0
7.99800014	6.69219971	2.38199997	200	0	0
7.98000002	6.69199991	2.3829999	200	0	0
7.9829998	6.69190025	2.3829999	200	0	0
7.99700022	6.69260025	2.3829999	200	0	0
7.98899984	6.69250011	2.3829999	200	0	0
7.98999977	6.69199991	2.41000009	200	0	0
8.00399971	6.69210005	2.41000009	200	0	0
7.99900007	6.69219971	2.41000009	200	0	0
7.99300003	6.69250011	2.41000009	200	0	0
7.99800014	6.69260025	2.41000009	200	0	0
7.98600006	6.69190025	2.41100001	200	0	0
7.98799992	6.69199991	2.43799996	200	0	0
8.00199986	6.69210005	2.43799996	200	0	0
8.00300026	6.69260025	2.42400002	200	0	0
7.9829998	6.69190025	2.42400002	200	0	0
7.98899984	6.69250011	2.42400002	200	0	0
7.98799992	6.69199991	2.42400002	200	0	0
7.99900007	6.69210005	2.42400002	200	0	0
8.00199986	6.69219971	2.42400002	200	0	0
7.98999977	6.69190025	2.43799996	200	0	0
7.99399996	6.69250011	2.43799996	200	0	0
8.0010004	6.69260025	2.43799996	200	0	0
8.00500011	6.69210005	2.4519999	200	0	0
7.9920001	6.69190025	2.4519999	200	0	0
7.99900007	6.69260025	2.4519999	200	0	0
7.9920001	6.69250011	2.49399996	200	0	0
8.00699997	6.69210005	2.49399996	200	0	0
7.98999977	6.69190025	2.49399996	200	0	0
7.9920001	6.69199991	2.49399996	200	0	0
8.0010004	6.69260025	2.49399996	200	0	0
7.99100018	6.69190025	2.53600001	200	0	0
7.99100018	6.69199991	2.53600001	200	0	0
7.99399996	6.69250011	2.52200007	200	0	0
7.99100018	6.69190025	2.52200007	200	0	0
7.99300003	6.69199991	2.52200007	200	0	0
8.00399971	6.69260025	2.52200007	200	0	0
7.99700022	6.69260025	2.53600001	200	0	0
7.9920001	6.69250011	2.53600001	200	0	0
7.99300003	6.69199991	2.54999995	200	0	0
7.9920001	6.69190025	2.54999995	200	0	0
7.99900007	6.69250011	2.54999995	200	0	0
8.00699997	6.69260025	2.54999995	200	0	0
8.00699997	6.69260025	2.59200001	200	0	0
8	6.69250011	2.59200001	200	0	0
7.99100018	6.69190025	2.56399989	200	0	0
7.99300003	6.69199991	2.56399989	200	0	0
8.00399971	6.69260025	2.56399989	200	0	0
7.99800014	6.69250011	2.56399989	200	0	0
7.98699999	6.69199991	2.59200001	200	0	0
7.99300003	6.69190025	2.59200001	200	0	0
7.99900007	6.69260025	2.60599995	200	0	0
7.99499989	6.69199991	2.63400006	200	0	0
7.99599981	6.69190025	2.63400006	200	0	0
7.99900007	6.69250011	2.60599995	200	0	0
7.99800014	6.69199991	2.61999989	200	0	0
7.99599981	6.69190025	2.61999989	200	0	0
7.98500013	6.69199991	2.60599995	200	0	0
7.99499989	6.69190025	2.60599995	200	0	0
7.99700022	6.69250011	2.61999989	200	0	0
8.00800037	6.69260025	2.61999989	200	0	0
8.00899982	6.69260025	2.63400006	200	0	0
8.0010004	6.69250011	2.63400006	200	0	0
7.99399996	6.69190025	2.66199994	200	0	0
8	6.69250011	2.69000006	200	0	0
8.01200008	6.69260025	2.69000006	200	0	0
7.98899984	6.69199991	2.66100001	200	0	0
8.00300026	6.69250011	2.67600012	200	0	0
8.01299953	6.69260025	2.67600012	200	0	0
8.00300026	6.69250011	2.66199994	200	0	0
8.00800037	6.69260025	2.66199994	200	0	0
8.00500011	6.69199991	2.67600012	200	0	0
7.99800014	6.69190025	2.69000006	200	0	0
7.98999977	6.69199991	2.68899989	200	0	0
7.99900007	6.69190025	2.67600012	200	0	0
8.01599979	6.69260025	2.704	200	0	0
8.00199986	6.69250011	2.704	200	0	0
7.99800014	6.69199991	2.73200011	200	0	0
7.99700022	6.69190025	2.73099995	200	0	0
7.99599981	6.69190025	2.704	200	0	0
7.99800014	6.69199991	2.704	200	0	0
8.00500011	6.69250011	2.73200011	200	0	0
8.01099968	6.69260025	2.73200011	200	0	0
7.99900007	6.69199991	2.75999999	200	0	0
7.99900007	6.69190025	2.75999999	200	0	0
8.00199986	6.69199991	2.74600005	200	0	0
7.99800014	6.69190025	2.74499989	200	0	0
8.00399971	6.69199991	2.77399993	200	0	0
8.01799965	6.69210005	2.77399993	200	0	0
8.01399994	6.69260025	2.77399993	200	0	0
8.00800037	6.69250011	2.77399993	200	0	0
8.01399994	6.69210005	2.75999999	200	0	0
8.00899982	6.69260025	2.75999999	200	0	0
8.00500011	6.69250011	2.75999999	200	0	0
8.00699997	6.69250011	2.74600005	200	0	0
8.00300026	6.69190025	2.77399993	200	0	0
8.00500011	6.69250011	2.80200005	200	0	0
8.00500011	6.69199991	2.82999992	200	0	0
8.02200031	6.69210005	2.81599998	200	0	0
8.0010004	6.69199991	2.81599998	200	0	0
7.9920001	6.69190025	2.81500006	200	0	0
8.02400017	6.69210005	2.80200005	200	0	0
8.00399971	6.69199991	2.80200005	200	0	0
7.99800014	6.69190025	2.80100012	200	0	0
7.98099995	6.69250011	2.829	200	0	0
8.01500034	6.69260025	2.82999992	200	0	0
8.01399994	6.69260025	2.81599998	200	0	0
8.00699997	6.69250011	2.8440001	200	0	0
8.02000046	6.69210005	2.8440001	200	0	0
8.00599957	6.69190025	2.8440001	200	0	0
8.00899982	6.69199991	2.8440001	200	0	0
8.01900005	6.69210005	2.82999992	200	0	0
8.00599957	6.69190025	2.87199998	200	0	0
8.00699997	6.69199991	2.87199998	200	0	0
8.01799965	6.69260025	2.8440001	200	0	0
8.01500034	6.69219971	2.87199998	200	0	0
7.9920001	6.69250011	2.87100005	200	0	0
8.00899982	6.69260025	2.87199998	200	0	0
8.01500034	6.69260025	2.9000001	200	0	0
8.00300026	6.69250011	2.9000001	200	0	0
8.00599957	6.69199991	2.88599992	200	0	0
8.0170002	6.69210005	2.88599992	200	0	0
8.02099991	6.69219971	2.88599992	200	0	0
8.02000046	6.69260025	2.88599992	200	0	0
7.9920001	6.69250011	2.88499999	200	0	0
8.00500011	6.69250011	2.91400003	200	0	0
8.02000046	6.69219971	2.91499996	200	0	0
8.00699997	6.69190025	2.91400003	200	0	0
8.00699997	6.69199991	2.91400003	200	0	0
8.02200031	6.69219971	2.90100002	200	0	0
8.00800037	6.69190025	2.9000001	200	0	0
8.00800037	6.69199991	2.9000001	200	0	0
8.00500011	6.69190025	2.88599992	200	0	0
8.01900005	6.69260025	2.91400003	200	0	0
8.01799965	6.69260025	2.94199991	200	0	0
8.00899982	6.69250011	2.94199991	200	0	0
8.02400017	6.69219971	2.94300008	200	0	0
8.00699997	6.69199991	2.94199991	200	0	0
8.01299953	6.69199991	2.97000003	200	0	0
8.00599957	6.69190025	2.97000003	200	0	0
8.02600002	6.69229984	2.95700002	200	0	0
8.02099991	6.69219971	2.95700002	200	0	0
8.00699997	6.69199991	2.95600009	200	0	0
8.01000023	6.69190025	2.95600009	200	0	0
8.01299953	6.69250011	2.95600009	200	0	0
8.02299976	6.69229984	2.97099996	200	0	0
8.01799965	6.69260025	2.95600009	200	0	0
8.02200031	6.69260025	2.97099996	200	0	0
8.01299953	6.69250011	2.97000003	200	0	0
8.02700043	6.69229984	2.9849999	200	0	0
8.0170002	6.69250011	2.9849999	200	0	0
8.01900005	6.69260025	2.9849999	200	0	0
8.01200008	6.69199991	2.98399997	200	0	0
8.01200008	6.69190025	2.98399997	200	0	0
8.01599979	6.69250011	3.01300001	200	0	0
8.01099968	6.69199991	3.01200008	200	0	0
8.02200031	6.69229984	3.01300001	200	0	0
8.0170002	6.69260025	3.01300001	200	0	0
8.01900005	6.69250011	3.04099989	200	0	0
8.02099991	6.69229984	3.02699995	200	0	0
8.01099968	6.69239998	3.02600002	200	0	0
8.01500034	6.69250011	3.02699995	200	0	0
8.01900005	6.69260025	3.02699995	200	0	0
8.01200008	6.69199991	3.02600002	200	0	0
8.01099968	6.69199991	3.03999996	200	0	0
8.02299976	6.69229984	3.04099989	200	0	0
8.01099968	6.69190025	3.02600002	200	0	0
8.01099968	6.69190025	3.03999996	200	0	0
8.02000046	6.69250011	3.05500007	200	0	0
8.03600025	6.69239998	3.05599999	200	0	0
8.02999973	6.69260025	3.04200006	200	0	0
8.01799965	6.69199991	3.05500007	200	0	0
8.01099968	6.69190025	3.0539999	200	0	0
8.02999973	6.69239998	3.04200006	200	0	0
8.02400017	6.69239998	3.08299994	200	0	0
8.01900005	6.69260025	3.08299994	200	0	0
8.02000046	6.69250011	3.08299994	200	0	0
8.01299953	6.69190025	3.08299994	200	0	0
8.0170002	6.69199991	3.08299994	200	0	0
8.02200031	6.69250011	3.11100006	200	0	0
8.01799965	6.69199991	3.09699988	200	0	0
8.03100014	6.69239998	3.09800005	200	0	0
8.02900028	6.69260025	3.09800005	200	0	0
8.01799965	6.69250011	3.09699988	200	0	0
8.01599979	6.69190025	3.11100006	200	0	0
8.02099991	6.69199991	3.11100006	200	0	0
8.01500034	6.69190025	3.09699988	200	0	0
8.01900005	6.69199991	3.125	200	0	0
8.03899956	6.69239998	3.12700009	200	0	0
8.03100014	6.69260025	3.12599993	200	0	0
8.02200031	6.69250011	3.12599993	200	0	0
8.03800011	6.69260025	3.11299992	200	0	0
8.0340004	6.69239998	3.11199999	200	0	0
8.01500034	6.69190025	3.125	200	0	0
8.02499962	6.69250011	3.15400004	200	0	0
8.03600025	6.69239998	3.15499997	200	0	0
8.01799965	6.69190025	3.15300012	200	0	0
8.01500034	6.69199991	3.15300012	200	0	0
8.0170002	6.69250011	3.18099999	200	0	0
8.02000046	6.69199991	3.16799998	200	0	0
8.04800034	6.69239998	3.17000008	200	0	0
8.02000046	6.69250011	3.16799998	200	0	0
8.04599953	6.69260025	3.1559999	200	0	0
8.01900005	6.69190025	3.18199992	200	0	0
8.02299976	6.69199991	3.18199992	200	0	0
8.02099991	6.69199991	3.1960001	200	0	0
8.02099991	6.69250011	3.1960001	200	0	0
8.02000046	6.69190025	3.1960001	200	0	0
8.02099991	6.69199991	3.22399998	200	0	0
8.02499962	6.69250011	3.2249999	200	0	0
8.02600002	6.69250011	3.25300002	200	0	0
8.02200031	6.69199991	3.23799992	200	0	0
8.02499962	6.69250011	3.23900008	200	0	0
8.01900005	6.69190025	3.23799992	200	0	0
8.02299976	6.69190025	3.25300002	200	0	0
8.02299976	6.69199991	3.25300002	200	0	0
8.02900028	6.69250011	3.26699996	200	0	0
8.02900028	6.69190025	3.26699996	200	0	0
8.02900028	6.69199991	3.26699996	200	0	0
8.02400017	6.69190025	3.29500008	200	0	0
8.02200031	6.69199991	3.29500008	200	0	0
8.02099991	6.69250011	3.29500008	200	0	0
8.02400017	6.69199991	3.32299995	200	0	0
8.02499962	6.69250011	3.30900002	200	0	0
8.02799988	6.69199991	3.30999994	200	0	0
8.02600002	6.69190025	3.30900002	200	0	0
8.02999973	6.69250011	3.32399988	200	0	0
8.02600002	6.69199991	3.33800006	200	0	0
8.02900028	6.69190025	3.32399988	200	0	0
8.04500008	6.69239998	3.33999991	200	0	0
8.0340004	6.69250011	3.33899999	200	0	0
8.0369997	6.69239998	3.32500005	200	0	0
8.02600002	6.69190025	3.33800006	200	0	0
8.02600002	6.69199991	3.36599994	200	0	0
8.02299976	6.69190025	3.36599994	200	0	0
8.02499962	6.69190025	3.39400005	200	0	0
8.03800011	6.69250011	3.3670001	200	0	0
8.03899956	6.69239998	3.36800003	200	0	0
8.02799988	6.69199991	3.38100004	200	0	0
8.02600002	6.69190025	3.38000011	200	0	0
8.02900028	6.69250011	3.38100004	200	0	0
8.0369997	6.69239998	3.38199997	200	0	0
8.04899979	6.69239998	3.41100001	200	0	0
8.03499985	6.69250011	3.39599991	200	0	0
8.04899979	6.69239998	3.39700007	200	0	0
8.03199959	6.69190025	3.40899992	200	0	0
8.02700043	6.69199991	3.40899992	200	0	0
8.03199959	6.69199991	3.39499998	200	0	0
8.03600025	6.69250011	3.41000009	200	0	0
8.02499962	6.69199991	3.43700004	200	0	0
8.0340004	6.69250011	3.43799996	200	0	0
8.04300022	6.69239998	3.43899989	200	0	0
8.04300022	6.69239998	3.45300007	200	0	0
8.04899979	6.69229984	3.454	200	0	0
8.03100014	6.69199991	3.4519999	200	0	0
8.03499985	6.69190025	3.43799996	200	0	0
8.04599953	6.69229984	3.48200011	200	0	0
8.03600025	6.69250011	3.46700001	200	0	0
8.04300022	6.69239998	3.46799994	200	0	0
8.03499985	6.69199991	3.48099995	200	0	0
8.03299999	6.69190025	3.48099995	200	0	0
8.04500008	6.69229984	3.46799994	200	0	0
8.0369997	6.69250011	3.45300007	200	0	0
8.03600025	6.69190025	3.46700001	200	0	0
8.02900028	6.69199991	3.46600008	200	0	0
8.0340004	6.69250011	3.48099995	200	0	0
8.03800011	6.69239998	3.50999999	200	0	0
8.04100037	6.69239998	3.48200011	200	0	0
8.03999996	6.69239998	3.52399993	200	0	0
8.05000019	6.69229984	3.5250001	200	0	0
8.03899956	6.69250011	3.50999999	200	0	0
8.03100014	6.69190025	3.523	200	0	0
8.02099991	6.69199991	3.52200007	200	0	0
8.04599953	6.69229984	3.51099992	200	0	0
8.0340004	6.69190025	3.50900006	200	0	0
8.02900028	6.69199991	3.50900006	200	0	0
8.03600025	6.69250011	3.52399993	200	0	0
8.03899956	6.69250011	3.53800011	200	0	0
8.03499985	6.69190025	3.53800011	200	0	0
8.03299999	6.69199991	3.53800011	200	0	0
8.05000019	6.69229984	3.53999996	200	0	0
8.04199982	6.69239998	3.53900003	200	0	0
8.04500008	6.69239998	3.55299997	200	0	0
8.0369997	6.69250011	3.56699991	200	0	0
8.04800034	6.69219971	3.56800008	200	0	0
8.03499985	6.69190025	3.55200005	200	0	0
8.0369997	6.69199991	3.55200005	200	0	0
8.03299999	6.69199991	3.57999992	200	0	0
8.02200031	6.69250011	3.60700011	200	0	0
8.0369997	6.69190025	3.59500003	200	0	0
8.03299999	6.69199991	3.59500003	200	0	0
8.04699993	6.69219971	3.59699988	200	0	0
8.03899956	6.69190025	3.58100009	200	0	0
8.04399967	6.69250011	3.59599996	200	0	0
8.04300022	6.69239998	3.59599996	200	0	0
8.05000019	6.69219971	3.58299994	200	0	0
8.04100037	6.69250011	3.58200002	200	0	0
8.03600025	6.69239998	3.58100009	200	0	0
8.03499985	6.69190025	3.60899997	200	0	0
8.06000042	6.69210005	3.61299992	200	0	0
8.0340004	6.69199991	3.60899997	200	0	0
8.05500031	6.69219971	3.61199999	200	0	0
8.04599953	6.69239998	3.61100006	200	0	0
8.0369997	6.69199991	3.62400007	200	0	0
8.05500031	6.69210005	3.62599993	200	0	0
8.05300045	6.69219971	3.62599993	200	0	0
8.05000019	6.69239998	3.62599993	200	0	0
8.04500008	6.69250011	3.625	200	0	0
8.04199982	6.69190025	3.625	200	0	0
8.04199982	6.69199991	3.65300012	200	0	0
8.05000019	6.69210005	3.65400004	200	0	0
8.04399967	6.69239998	3.65400004	200	0	0
8.04500008	6.69250011	3.65400004	200	0	0
8.04199982	6.69190025	3.65300012	200	0	0
8.04399967	6.69190025	3.66799998	200	0	0
8.03999996	6.69199991	3.66700006	200	0	0
8.06000042	6.69210005	3.68499994	200	0	0
8.05099964	6.69250011	3.69799995	200	0	0
8.04100037	6.69199991	3.68199992	200	0	0
8.04199982	6.69239998	3.6960001	200	0	0
8.04699993	6.69250011	3.68300009	200	0	0
8.04300022	6.69239998	3.68199992	200	0	0
8.04399967	6.69250011	3.66799998	200	0	0
8.05200005	6.69190025	3.68300009	200	0	0
8.05599976	6.69210005	3.69799995	200	0	0
8.04399967	6.69199991	3.69700003	200	0	0
8.03800011	6.69199991	3.72399998	200	0	0
8.03999996	6.69239998	3.73900008	200	0	0
8.06700039	6.69190025	3.74300003	200	0	0
8.04899979	6.69250011	3.72600007	200	0	0
8.03299999	6.69199991	3.73799992	200	0	0
8.06299973	6.69190025	3.72799993	200	0	0
8.04800034	6.69250011	3.74000001	200	0	0
8.04100037	6.69239998	3.75399995	200	0	0
8.04199982	6.69199991	3.75399995	200	0	0
8.04800034	6.69250011	3.76900005	200	0	0
8.0539999	6.69239998	3.76999998	200	0	0
8.04100037	6.69199991	3.76799989	200	0	0
8.05300045	6.69250011	3.75500011	200	0	0
8.03499985	6.69199991	3.796	200	0	0
8.05300045	6.69239998	3.81299996	200	0	0
8.05000019	6.69250011	3.7980001	200	0	0
8.04899979	6.69199991	3.81200004	200	0	0
8.05000019	6.69239998	3.7980001	200	0	0
8.04500008	6.69199991	3.82599998	200	0	0
8.05099964	6.69250011	3.8269999	200	0	0
8.04599953	6.69239998	3.82599998	200	0	0
8.05300045	6.69250011	3.81299996	200	0	0
8.04899979	6.69199991	3.84100008	200	0	0
8.05599976	6.69250011	3.84299994	200	0	0
8.05799961	6.69239998	3.84299994	200	0	0
8.04800034	6.69239998	3.88499999	200	0	0
8.05300045	6.69250011	3.87100005	200	0	0
8.04899979	6.69199991	3.88499999	200	0	0
8.05000019	6.69199991	3.86999989	200	0	0
8.05200005	6.69199991	3.9000001	200	0	0
8.06000042	6.69250011	3.90100002	200	0	0
8.05099964	6.69239998	3.9000001	200	0	0
8.04800034	6.69250011	3.88499999	200	0	0
8.06200027	6.69239998	3.91599989	200	0	0
8.0539999	6.69199991	3.91499996	200	0	0
8.06499958	6.69250011	3.91599989	200	0	0
8.05300045	6.69199991	3.97300005	200	0	0
8.06299973	6.69239998	3.97399998	200	0	0
8.05700016	6.69250011	3.97300005	200	0	0
8.06700039	6.69210005	3.96000004	200	0	0
8.04899979	6.69199991	3.95700002	200	0	0
8.05700016	6.69250011	3.95900011	200	0	0
8.05500031	6.69239998	3.95799994	200	0	0
8.0539999	6.69199991	3.94400001	200	0	0
8.06299973	6.69210005	3.94499993	200	0	0
8.05599976	6.69239998	3.94400001	200	0	0
8.05200005	6.69250011	3.94300008	200	0	0
8.07699966	6.69210005	3.977	200	0	0
8.06499958	6.69239998	3.98900008	200	0	0
8.07199955	6.69210005	3.99099994	200	0	0
8.05500031	6.69199991	3.98699999	200	0	0
8.06200027	6.69250011	3.98900008	200	0	0
8.06299973	6.69239998	4.0619998	200	0	0
8.07199955	6.69219971	4.0630002	200	0	0
8.06299973	6.69250011	4.04699993	200	0	0
8.06099987	6.69199991	4.06099987	200	0	0
8.06799984	6.69239998	4.04799986	200	0	0
8.07400036	6.69219971	4.04899979	200	0	0
8.05500031	6.69250011	4.03100014	200	0	0
8.06400013	6.69199991	4.04699993	200	0	0
8.06200027	6.69239998	4.03200006	200	0	0
8.07299995	6.69219971	4.03499985	200	0	0
8.06200027	6.69250011	4.01800013	200	0	0
8.07400036	6.69210005	4.03499985	200	0	0
8.05599976	6.69239998	4.0170002	200	0	0
8.05799961	6.69199991	4.03200006	200	0	0
8.06799984	6.69210005	4.01900005	200	0	0
8.05700016	6.69199991	4.0170002	200	0	0
8.06700039	6.69250011	4.0630002	200	0	0
8.06599998	6.69199991	4.13600016	200	0	0
8.08199978	6.69229984	4.13899994	200	0	0
8.06799984	6.69250011	4.13600016	200	0	0
8.06700039	6.69239998	4.13600016	200	0	0
8.06099987	6.69199991	4.11999989	200	0	0
8.07299995	6.69219971	4.12200022	200	0	0
8.07600021	6.69229984	4.12300014	200	0	0
8.06700039	6.69250011	4.12099981	200	0	0
8.06499958	6.69239998	4.12099981	200	0	0
8.05700016	6.69199991	4.10500002	200	0	0
8.07499981	6.69219971	4.1079998	200	0	0
8.06099987	6.69199991	4.09100008	200	0	0
8.06700039	6.69250011	4.10699987	200	0	0
8.06499958	6.69239998	4.10599995	200	0	0
8.07400036	6.69219971	4.09299994	200	0	0
8.06499958	6.69250011	4.09100008	200	0	0
8.06299973	6.69239998	4.09100008	200	0	0
8.07299995	6.69250011	4.21099997	200	0	0
