8.69900036	6.68710041	0.68900001	0	200	0
8.64099979	6.68690014	0.653999984	0	200	0
8.63099957	6.6868	0.906000018	0	200	0
8.69099998	6.68700027	0.833000004	0	200	0
8.68200016	6.68690014	0.850000024	0	200	0
8.65499973	6.68690014	0.885999978	0	200	0
8.67500019	6.68700027	0.583000004	0	200	0
8.64900017	6.68690014	0.573000014	0	200	0
8.67399979	6.68700027	0.598999977	0	200	0
8.69299984	6.68710041	0.643000007	0	200	0
8.65200043	6.68690014	0.588	0	200	0
8.68099976	6.68700027	0.614000022	0	200	0
8.65699959	6.68690014	0.602999985	0	200	0
8.66399956	6.68690014	0.616999984	0	200	0
8.6619997	6.68700027	0.537999988	0	200	0
8.65200043	6.68690014	0.541000009	0	200	0
8.67199993	6.68700027	0.568000019	0	200	0
8.64299965	6.68690014	0.495000005	0	200	0
8.65600014	6.68700027	0.523999989	0	200	0
8.64500046	6.68690014	0.510999978	0	200	0
8.64999962	6.68690014	0.524999976	0	200	0
8.65799999	6.68690014	0.901000023	0	200	0
8.63399982	6.6868	0.921000004	0	200	0
8.63599968	6.68690014	0.465000004	0	200	0
8.62800026	6.68690014	0.435000002	0	200	0
8.67800045	6.68700027	0.503000021	0	200	0
8.6420002	6.68690014	0.448000014	0	200	0
8.66800022	6.68700027	0.49000001	0	200	0
8.63000011	6.68690014	0.386999995	0	200	0
8.60099983	6.6868	0.361999989	0	200	0
8.63199997	6.68690014	0.418000013	0	200	0
8.60700035	6.6868	0.377000004	0	200	0
8.55700016	6.68659973	0.310000002	0	200	0
8.55300045	6.68669987	0.31099999	0	200	0
8.63700008	6.68690014	0.352999985	0	200	0
8.61299992	6.6868	0.296000004	0	200	0
8.59000015	6.6868	0.284999996	0	200	0
8.5539999	6.68659973	0.279000014	0	200	0
8.55000019	6.68659973	0.296000004	0	200	0
8.58899975	6.6868	0.317000002	0	200	0
8.60400009	6.6868	0.345999986	0	200	0
8.52900028	6.68650103	0.238000005	0	200	0
8.51000023	6.68639994	0.241999999	0	200	0
8.53899956	6.68650103	0.250999987	0	200	0
8.47799969	6.68630028	0.218999997	0	200	0
8.45699978	6.68620014	0.177000001	0	200	0
8.42800045	6.68610001	0.169	0	200	0
8.45199966	6.68620014	0.194999993	0	200	0
8.47900009	6.68630028	0.187000006	0	200	0
8.53600025	6.68650103	0.219999999	0	200	0
8.51399994	6.68639994	0.224999994	0	200	0
8.5340004	6.68659973	0.236000001	0	200	0
8.49499989	6.68639994	0.199000001	0	200	0
8.65600014	6.68700027	0.412999988	0	200	0
8.67800045	6.68700027	0.455000013	0	200	0
8.65699959	6.68700027	0.428000003	0	200	0
8.66100025	6.68700027	0.442999989	0	200	0
8.65699959	6.68700027	0.363999993	0	200	0
8.63000011	6.68710041	0.338999987	0	200	0
8.65499973	6.68700027	0.381000012	0	200	0
8.65100002	6.68690014	0.365999997	0	200	0
8.67700005	6.68710041	0.43900001	0	200	0
8.67800045	6.68719959	0.455000013	0	200	0
8.70699978	6.68710041	0.560000002	0	200	0
8.64599991	6.68690014	0.335000008	0	200	0
8.6960001	6.68710041	0.451000005	0	200	0
8.68299961	6.68710041	0.405999988	0	200	0
8.71000004	6.68710041	0.527999997	0	200	0
8.53899956	6.68650103	0.202999994	0	200	0
8.45499992	6.68620014	0.145999998	0	200	0
8.48700047	6.68630028	0.152999997	0	200	0
8.50500011	6.68639994	0.164000005	0	200	0
8.43000031	6.68610001	0.152999997	0	200	0
8.50500011	6.68639994	0.180000007	0	200	0
8.45499992	6.68620014	0.162	0	200	0
8.47799969	6.68630028	0.172000006	0	200	0
8.3380003	6.68580008	0.101000004	0	200	0
8.36999989	6.68590069	0.123999998	0	200	0
8.42800045	6.68610001	0.105999999	0	200	0
8.3760004	6.68590069	0.0909999982	0	200	0
8.40699959	6.68599987	0.0979999974	0	200	0
8.43000031	6.68610001	0.120999999	0	200	0
8.3760004	6.68590069	0.105999999	0	200	0
8.40600014	6.68599987	0.114	0	200	0
8.40200043	6.68599987	0.130999997	0	200	0
8.44999981	6.68620014	0.115999997	0	200	0
8.48099995	6.68630028	0.138999999	0	200	0
8.57199955	6.68659973	1.00999999	0	200	0
8.61200047	6.68669987	0.95599997	0	200	0
8.58899975	6.68659973	0.990999997	0	200	0
8.55700016	6.68650103	1.028	0	200	0
8.58300018	6.68659973	1.023	0	200	0
8.60999966	6.68669987	1.00300002	0	200	0
8.61299992	6.68669987	0.986999989	0	200	0
8.6420002	6.6868	0.93599999	0	200	0
8.62800026	6.6868	0.259000003	0	200	0
8.57400036	6.68659973	0.194000006	0	200	0
8.56299973	6.68659973	0.211999997	0	200	0
8.57900047	6.6868	0.239999995	0	200	0
8.5710001	6.68659973	0.241999999	0	200	0
8.53199959	6.68650103	0.172999993	0	200	0
8.64099979	6.68690014	0.30399999	0	200	0
8.65999985	6.68700027	0.331999987	0	200	0
8.65999985	6.68700027	0.34799999	0	200	0
8.66699982	6.68690014	0.94599998	0	200	0
8.63199997	6.6868	0.984000027	0	200	0
8.66800022	6.68690014	0.930999994	0	200	0
8.6420002	6.6868	0.967000008	0	200	0
8.66100025	6.68690014	0.916000009	0	200	0
8.68400002	6.68700027	0.880999982	0	200	0
8.68900013	6.68700027	0.848999977	0	200	0
8.68500042	6.68700027	0.896000028	0	200	0
8.69200039	6.68700027	0.911000013	0	200	0
8.7130003	6.68710041	0.828000009	0	200	0
8.70800018	6.68710041	0.813000023	0	200	0
8.67700005	6.68700027	0.92900002	0	200	0
8.61499977	6.68669987	1.01800001	0	200	0
8.55900002	6.68650103	1.08899999	0	200	0
8.51799965	6.68639994	1.09500003	0	200	0
8.58500004	6.68659973	1.05400002	0	200	0
8.54399967	6.68650103	1.07599998	0	200	0
8.52999973	6.68639994	1.07799995	0	200	0
8.55300045	6.68650103	1.05900002	0	200	0
8.52900028	6.68639994	1.06299996	0	200	0
8.56099987	6.68650103	1.10399997	0	200	0
8.53600025	6.68639994	1.10800004	0	200	0
8.50800037	6.68630028	1.11199999	0	200	0
8.17599964	6.68520021	0.105999999	0	200	0
8.19799995	6.68530083	0.114	0	200	0
8.14999962	6.68510008	0.114	0	200	0
8.17500019	6.68520021	0.122000001	0	200	0
8.15499973	6.68510008	0.128000006	0	200	0
8.26399994	6.68549967	0.0450000018	0	200	0
8.29899979	6.6855998	0.0500000007	0	200	0
8.24300003	6.68540001	0.0520000011	0	200	0
8.19299984	6.68530083	0.100000001	0	200	0
8.32699966	6.68569994	0.0729999989	0	200	0
8.30300045	6.68569994	0.064000003	0	200	0
8.22299957	6.68530083	0.075000003	0	200	0
8.23400021	6.68540001	0.0700000003	0	200	0
8.26200008	6.68549967	0.0610000007	0	200	0
8.28299999	6.6855998	0.0700000003	0	200	0
8.22599983	6.68540001	0.0879999995	0	200	0
8.26900005	6.68549967	0.074000001	0	200	0
8.28999996	6.6855998	0.0839999989	0	200	0
8.24199963	6.68540001	0.100000001	0	200	0
8.27099991	6.68549967	0.0890000015	0	200	0
8.14400005	6.68510008	0.0850000009	0	200	0
8.19499969	6.68530083	0.0680000037	0	200	0
8.13599968	6.68510008	0.103	0	200	0
8.18500042	6.68520021	0.0719999969	0	200	0
8.16899967	6.68520021	0.0930000022	0	200	0
8.125	6.68499994	0.0900000036	0	200	0
8.50599957	6.68639994	0.148000002	0	200	0
8.36900043	6.68590069	0.0450000018	0	200	0
8.43099976	6.68610001	0.0890000015	0	200	0
8.33699989	6.68580008	0.0540000014	0	200	0
8.37899971	6.68590069	0.0579999983	0	200	0
8.40200043	6.68599987	0.0829999968	0	200	0
8.34200001	6.68580008	0.0689999983	0	200	0
8.46199989	6.68620014	0.0960000008	0	200	0
8.46899986	6.68630028	0.109999999	0	200	0
8.50599957	6.68639994	0.131999999	0	200	0
8.53199959	6.68650103	0.157000005	0	200	0
8.33399963	6.68580008	0.0399999991	0	200	0
8.29399967	6.6855998	0.0359999985	0	200	0
8.31700039	6.68569994	0.0450000018	0	200	0
8.39999962	6.68599987	0.0520000011	0	200	0
8.31900024	6.68569994	0.0280000009	0	200	0
8.43500042	6.68610001	0.0719999969	0	200	0
8.3380003	6.68580008	0.0219999999	0	200	0
8.375	6.68590069	0.0270000007	0	200	0
8.3409996	6.68569994	1.18499994	0	200	0
8.35700035	6.68580008	1.18299997	0	200	0
8.37800026	6.68590069	1.17999995	0	200	0
8.33100033	6.68569994	1.17200005	0	200	0
8.40699959	6.68599987	1.15999997	0	200	0
8.39000034	6.68590069	1.16299999	0	200	0
8.35400009	6.68580008	1.16799998	0	200	0
8.28499985	6.68549967	1.19400001	0	200	0
8.30300045	6.6855998	1.19099998	0	200	0
8.28100014	6.68549967	1.17999995	0	200	0
8.30599976	6.6855998	1.176	0	200	0
8.25199986	6.68540001	1.20099998	0	200	0
8.24400043	6.68540001	1.18700004	0	200	0
8.23099995	6.68530083	1.19099998	0	200	0
8.14400005	6.68499994	1.22099996	0	200	0
8.22099972	6.68530083	1.20700002	0	200	0
8.20400047	6.68520021	1.21099997	0	200	0
8.17199993	6.68510008	1.21599996	0	200	0
8.15499973	6.68499994	1.204	0	200	0
8.20499992	6.68520021	1.19700003	0	200	0
8.17199993	6.68510008	1.20200002	0	200	0
8.42300034	6.68599987	1.17299998	0	200	0
8.44499969	6.68610001	1.153	0	200	0
8.66600037	6.68690014	0.992999971	0	200	0
8.67199993	6.68690014	0.976999998	0	200	0
8.63399982	6.6868	1.01400006	0	200	0
8.63199997	6.6868	0.999000013	0	200	0
8.69099998	6.68700027	0.941999972	0	200	0
8.71899986	6.68710041	0.889999986	0	200	0
8.71399975	6.68710041	0.921999991	0	200	0
8.71000004	6.68710041	0.907999992	0	200	0
8.66399956	6.68690014	1.00899994	0	200	0
8.61299992	6.68669987	1.06400001	0	200	0
8.60299969	6.68659973	1.06599998	0	200	0
8.63700008	6.6868	1.04499996	0	200	0
8.61800003	6.68669987	1.04799998	0	200	0
8.63700008	6.6868	1.06099999	0	200	0
8.58199978	6.68659973	1.10000002	0	200	0
8.61200047	6.68669987	1.08000004	0	200	0
8.60000038	6.68659973	1.08200002	0	200	0
8.68400002	6.68700027	0.99000001	0	200	0
8.36200047	6.68580008	1.19700003	0	200	0
8.28499985	6.68549967	1.20899999	0	200	0
8.30000019	6.6855998	1.20700002	0	200	0
8.33100033	6.68569994	1.20200002	0	200	0
8.33399963	6.68569994	1.21599996	0	200	0
8.24400043	6.68540001	1.21700001	0	200	0
8.27499962	6.68549967	1.22500002	0	200	0
8.31099987	6.6855998	1.22000003	0	200	0
8.16499996	6.68510008	1.23199999	0	200	0
8.18700027	6.68520021	1.22899997	0	200	0
8.22099972	6.68530083	1.222	0	200	0
8.19799995	6.68520021	1.24100006	0	200	0
8.22299957	6.68530083	1.23599994	0	200	0
8.23999977	6.68540001	1.23199999	0	200	0
8.47099972	6.68620014	1.16400003	0	200	0
8.4460001	6.68610001	1.16799998	0	200	0
8.47799969	6.68620014	1.14699996	0	200	0
8.36299992	6.68580008	1.21200001	0	200	0
8.44699955	6.68610001	1.18299997	0	200	0
8.4119997	6.68599987	1.204	0	200	0
8.38700008	6.68590069	1.20799994	0	200	0
8.41499996	6.68599987	1.18900001	0	200	0
8.38899994	6.68590069	1.19299996	0	200	0
8.18299961	6.68510008	1.24399996	0	200	0
8.1420002	6.68499994	1.25	0	200	0
8.47299957	6.68620014	1.19400001	0	200	0
8.5369997	6.68639994	1.18400002	0	200	0
8.49800014	6.68630028	1.19000006	0	200	0
8.55500031	6.68650103	1.16600001	0	200	0
8.47200012	6.68620014	1.17900002	0	200	0
8.55599976	6.68650103	1.14999998	0	200	0
8.52499962	6.68639994	1.171	0	200	0
8.50199986	6.68630028	1.17400002	0	200	0
8.55700016	6.68650103	1.13499999	0	200	0
8.52200031	6.68639994	1.15600002	0	200	0
8.50300026	6.68630028	1.15900004	0	200	0
8.52799988	6.68639994	1.13999999	0	200	0
8.50300026	6.68630028	1.14400005	0	200	0
8.44699955	6.68610001	1.19799995	0	200	0
8.72999954	6.68719959	0.888000011	0	200	0
8.73600006	6.68719959	0.808000028	0	200	0
8.73400021	6.68719959	0.824000001	0	200	0
8.73099995	6.68719959	0.841000021	0	200	0
8.72599983	6.68710041	0.873000026	0	200	0
8.72999954	6.68710041	0.841000021	0	200	0
8.75800037	6.68729973	0.866999984	0	200	0
8.76500034	6.68729973	0.833999991	0	200	0
8.75599957	6.68729973	0.787999988	0	200	0
8.76099968	6.68729973	0.819000006	0	200	0
8.73999977	6.68719959	0.870000005	0	200	0
8.75199986	6.68729973	0.805000007	0	200	0
8.7489996	6.68719959	0.790000021	0	200	0
8.74699974	6.68739986	0.726999998	0	200	0
8.75899982	6.68729973	0.675999999	0	200	0
8.74199963	6.68729973	0.632000029	0	200	0
8.72799969	6.68719959	0.731000006	0	200	0
8.73499966	6.68729973	0.713	0	200	0
8.7329998	6.68719959	0.713999987	0	200	0
8.72399998	6.68719959	0.684000015	0	200	0
8.7869997	6.68739986	0.81400001	0	200	0
8.7840004	6.68739986	0.799000025	0	200	0
8.78499985	6.68739986	0.750999987	0	200	0
8.78199959	6.68729973	0.751999974	0	200	0
8.76399994	6.68729973	0.72299999	0	200	0
8.75800037	6.68729973	0.74000001	0	200	0
8.75399971	6.68719959	0.740999997	0	200	0
8.72799969	6.68710041	0.587000012	0	200	0
8.77099991	6.68729973	0.657999992	0	200	0
8.70100021	6.68700027	0.972000003	0	200	0
8.7670002	6.68729973	0.880999982	0	200	0
8.74800014	6.68719959	0.901000023	0	200	0
8.72299957	6.68710041	0.936999977	0	200	0
8.74699974	6.68719959	0.916999996	0	200	0
8.7510004	6.68729973	0.550999999	0	200	0
8.72500038	6.68729973	0.523999989	0	200	0
8.7130003	6.68710041	0.510999978	0	200	0
8.7489996	6.68719959	0.583000004	0	200	0
8.74300003	6.68729973	0.583999991	0	200	0
8.77600002	6.68739986	0.625	0	200	0
8.72299957	6.68710041	0.476999998	0	200	0
8.69900036	6.68719959	0.481999993	0	200	0
8.71199989	6.68719959	0.430999994	0	200	0
8.72000027	6.68710041	0.967999995	0	200	0
8.71500015	6.68710041	0.414999992	0	200	0
8.72200012	6.68719959	0.412999988	0	200	0
8.73700047	6.68729973	0.425000012	0	200	0
8.64000034	6.68690014	0.289000005	0	200	0
8.6420002	6.68700027	0.287999988	0	200	0
8.73099995	6.68719959	0.361999989	0	200	0
8.66899967	6.68700027	0.264999986	0	200	0
8.65999985	6.68690014	0.26699999	0	200	0
8.66800022	6.68710041	0.280999988	0	200	0
8.68400002	6.68700027	0.293000013	0	200	0
8.67500019	6.68710041	0.296000004	0	200	0
8.62100029	6.68690014	0.196999997	0	200	0
8.69299984	6.68719959	0.259000003	0	200	0
8.59799957	6.68669987	0.202999994	0	200	0
8.60299969	6.68690014	0.217999995	0	200	0
8.6420002	6.68690014	0.224000007	0	200	0
8.67099953	6.68700027	0.247999996	0	200	0
8.66699982	6.68710041	0.248999998	0	200	0
8.65100002	6.68690014	0.252999991	0	200	0
8.63099957	6.6868	0.194000006	0	200	0
8.52600002	6.68659973	0.143000007	0	200	0
8.56099987	6.68659973	0.149000004	0	200	0
8.56700039	6.68659973	0.163000003	0	200	0
8.54199982	6.68650103	0.137999997	0	200	0
8.48499966	6.68630028	0.0900000036	0	200	0
8.50199986	6.68639994	0.101000004	0	200	0
8.54899979	6.68650103	0.119999997	0	200	0
8.55599976	6.68669987	0.134000003	0	200	0
8.74499989	6.68729973	0.342999995	0	200	0
8.78800011	6.68739986	0.574000001	0	200	0
8.77999973	6.68729973	0.592000008	0	200	0
8.77099991	6.68729973	0.561999977	0	200	0
8.77299976	6.6875	0.481000006	0	200	0
8.77600002	6.6875	0.497000009	0	200	0
8.6239996	6.6868	0.180000007	0	200	0
8.56700039	6.68659973	0.115000002	0	200	0
8.50899982	6.68639994	0.0670000017	0	200	0
8.52099991	6.68639994	0.0799999982	0	200	0
8.48400021	6.68630028	0.0579999983	0	200	0
8.49199963	6.68630028	0.0719999969	0	200	0
8.45600033	6.68620014	0.0659999996	0	200	0
8.47299957	6.68620014	0.0769999996	0	200	0
8.54100037	6.68650103	0.074000001	0	200	0
8.54500008	6.68659973	0.0890000015	0	200	0
8.54500008	6.68650103	0.0890000015	0	200	0
8.40699959	6.68599987	0.0340000018	0	200	0
8.3739996	6.68590069	0.0120000001	0	200	0
8.41800022	6.68610001	0.0450000018	0	200	0
8.50599957	6.68639994	0.0520000011	0	200	0
8.48200035	6.68630028	0.0270000007	0	200	0
8.42099953	6.68610001	0.0120000001	0	200	0
8.39900017	6.68599987	0.0199999996	0	200	0
8.44499969	6.68620014	0.0219999999	0	200	0
8.42599964	6.68610001	0.0270000007	0	200	0
8.45600033	6.68620014	0.0340000018	0	200	0
8.39999962	6.68599987	0.00400000019	0	200	0
8.61499977	6.68669987	1.09500003	0	200	0
8.68400002	6.68700027	1.00600004	0	200	0
8.67199993	6.68690014	1.03900003	0	200	0
8.64299965	6.6868	1.09099996	0	200	0
8.64999962	6.6868	1.074	0	200	0
8.67800045	6.68690014	1.06900001	0	200	0
8.67399979	6.68690014	1.05400002	0	200	0
8.6619997	6.68700027	0.170000002	0	200	0
8.67700005	6.68700027	0.181999996	0	200	0
8.68000031	6.68719959	0.196999997	0	200	0
8.62300014	6.68710041	0.180000007	0	200	0
8.68700027	6.68710041	0.211999997	0	200	0
8.6619997	6.68700027	0.202000007	0	200	0
8.67399979	6.68700027	0.215000004	0	200	0
8.60200024	6.6868	0.104999997	0	200	0
8.61699963	6.6868	0.133000001	0	200	0
8.74600029	6.68729973	0.310000002	0	200	0
8.73400021	6.68719959	0.280999988	0	200	0
8.75300026	6.68729973	0.916000009	0	200	0
8.74699974	6.68719959	0.995000005	0	200	0
8.70100021	6.68700027	1.03400004	0	200	0
8.75399971	6.68719959	0.947000027	0	200	0
8.73900032	6.68719959	0.981000006	0	200	0
8.73700047	6.68719959	0.964999974	0	200	0
8.73200035	6.68710041	0.981999993	0	200	0
8.7159996	6.68710041	1	0	200	0
8.6960001	6.68700027	1.051	0	200	0
8.77499962	6.68729973	0.896000028	0	200	0
8.76500034	6.68729973	0.961000025	0	200	0
8.77299976	6.68729973	0.943000019	0	200	0
8.80200005	6.68739986	0.827000022	0	200	0
8.69200039	6.68700027	1.06700003	0	200	0
8.67099953	6.68690014	1.08599997	0	200	0
8.59500027	6.68659973	1.17499995	0	200	0
8.5539999	6.68650103	1.18099999	0	200	0
8.63899994	6.6868	1.12199998	0	200	0
8.60900021	6.68669987	1.15799999	0	200	0
8.61299992	6.68669987	1.14100003	0	200	0
8.58399963	6.68659973	1.16100001	0	200	0
8.59500027	6.68659973	1.14400005	0	200	0
8.60499954	6.68669987	1.12699997	0	200	0
8.5909996	6.68659973	1.13	0	200	0
8.64000034	6.6868	1.153	0	200	0
8.64599991	6.6868	1.13600004	0	200	0
8.61200047	6.68669987	1.17200005	0	200	0
8.2130003	6.68530083	0.0320000015	0	200	0
8.18700027	6.68530083	0.0240000002	0	200	0
8.13300037	6.68499994	0.0419999994	0	200	0
8.13899994	6.68510008	0.0399999991	0	200	0
8.17199993	6.68520021	0.0299999993	0	200	0
8.12300014	6.68499994	0.0599999987	0	200	0
8.14900017	6.68510008	0.0520000011	0	200	0
8.17099953	6.68520021	0.0460000001	0	200	0
8.2329998	6.68540001	0.0240000002	0	200	0
8.32800007	6.68580008	-0.00600000005	0	200	0
8.31799984	6.68569994	-0.0189999994	0	200	0
8.27600002	6.6855998	-0.0379999988	0	200	0
8.21199989	6.68530083	-0.0149999997	0	200	0
8.26200008	6.68549967	-0.0329999998	0	200	0
8.23700047	6.68540001	-0.0240000002	0	200	0
8.30700016	6.68569994	0	0	200	0
8.27400017	6.6855998	-0.00499999989	0	200	0
8.28800011	6.6855998	0.00600000005	0	200	0
8.25500011	6.68549967	0	0	200	0
8.24400043	6.68540001	0.00499999989	0	200	0
8.26399994	6.68549967	0.0130000003	0	200	0
8.33600044	6.68580008	-0.0240000002	0	200	0
8.17099953	6.68520021	-0.00100000005	0	200	0
8.14799976	6.68510008	0.00600000005	0	200	0
8.54199982	6.68650103	0.0579999983	0	200	0
8.3920002	6.68599987	-0.0410000011	0	200	0
8.4289999	6.68610001	-0.00600000005	0	200	0
8.40100002	6.68599987	-0.0280000009	0	200	0
8.36299992	6.68590069	-0.0320000015	0	200	0
8.36699963	6.68590069	-0.0179999992	0	200	0
8.45600033	6.68620014	0.00200000009	0	200	0
8.47099972	6.68630028	0.0140000004	0	200	0
8.50699997	6.68639994	0.0199999996	0	200	0
8.56700039	6.68659973	0.0670000017	0	200	0
8.3380003	6.68580008	-0.057	0	200	0
8.31900024	6.68569994	-0.050999999	0	200	0
8.46100044	6.68620014	-0.0149999997	0	200	0
8.42500019	6.68610001	-0.0359999985	0	200	0
8.5	6.68639994	0.00499999989	0	200	0
8.47799969	6.68630028	-0.00400000019	0	200	0
8.36600018	6.68590069	-0.0649999976	0	200	0
8.42399979	6.68610001	-0.0520000011	0	200	0
8.41699982	6.68599987	1.23399997	0	200	0
8.3760004	6.68590069	1.26999998	0	200	0
8.33399963	6.68569994	1.27600002	0	200	0
8.35900021	6.68580008	1.27199996	0	200	0
8.2869997	6.68549967	1.25300002	0	200	0
8.3920002	6.68590069	1.25199997	0	200	0
8.31200027	6.6855998	1.26400006	0	200	0
8.32800007	6.68569994	1.26199996	0	200	0
8.36499977	6.68580008	1.25600004	0	200	0
8.30599976	6.6855998	1.25	0	200	0
8.38899994	6.68590069	1.23800004	0	200	0
8.33399963	6.68569994	1.24600005	0	200	0
8.35599995	6.68580008	1.24300003	0	200	0
8.41600037	6.68599987	1.24899995	0	200	0
8.45100021	6.68610001	1.24199998	0	200	0
8.41800022	6.68599987	1.26300001	0	200	0
8.44900036	6.68610001	1.227	0	200	0
8.46500015	6.68620014	1.22500002	0	200	0
8.22299957	6.68530083	1.26600003	0	200	0
8.27799988	6.68549967	1.28400004	0	200	0
8.30099964	6.6855998	1.28100002	0	200	0
8.25500011	6.68540001	1.27400005	0	200	0
8.24699974	6.68540001	1.26100004	0	200	0
8.28499985	6.68549967	1.26800001	0	200	0
8.24800014	6.68540001	1.28999996	0	200	0
8.22299957	6.68530083	1.27999997	0	200	0
8.18400002	6.68520021	1.273	0	200	0
8.05500031	6.68469954	1.23500001	0	200	0
8.19099998	6.68520021	1.301	0	200	0
8.16699982	6.68510008	1.30499995	0	200	0
8.14700031	6.68499994	1.30799997	0	200	0
8.19099998	6.68520021	1.28600001	0	200	0
8.16699982	6.68510008	1.28999996	0	200	0
8.14000034	6.68499994	1.29400003	0	200	0
8.1619997	6.68510008	1.27600002	0	200	0
8.1420002	6.68499994	1.27900004	0	200	0
8.21700001	6.68530083	1.296	0	200	0
8.50399971	6.68630028	1.21899998	0	200	0
8.47099972	6.68620014	1.25399995	0	200	0
8.48099995	6.68620014	1.23800004	0	200	0
8.44099998	6.68610001	1.25899994	0	200	0
8.49800014	6.68630028	1.23500001	0	200	0
8.75	6.68719959	1.02600002	0	200	0
8.69499969	6.68700027	1.08200002	0	200	0
8.71700001	6.68710041	1.06299996	0	200	0
8.71800041	6.68710041	1.04700005	0	200	0
8.72999954	6.68710041	1.02900004	0	200	0
8.76399994	6.68729973	0.991999984	0	200	0
8.77200031	6.68729973	0.975000024	0	200	0
8.80900002	6.68739986	0.874000013	0	200	0
8.79199982	6.68739986	0.893000007	0	200	0
8.80099964	6.68739986	0.953999996	0	200	0
8.7510004	6.68719959	1.04200006	0	200	0
8.71899986	6.68710041	1.07799995	0	200	0
8.68900013	6.68700027	1.11399996	0	200	0
8.66899967	6.68690014	1.13300002	0	200	0
8.66699982	6.68690014	1.11699998	0	200	0
8.65999985	6.68690014	1.14999998	0	200	0
8.68700027	6.68700027	1.13	0	200	0
8.64400005	6.6868	1.16799998	0	200	0
8.76900005	6.68729973	1.023	0	200	0
8.33300018	6.68569994	1.29100001	0	200	0
8.40699959	6.68599987	1.27999997	0	200	0
8.35900021	6.68580008	1.28699994	0	200	0
8.37899971	6.68590069	1.28400004	0	200	0
8.27099991	6.68549967	1.29999995	0	200	0
8.30900002	6.6855998	1.29400003	0	200	0
8.22000027	6.68530083	1.30999994	0	200	0
8.22799969	6.68540001	1.30700004	0	200	0
8.13899994	6.68499994	1.32299995	0	200	0
8.18400002	6.68520021	1.31700003	0	200	0
8.16899967	6.68510008	1.31900001	0	200	0
8.51900005	6.68639994	1.24699998	0	200	0
8.54599953	6.68650103	1.21300006	0	200	0
8.49800014	6.68630028	1.25100005	0	200	0
8.52999973	6.68639994	1.23099995	0	200	0
8.52700043	6.68639994	1.21599996	0	200	0
8.4989996	6.68630028	1.26499999	0	200	0
8.47200012	6.68620014	1.26900005	0	200	0
8.44999981	6.68610001	1.27199996	0	200	0
8.52400017	6.68639994	1.26199996	0	200	0
8.54699993	6.68650103	1.22800004	0	200	0
8.61499977	6.68669987	1.23300004	0	200	0
8.61299992	6.68669987	1.21800005	0	200	0
8.58300018	6.68659973	1.25300002	0	200	0
8.61299992	6.68669987	1.20299995	0	200	0
8.5539999	6.68650103	1.25800002	0	200	0
8.59599972	6.68659973	1.22099996	0	200	0
8.57900047	6.68659973	1.23899996	0	200	0
8.56200027	6.68650103	1.24100006	0	200	0
8.5909996	6.68659973	1.20599997	0	200	0
8.63899994	6.6868	1.199	0	200	0
8.82299995	6.6875	0.902999997	0	200	0
8.82199955	6.6875	0.870999992	0	200	0
8.81999969	6.68739986	0.91900003	0	200	0
8.81900024	6.68739986	0.903999984	0	200	0
8.81200027	6.68739986	0.856999993	0	200	0
8.82600021	6.68760014	0.791000009	0	200	0
8.81799984	6.6875	0.824000001	0	200	0
8.80900002	6.68739986	0.777999997	0	200	0
8.85200024	6.68760014	0.865999997	0	200	0
8.83199978	6.6875	0.805999994	0	200	0
8.8409996	6.68760014	0.851999998	0	200	0
8.8210001	6.6875	0.91900003	0	200	0
8.83399963	6.6875	0.88499999	0	200	0
8.82999992	6.6875	0.853999972	0	200	0
8.84599972	6.68760014	0.819000006	0	200	0
8.82600021	6.6875	0.774999976	0	200	0
8.83199978	6.6875	0.790000021	0	200	0
8.83399963	6.68760014	0.805000007	0	200	0
8.83699989	6.68760014	0.740999997	0	200	0
8.84700012	6.68760014	0.771000028	0	200	0
8.81400013	6.68739986	0.728999972	0	200	0
8.81499958	6.6875	0.745000005	0	200	0
8.84300041	6.68760014	0.72299999	0	200	0
8.84300041	6.6875	0.72299999	0	200	0
8.82999992	6.6875	0.709999979	0	200	0
8.82199955	6.68739986	0.69599998	0	200	0
8.81599998	6.6875	0.697000027	0	200	0
8.83199978	6.6875	0.612999976	0	200	0
8.84000015	6.68760014	0.643999994	0	200	0
8.8380003	6.6875	0.643999994	0	200	0
8.83399963	6.68760014	0.661000013	0	200	0
8.8039999	6.68739986	0.587000012	0	200	0
8.87699986	6.68770027	0.845000029	0	200	0
8.86900043	6.68770027	0.765999973	0	200	0
8.8760004	6.68770027	0.781000018	0	200	0
8.87300014	6.68770027	0.81400001	0	200	0
8.86999989	6.68770027	0.797999978	0	200	0
8.8760004	6.68770027	0.73299998	0	200	0
8.85200024	6.68760014	0.70599997	0	200	0
8.85999966	6.68760014	0.879999995	0	200	0
8.84300041	6.68760014	0.930999994	0	200	0
8.85000038	6.68760014	0.898000002	0	200	0
8.81299973	6.6875	0.952000022	0	200	0
8.79399967	6.68739986	0.986999989	0	200	0
8.82299995	6.68739986	0.966000021	0	200	0
8.84300041	6.68760014	0.561999977	0	200	0
8.84200001	6.6875	0.578999996	0	200	0
8.79500008	6.6875	0.460000008	0	200	0
8.86299992	6.68770027	0.654999971	0	200	0
8.86600018	6.68770027	0.638000011	0	200	0
8.85200024	6.68760014	0.577000022	0	200	0
8.85999966	6.68770027	0.606999993	0	200	0
8.86200047	6.68760014	0.606999993	0	200	0
8.80000019	6.68739986	1.01800001	0	200	0
8.78600025	6.68729973	1.03600001	0	200	0
8.75800037	6.68719959	1.05599999	0	200	0
8.75800037	6.68719959	0.338999987	0	200	0
8.71700001	6.68719959	0.236000001	0	200	0
8.78299999	6.68729973	0.317000002	0	200	0
8.77499962	6.68760014	0.335000008	0	200	0
8.68900013	6.68710041	0.179000005	0	200	0
8.74800014	6.68719959	0.261000007	0	200	0
8.68099976	6.68700027	0.131999999	0	200	0
8.56900024	6.68659973	0.0500000007	0	200	0
8.5880003	6.6868	0.0610000007	0	200	0
8.55200005	6.68650103	0.0390000008	0	200	0
8.56499958	6.68659973	0.0350000001	0	200	0
8.83899975	6.6875	0.319999993	0	200	0
8.81900024	6.68760014	0.307999998	0	200	0
8.87800026	6.68770027	0.555000007	0	200	0
8.8739996	6.68770027	0.572000027	0	200	0
8.86299992	6.68770027	0.541999996	0	200	0
8.86200047	6.68760014	0.541999996	0	200	0
8.85299969	6.68760014	0.527999997	0	200	0
8.86999989	6.68770027	0.474999994	0	200	0
8.86800003	6.68770027	0.492000014	0	200	0
8.85700035	6.68760014	0.477999985	0	200	0
8.85400009	6.68760014	0.495000005	0	200	0
8.70100021	6.68710041	0.127000004	0	200	0
8.51000023	6.68639994	-0.0299999993	0	200	0
8.56000042	6.68659973	-0.0120000001	0	200	0
8.48200035	6.68630028	-0.0209999997	0	200	0
8.53800011	6.68650103	-0.00600000005	0	200	0
8.50399971	6.68639994	-0.0120000001	0	200	0
8.55300045	6.68659973	0.00600000005	0	200	0
8.43900013	6.68620014	-0.057	0	200	0
8.45300007	6.68620014	-0.0450000018	0	200	0
8.40100002	6.68599987	-0.0759999976	0	200	0
8.47399998	6.68630028	-0.0670000017	0	200	0
8.50599957	6.68650103	-0.0610000007	0	200	0
8.4989996	6.68639994	-0.0590000004	0	200	0
8.47900009	6.68630028	-0.0529999994	0	200	0
8.41800022	6.68610001	-0.0829999968	0	200	0
8.66499996	6.68690014	1.16400003	0	200	0
8.75500011	6.68719959	1.07200003	0	200	0
8.72700024	6.68710041	1.10800004	0	200	0
8.72500038	6.68710041	1.13900006	0	200	0
8.73200035	6.68710041	1.12300003	0	200	0
8.69499969	6.68700027	1.15999997	0	200	0
8.69699955	6.68700027	1.14400005	0	200	0
8.76799965	6.68729973	1.05400002	0	200	0
8.72299957	6.68710041	1.15499997	0	200	0
8.76799965	6.68729973	1.07000005	0	200	0
8.74499989	6.68719959	1.12100005	0	200	0
8.74499989	6.68719959	1.10500002	0	200	0
8.70100021	6.68700027	0.0780000016	0	200	0
8.71700001	6.68710041	0.0900000036	0	200	0
8.73799992	6.68719959	0.116999999	0	200	0
8.74800014	6.68719959	0.147	0	200	0
8.71199989	6.68710041	0.108000003	0	200	0
8.68999958	6.68700027	0.0970000029	0	200	0
8.69900036	6.68700027	0.111000001	0	200	0
8.83600044	6.6875	0.963999987	0	200	0
8.81499958	6.6875	0.984000027	0	200	0
8.83500004	6.6875	1.01199996	0	200	0
8.79599953	6.68739986	1.06599998	0	200	0
8.80700016	6.68739986	1.04799998	0	200	0
8.80000019	6.68739986	1.03299999	0	200	0
8.84399986	6.68760014	0.963	0	200	0
8.84700012	6.68760014	0.94599998	0	200	0
8.85700035	6.68760014	0.976000011	0	200	0
8.86400032	6.68770027	0.943000019	0	200	0
8.87100029	6.68770027	0.878000021	0	200	0
8.8760004	6.68770027	0.861000001	0	200	0
8.77999973	6.68729973	1.10000002	0	200	0
8.76099968	6.68719959	1.13399994	0	200	0
8.77099991	6.68729973	1.11699998	0	200	0
8.6590004	6.68690014	1.24199998	0	200	0
8.65499973	6.6868	1.24300003	0	200	0
8.66600037	6.68690014	1.22599995	0	200	0
8.66699982	6.68690014	1.19500005	0	200	0
8.60700035	6.68669987	1.25	0	200	0
8.64799976	6.68690014	1.21300006	0	200	0
8.63500023	6.6868	1.23099995	0	200	0
8.65100002	6.6868	1.21300006	0	200	0
8.72099972	6.68710041	1.18700004	0	200	0
8.7159996	6.68700027	1.18799996	0	200	0
8.68500042	6.68700027	1.22300005	0	200	0
8.69499969	6.68700027	1.20599997	0	200	0
8.19699955	6.68530083	-0.0579999983	0	200	0
8.17599964	6.68520021	-0.0489999987	0	200	0
8.14999962	6.68510008	-0.0260000005	0	200	0
8.22900009	6.68540001	-0.0529999994	0	200	0
8.16699982	6.68520021	-0.0309999995	0	200	0
8.19499969	6.68530083	-0.0410000011	0	200	0
8.14700031	6.68510008	-0.0560000017	0	200	0
8.17099953	6.68520021	-0.063000001	0	200	0
8.13099957	6.68499994	-0.0350000001	0	200	0
8.13899994	6.68510008	-0.0379999988	0	200	0
8.24300003	6.68540001	-0.0729999989	0	200	0
8.26500034	6.68549967	-0.0659999996	0	200	0
8.34000015	6.68580008	-0.104999997	0	200	0
8.28800011	6.6855998	-0.0890000015	0	200	0
8.31799984	6.68569994	-0.0979999974	0	200	0
8.34000015	6.68580008	-0.0890000015	0	200	0
8.28800011	6.6855998	-0.0729999989	0	200	0
8.31099987	6.68569994	-0.0799999982	0	200	0
8.32800007	6.68569994	-0.116999999	0	200	0
8.36900043	6.68590069	-0.0979999974	0	200	0
8.28999996	6.6855998	-0.104999997	0	200	0
8.25500011	6.68549967	-0.0790000036	0	200	0
8.20800018	6.68530083	-0.0920000002	0	200	0
8.20300007	6.68530083	-0.075000003	0	200	0
8.28999996	6.6855998	-0.120999999	0	200	0
8.27900028	6.68549967	-0.118000001	0	200	0
8.24400043	6.68540001	-0.104999997	0	200	0
8.23799992	6.68540001	-0.0869999975	0	200	0
8.23999977	6.68549967	-0.0900000036	0	200	0
8.14400005	6.68510008	-0.0700000003	0	200	0
8.17300034	6.68520021	-0.0799999982	0	200	0
8.36600018	6.68590069	-0.112999998	0	200	0
8.11800003	6.68499994	-0.061999999	0	200	0
8.42199993	6.68610001	-0.131999999	0	200	0
8.39099979	6.68599987	-0.136999995	0	200	0
8.34899998	6.68580008	-0.123999998	0	200	0
8.36299992	6.68590069	-0.128000006	0	200	0
8.38799953	6.68599987	-0.119999997	0	200	0
8.44900036	6.68620014	-0.0920000002	0	200	0
8.41600037	6.68610001	-0.114	0	200	0
8.3920002	6.68599987	-0.104999997	0	200	0
8.49699974	6.68639994	-0.074000001	0	200	0
8.56000042	6.68659973	-0.0439999998	0	200	0
8.36699963	6.68590069	-0.144999996	0	200	0
8.34300041	6.68580008	-0.137999997	0	200	0
8.31900024	6.68569994	-0.129999995	0	200	0
8.49499989	6.68639994	-0.105999999	0	200	0
8.51900005	6.68650103	-0.0810000002	0	200	0
8.46899986	6.68630028	-0.0979999974	0	200	0
8.45100021	6.68620014	-0.125	0	200	0
8.39099979	6.68599987	-0.152999997	0	200	0
8.42099953	6.68610001	-0.148000002	0	200	0
8.47099972	6.68630028	-0.130999997	0	200	0
8.44799995	6.68620014	-0.140000001	0	200	0
8.38700008	6.68590069	1.32799995	0	200	0
8.3760004	6.68590069	1.31400001	0	200	0
8.41699982	6.68599987	1.324	0	200	0
8.44299984	6.68610001	1.31900001	0	200	0
8.46500015	6.68620014	1.29999995	0	200	0
8.44200039	6.68610001	1.30400002	0	200	0
8.43000031	6.68599987	1.30700004	0	200	0
8.44799995	6.68610001	1.33299994	0	200	0
8.35599995	6.68580008	1.36199999	0	200	0
8.30599976	6.6855998	1.324	0	200	0
8.39400005	6.68590069	1.35699999	0	200	0
8.34200001	6.68569994	1.34899998	0	200	0
8.35400009	6.68580008	1.347	0	200	0
8.41800022	6.68599987	1.33800006	0	200	0
8.33600044	6.68569994	1.33500004	0	200	0
8.39099979	6.68590069	1.34200001	0	200	0
8.33100033	6.68569994	1.32099998	0	200	0
8.36499977	6.68580008	1.33099997	0	200	0
8.34000015	6.68580008	1.31900001	0	200	0
8.30900002	6.6855998	1.36800003	0	200	0
8.27600002	6.68549967	1.34300005	0	200	0
8.29399967	6.68549967	1.35500002	0	200	0
8.34000015	6.68569994	1.36399996	0	200	0
8.27799988	6.68549967	1.32799995	0	200	0
8.31700039	6.6855998	1.352	0	200	0
8.30300045	6.6855998	1.33899999	0	200	0
8.26299953	6.68540001	1.34599996	0	200	0
8.23799992	6.68540001	1.33500004	0	200	0
8.47399998	6.68620014	1.31400001	0	200	0
8.51799965	6.68639994	1.30799997	0	200	0
8.49600029	6.68630028	1.32599998	0	200	0
8.52499962	6.68639994	1.29200006	0	200	0
8.47399998	6.68620014	1.329	0	200	0
8.49100018	6.68630028	1.31200004	0	200	0
8.5	6.68630028	1.296	0	200	0
8.44999981	6.68610001	1.34800005	0	200	0
8.43599987	6.68599987	1.35099995	0	200	0
8.20300007	6.68520021	1.35800004	0	200	0
8.23200035	6.68530083	1.352	0	200	0
8.19699955	6.68520021	1.34399998	0	200	0
8.22700024	6.68530083	1.33800006	0	200	0
8.2329998	6.68530083	1.36699998	0	200	0
8.25699997	6.68540001	1.37699997	0	200	0
8.28299999	6.68549967	1.37199998	0	200	0
8.26399994	6.68540001	1.36099994	0	200	0
8.22700024	6.68530083	1.38199997	0	200	0
8.15699959	6.68510008	1.35000002	0	200	0
8.19499969	6.68520021	1.37300003	0	200	0
8.18200016	6.68510008	1.36099994	0	200	0
8.15400028	6.68499994	1.36500001	0	200	0
8.14799976	6.68499994	1.35099995	0	200	0
8.18599987	6.68510008	1.38900006	0	200	0
8.15699959	6.68499994	1.37899995	0	200	0
8.20100021	6.68520021	1.38699996	0	200	0
8.17700005	6.68510008	1.37600005	0	200	0
8.1420002	6.68499994	1.39499998	0	200	0
8.54699993	6.68650103	1.30400002	0	200	0
8.54800034	6.68650103	1.28900003	0	200	0
8.51000023	6.68630028	1.34000003	0	200	0
8.53299999	6.68639994	1.32099998	0	200	0
8.47200012	6.68620014	1.34500003	0	200	0
8.84200001	6.6875	1.02699995	0	200	0
8.8039999	6.68739986	1.09599996	0	200	0
8.82299995	6.6875	1.06099999	0	200	0
8.76900005	6.68729973	1.13300002	0	200	0
8.7489996	6.68719959	1.15100002	0	200	0
8.89599991	6.68780088	0.889999986	0	200	0
8.8760004	6.68770027	0.925000012	0	200	0
8.8760004	6.68770027	0.893000007	0	200	0
8.84899998	6.6875	1.04100001	0	200	0
8.86499977	6.68760014	1.023	0	200	0
8.88500023	6.68770027	0.95599997	0	200	0
8.86600018	6.68760014	1.00699997	0	200	0
8.8760004	6.68770027	0.97299999	0	200	0
8.82400036	6.6875	1.09300005	0	200	0
8.79899979	6.68739986	1.11199999	0	200	0
8.78100014	6.68729973	1.14699996	0	200	0
8.72200012	6.68710041	1.20200002	0	200	0
8.7510004	6.68719959	1.18200004	0	200	0
8.71199989	6.68710041	1.21899998	0	200	0
8.70600033	6.68710041	1.23599994	0	200	0
8.68900013	6.68700027	1.23800004	0	200	0
8.85099983	6.68760014	1.05700004	0	200	0
8.56000042	6.68650103	1.33299994	0	200	0
8.54199982	6.68639994	1.33500004	0	200	0
8.57600021	6.68659973	1.31500006	0	200	0
8.58699989	6.68659973	1.29900002	0	200	0
8.55700016	6.68650103	1.31799996	0	200	0
8.58600044	6.68659973	1.28400004	0	200	0
8.61800003	6.68669987	1.27900004	0	200	0
8.6079998	6.68669987	1.296	0	200	0
8.58399963	6.68659973	1.33000004	0	200	0
8.67800045	6.68700027	1.301	0	200	0
8.69099998	6.68700027	1.28400004	0	200	0
8.61100006	6.68669987	1.32599998	0	200	0
8.63599968	6.6868	1.32299995	0	200	0
8.69499969	6.68700027	1.26800001	0	200	0
8.65100002	6.68690014	1.30499995	0	200	0
8.60599995	6.68669987	1.31099999	0	200	0
8.63399982	6.6868	1.30700004	0	200	0
8.65600014	6.68690014	1.28900003	0	200	0
8.66499996	6.68690014	1.27199996	0	200	0
8.63700008	6.6868	1.29200006	0	200	0
8.63099957	6.6868	1.27699995	0	200	0
8.90499973	6.68780088	0.856000006	0	200	0
8.90699959	6.68780088	0.871999979	0	200	0
8.89599991	6.68780088	0.953999996	0	200	0
8.90499973	6.68780088	0.920000017	0	200	0
8.89500046	6.68780088	0.938000023	0	200	0
8.89400005	6.68780088	0.810000002	0	200	0
8.89799976	6.68780088	0.728999972	0	200	0
8.91600037	6.68780088	0.773000002	0	200	0
8.875	6.68770027	0.717000008	0	200	0
8.89700031	6.68780088	0.760999978	0	200	0
8.89299965	6.68789959	0.762000024	0	200	0
8.8920002	6.68780088	0.79400003	0	200	0
8.9289999	6.68789959	0.836000025	0	200	0
8.92199993	6.68789959	0.852999985	0	200	0
8.91399956	6.68780088	0.838	0	200	0
8.89999962	6.68780088	0.968999982	0	200	0
8.92599964	6.68789959	0.80400002	0	200	0
8.86400032	6.68760014	0.686999977	0	200	0
8.86100006	6.68770027	0.688000023	0	200	0
8.88000011	6.68770027	0.699999988	0	200	0
8.90799999	6.68780088	0.677999973	0	200	0
8.90299988	6.68780088	0.694999993	0	200	0
8.90200043	6.68780088	0.712000012	0	200	0
8.93700027	6.68789959	0.786000013	0	200	0
8.89400005	6.68780088	0.648999989	0	200	0
8.91899967	6.68789959	0.595000029	0	200	0
8.90600014	6.68780088	0.564999998	0	200	0
8.90799999	6.68780088	0.597000003	0	200	0
8.90200043	6.68780088	0.630999982	0	200	0
8.92599964	6.68789959	0.625999987	0	200	0
8.87300014	6.68770027	0.523999989	0	200	0
8.93999958	6.68789959	0.913999975	0	200	0
8.95199966	6.68789959	0.68599999	0	200	0
8.93200016	6.68789959	0.672999978	0	200	0
8.92399979	6.68809986	0.68900001	0	200	0
8.93099976	6.68789959	0.963999987	0	200	0
8.87899971	6.68770027	1.01999998	0	200	0
8.88399982	6.68770027	1.00399995	0	200	0
8.86600018	6.68760014	1.03799999	0	200	0
8.87800026	6.68770027	1.03699994	0	200	0
8.93400002	6.68789959	0.559000015	0	200	0
8.88899994	6.68780088	0.486999989	0	200	0
8.90499973	6.68780088	0.532999992	0	200	0
8.89299965	6.68780088	0.518999994	0	200	0
8.90299988	6.68780088	0.549000025	0	200	0
8.86600018	6.68770027	0.395000011	0	200	0
8.87300014	6.68770027	0.409999996	0	200	0
8.88199997	6.68770027	0.456	0	200	0
8.87100029	6.68770027	0.442999989	0	200	0
8.93700027	6.68789959	0.541999996	0	200	0
8.94299984	6.6882	0.586000025	0	200	0
8.84500027	6.6875	1.10500002	0	200	0
8.88500023	6.68770027	1.051	0	200	0
8.85499954	6.68760014	1.08800006	0	200	0
8.82499981	6.6875	1.12399995	0	200	0
8.80500031	6.68739986	1.12699997	0	200	0
8.86999989	6.68780088	0.312000006	0	200	0
8.8579998	6.68770027	0.379999995	0	200	0
8.86299992	6.68770027	0.363000005	0	200	0
8.7670002	6.68729973	0.0930000022	0	200	0
8.68099976	6.68700027	0.0340000018	0	200	0
8.70600033	6.68710041	0.0759999976	0	200	0
8.89400005	6.68780088	0.388000011	0	200	0
8.90499973	6.68780088	0.270999998	0	200	0
8.91600037	6.68770027	0.284000009	0	200	0
8.90400028	6.68780088	0.368999988	0	200	0
8.89599991	6.68770027	0.273000002	0	200	0
8.89500046	6.68780088	0.289000005	0	200	0
8.88799953	6.68780088	0.356999993	0	200	0
8.88700008	6.68780088	0.324000001	0	200	0
8.89700031	6.68780088	0.469000012	0	200	0
8.94299984	6.68789959	0.508000016	0	200	0
8.93799973	6.68789959	0.526000023	0	200	0
8.89400005	6.68780088	0.453999996	0	200	0
8.89400005	6.68780088	0.405000001	0	200	0
8.93700027	6.68789959	0.460000008	0	200	0
8.89299965	6.68780088	0.437000006	0	200	0
8.70199966	6.68710041	0.0280000009	0	200	0
8.71899986	6.68710041	0.0399999991	0	200	0
8.77999973	6.68739986	0.104999997	0	200	0
8.53499985	6.68650103	-0.118000001	0	200	0
8.56099987	6.68659973	-0.0939999968	0	200	0
8.57199955	6.68659973	-0.0810000002	0	200	0
8.44799995	6.68620014	-0.156000003	0	200	0
8.47500038	6.68630028	-0.148000002	0	200	0
8.41800022	6.68610001	-0.163000003	0	200	0
8.47299957	6.68630028	-0.164000005	0	200	0
8.5	6.68639994	-0.156000003	0	200	0
8.48700047	6.68650103	-0.151999995	0	200	0
8.50300026	6.68639994	-0.141000003	0	200	0
8.52799988	6.68650103	-0.149000004	0	200	0
8.44799995	6.68620014	-0.172000006	0	200	0
8.73499966	6.68719959	1.21599996	0	200	0
8.81000042	6.68739986	1.14199996	0	200	0
8.76599979	6.68719959	1.19599998	0	200	0
8.77799988	6.68729973	1.17799997	0	200	0
8.75399971	6.68719959	1.22899997	0	200	0
8.80500031	6.68739986	1.17400002	0	200	0
8.77200031	6.68729973	1.21000004	0	200	0
8.77499962	6.68729973	1.19400001	0	200	0
8.80799961	6.68739986	1.19000006	0	200	0
8.79599953	6.68739986	1.20700002	0	200	0
8.77999973	6.68729973	1.22500002	0	200	0
8.82999992	6.6875	1.13900006	0	200	0
8.70199966	6.68710041	-0.00400000019	0	200	0
8.6960001	6.68710041	0.0140000004	0	200	0
8.69400024	6.68700027	0.0140000004	0	200	0
8.91600037	6.68780088	1.01400006	0	200	0
8.91800022	6.68780088	0.998000026	0	200	0
8.86299992	6.68760014	1.102	0	200	0
8.89099979	6.68770027	1.08200002	0	200	0
8.90600014	6.68780088	1.04799998	0	200	0
8.9119997	6.68780088	1.03100002	0	200	0
8.87300014	6.68770027	1.11699998	0	200	0
8.85299969	6.68760014	1.13600004	0	200	0
8.85900021	6.68760014	1.11899996	0	200	0
8.93299961	6.68789959	1.01100004	0	200	0
8.96100044	6.68789959	0.943000019	0	200	0
8.83399963	6.6875	1.16999996	0	200	0
8.80500031	6.68739986	1.22099996	0	200	0
8.8409996	6.6875	1.18499994	0	200	0
8.82299995	6.6875	1.20299995	0	200	0
8.71899986	6.68710041	1.31099999	0	200	0
8.73900032	6.68719959	1.27699995	0	200	0
8.73999977	6.68710041	1.26199996	0	200	0
8.71500015	6.68710041	1.296	0	200	0
8.68599987	6.68700027	1.31599998	0	200	0
8.66399956	6.68690014	1.31900001	0	200	0
8.71899986	6.68710041	1.27999997	0	200	0
8.76599979	6.68729973	1.27400005	0	200	0
8.76599979	6.68729973	1.25800002	0	200	0
8.76599979	6.68719959	1.25800002	0	200	0
8.74800014	6.68719959	1.29200006	0	200	0
8.1960001	6.68530083	-0.151999995	0	200	0
8.14999962	6.68510008	-0.135000005	0	200	0
8.17000008	6.68520021	-0.141000003	0	200	0
8.23799992	6.68540001	-0.135000005	0	200	0
8.14299965	6.68510008	-0.116999999	0	200	0
8.19400024	6.68530083	-0.135000005	0	200	0
8.13700008	6.68510008	-0.0989999995	0	200	0
8.16600037	6.68520021	-0.123999998	0	200	0
8.21000004	6.68530083	-0.123999998	0	200	0
8.1590004	6.68520021	-0.107000001	0	200	0
8.11900043	6.68499994	-0.125	0	200	0
8.26099968	6.68549967	-0.143999994	0	200	0
8.13700008	6.68510008	-0.147	0	200	0
8.1260004	6.68499994	-0.143000007	0	200	0
8.16600037	6.68520021	-0.156000003	0	200	0
8.29300022	6.6855998	-0.153999999	0	200	0
8.23600006	6.68540001	-0.165999994	0	200	0
8.25399971	6.68549967	-0.157000005	0	200	0
8.25199986	6.68540001	-0.155000001	0	200	0
8.38700008	6.68599987	-0.184	0	200	0
8.32900047	6.68580008	-0.197999999	0	200	0
8.30700016	6.68569994	-0.191	0	200	0
8.28899956	6.6855998	-0.169	0	200	0
8.35000038	6.68590069	-0.187999994	0	200	0
8.30300045	6.68569994	-0.172999993	0	200	0
8.32699966	6.68580008	-0.180999994	0	200	0
8.36299992	6.68590069	-0.175999999	0	200	0
8.33699989	6.68580008	-0.167999998	0	200	0
8.31499958	6.68569994	-0.160999998	0	200	0
8.27700043	6.6855998	-0.180999994	0	200	0
8.25800037	6.68549967	-0.173999995	0	200	0
8.28299999	6.6855998	-0.199000001	0	200	0
8.29800034	6.68569994	-0.202999994	0	200	0
8.23400021	6.68540001	-0.180999994	0	200	0
8.2510004	6.68549967	-0.187999994	0	200	0
8.19999981	6.68530083	-0.169	0	200	0
8.36499977	6.68590069	-0.209000006	0	200	0
8.40499973	6.68610001	-0.191	0	200	0
8.38199997	6.68599987	-0.199000001	0	200	0
8.49800014	6.68639994	-0.187999994	0	200	0
8.42199993	6.68610001	-0.229000002	0	200	0
8.46899986	6.68630028	-0.211999997	0	200	0
8.3920002	6.68599987	-0.217999995	0	200	0
8.43400002	6.68620014	-0.216999993	0	200	0
8.49300003	6.68639994	-0.170000002	0	200	0
8.40499973	6.68610001	-0.207000002	0	200	0
8.4630003	6.68650103	-0.177000001	0	200	0
8.43900013	6.68620014	-0.202000007	0	200	0
8.47000027	6.68630028	-0.179000005	0	200	0
8.34500027	6.68580008	-0.218999997	0	200	0
8.35900021	6.68590069	-0.223000005	0	200	0
8.57699966	6.68659973	-0.130999997	0	200	0
8.4989996	6.68659973	-0.188999996	0	200	0
8.54599953	6.68659973	-0.170000002	0	200	0
8.51099968	6.68650103	-0.175999999	0	200	0
8.41800022	6.68610001	-0.244000003	0	200	0
8.48600006	6.68639994	-0.216999993	0	200	0
8.47299957	6.68630028	-0.229000002	0	200	0
8.44900036	6.68620014	-0.238000005	0	200	0
8.45499992	6.68639994	-0.223000005	0	200	0
8.47599983	6.68650103	-0.230000004	0	200	0
8.45699978	6.68610001	1.39199996	0	200	0
8.35999966	6.68580008	1.41999996	0	200	0
8.34599972	6.68569994	1.40699995	0	200	0
8.41399956	6.68599987	1.41400003	0	200	0
8.38599968	6.68590069	1.41700006	0	200	0
8.45699978	6.68610001	1.37699997	0	200	0
8.3409996	6.68569994	1.39300001	0	200	0
8.42500019	6.68599987	1.39699996	0	200	0
8.38199997	6.68580008	1.403	0	200	0
8.39299965	6.68590069	1.40100002	0	200	0
8.43200016	6.68599987	1.38100004	0	200	0
8.36100006	6.68580008	1.39100003	0	200	0
8.39099979	6.68590069	1.38699996	0	200	0
8.48499966	6.68620014	1.38800001	0	200	0
8.45100021	6.68610001	1.40699995	0	200	0
8.47999954	6.68620014	1.37399995	0	200	0
8.50599957	6.68630028	1.38499999	0	200	0
8.47900009	6.68620014	1.40400004	0	200	0
8.50300026	6.68630028	1.37100005	0	200	0
8.53199959	6.68639994	1.36699998	0	200	0
8.42300034	6.68599987	1.42700005	0	200	0
8.52600002	6.68639994	1.38300002	0	200	0
8.51000023	6.68630028	1.39999998	0	200	0
8.47500038	6.68620014	1.41900003	0	200	0
8.46100044	6.68610001	1.421	0	200	0
8.28800011	6.68549967	1.41499996	0	200	0
8.32900047	6.68569994	1.43900001	0	200	0
8.39599991	6.68590069	1.43099999	0	200	0
8.29300022	6.68549967	1.39999998	0	200	0
8.31499958	6.6855998	1.426	0	200	0
8.36800003	6.68580008	1.43400002	0	200	0
8.31000042	6.6855998	1.41199994	0	200	0
8.30000019	6.6855998	1.39900005	0	200	0
8.3380003	6.68569994	1.42299998	0	200	0
8.26000023	6.68540001	1.40600002	0	200	0
8.23600006	6.68530083	1.42499995	0	200	0
8.26200008	6.68540001	1.449	0	200	0
8.25199986	6.68540001	1.43599999	0	200	0
8.23900032	6.68530083	1.40999997	0	200	0
8.29199982	6.68549967	1.44400001	0	200	0
8.25599957	6.68540001	1.421	0	200	0
8.29500008	6.6855998	1.44400001	0	200	0
8.28600025	6.68549967	1.42999995	0	200	0
8.21000004	6.68520021	1.41499996	0	200	0
8.56099987	6.68650103	1.39300001	0	200	0
8.57800007	6.68659973	1.37600005	0	200	0
8.5909996	6.68659973	1.35899997	0	200	0
8.52900028	6.68639994	1.398	0	200	0
8.55500031	6.68650103	1.37899995	0	200	0
8.55599976	6.68650103	1.36399996	0	200	0
8.52999973	6.68639994	1.41199994	0	200	0
8.50300026	6.68630028	1.41600001	0	200	0
8.17599964	6.68510008	1.449	0	200	0
8.15699959	6.68499994	1.43700004	0	200	0
8.19999981	6.68520021	1.44599998	0	200	0
8.22500038	6.68530083	1.44099998	0	200	0
8.15499973	6.68499994	1.42200005	0	200	0
8.1789999	6.68510008	1.43400002	0	200	0
8.20600033	6.68520021	1.42999995	0	200	0
8.18799973	6.68510008	1.41799998	0	200	0
8.20100021	6.68520021	1.46000004	0	200	0
8.22700024	6.68530083	1.45500004	0	200	0
8.17700005	6.68510008	1.46300006	0	200	0
8.15100002	6.68499994	1.45200002	0	200	0
8.15499973	6.68499994	1.46599996	0	200	0
8.62100029	6.68669987	1.35500002	0	200	0
8.56000042	6.68650103	1.40900004	0	200	0
8.90299988	6.68780088	1.09599996	0	200	0
8.91100025	6.68780088	1.079	0	200	0
8.89500046	6.68770027	1.097	0	200	0
8.89299965	6.68770027	1.12899995	0	200	0
8.85299969	6.68760014	1.16700006	0	200	0
8.97599983	6.68809986	0.906000018	0	200	0
8.9119997	6.68780088	1.12699997	0	200	0
8.86499977	6.68760014	1.18099999	0	200	0
8.88000011	6.68770027	1.16299999	0	200	0
8.8210001	6.6875	1.21899998	0	200	0
8.76399994	6.68729973	1.28999996	0	200	0
8.80799961	6.68739986	1.25199997	0	200	0
8.76200008	6.68719959	1.30499995	0	200	0
8.77400017	6.68729973	1.30400002	0	200	0
8.91800022	6.68780088	1.11000001	0	200	0
8.62100029	6.68669987	1.40100002	0	200	0
8.59599972	6.68659973	1.40400004	0	200	0
8.63000011	6.6868	1.35399997	0	200	0
8.61400032	6.68669987	1.38699996	0	200	0
8.6239996	6.68669987	1.37	0	200	0
8.60599995	6.68659973	1.38800001	0	200	0
8.65600014	6.6868	1.36600006	0	200	0
8.66699982	6.68690014	1.34899998	0	200	0
8.65200043	6.6868	1.38199997	0	200	0
8.66800022	6.68690014	1.36399996	0	200	0
8.64299965	6.6868	1.398	0	200	0
8.71100044	6.68710041	1.38999999	0	200	0
8.75399971	6.68719959	1.35300004	0	200	0
8.67300034	6.68690014	1.39400005	0	200	0
8.69499969	6.68700027	1.39199996	0	200	0
8.67500019	6.68690014	1.37899995	0	200	0
8.69900036	6.68700027	1.37600005	0	200	0
8.73900032	6.68719959	1.34000003	0	200	0
8.71800041	6.68710041	1.35800004	0	200	0
8.73400021	6.68710041	1.34000003	0	200	0
8.70100021	6.68700027	1.36000001	0	200	0
8.69699955	6.68700027	1.34500003	0	200	0
8.9989996	6.68809986	0.852999985	0	200	0
8.97500038	6.68799973	1.00399995	0	200	0
8.97799969	6.68799973	0.987999976	0	200	0
9.0010004	6.68809986	0.772000015	0	200	0
9.00699997	6.6882	0.785000026	0	200	0
9.01200008	6.6882	0.833000004	0	200	0
9.01000023	6.6882	0.850000024	0	200	0
8.99199963	6.68809986	0.984000027	0	200	0
8.9829998	6.68809986	1.00199997	0	200	0
9.01000023	6.6882	0.768000007	0	200	0
8.98400021	6.6882	0.691999972	0	200	0
9.02799988	6.6882	0.81400001	0	200	0
9.01799965	6.68809986	0.736000001	0	200	0
9.01399994	6.6882	0.735000014	0	200	0
9.01799965	6.6882	0.750999987	0	200	0
9.01799965	6.6882	0.620000005	0	200	0
9.01200008	6.6882	0.947000027	0	200	0
9.02200031	6.68809986	0.913999975	0	200	0
9.01000023	6.68830013	0.930999994	0	200	0
9.01099968	6.68809986	0.948000014	0	200	0
9.01200008	6.6882	0.930000007	0	200	0
9.00899982	6.6882	0.898999989	0	200	0
9.01000023	6.68809986	0.931999981	0	200	0
9.00800037	6.6882	0.915000021	0	200	0
9.03999996	6.68830013	0.663999975	0	200	0
9.03800011	6.68830013	0.680999994	0	200	0
9.02400017	6.68830013	0.699999988	0	200	0
9.01900005	6.6882	0.65200001	0	200	0
9.01500034	6.6882	0.702000022	0	200	0
9.01200008	6.68809986	0.688000023	0	200	0
9.01500034	6.6882	0.995000005	0	200	0
9.0170002	6.6882	0.977999985	0	200	0
8.98499966	6.68809986	1.03400004	0	200	0
8.99800014	6.68809986	1.01499999	0	200	0
8.97399998	6.68789959	1.03699994	0	200	0
8.97099972	6.68799973	1.03699994	0	200	0
8.94699955	6.68789959	1.08899999	0	200	0
8.93999958	6.68789959	1.10599995	0	200	0
9.0170002	6.68809986	0.523000002	0	200	0
8.94900036	6.68789959	0.39199999	0	200	0
8.94299984	6.68789959	0.377000004	0	200	0
8.96700001	6.68789959	0.419999987	0	200	0
9.02900028	6.6882	0.601000011	0	200	0
8.87300014	6.68760014	1.19599998	0	200	0
