-9.50800037	6.92630005	-0.0340000018	200	0	0
-9.52299976	6.92669964	0.050999999	200	0	0
-9.51599979	6.92679977	0.0520000011	200	0	0
-9.51599979	6.92689991	-0.0179999992	200	0	0
-9.51599979	6.92689991	-0.00100000005	200	0	0
-9.53100014	6.92679977	0.0309999995	200	0	0
-9.51799965	6.92679977	-0.00100000005	200	0	0
-9.51200008	6.92689991	0.0710000023	200	0	0
-9.52799988	6.92689991	0.0489999987	200	0	0
-9.51900005	6.92700005	0.0700000003	200	0	0
-9.52600002	6.92700005	0.0320000015	200	0	0
-9.53999996	6.92700005	0.0469999984	200	0	0
-9.53499985	6.92710018	0.0480000004	200	0	0
-9.51299953	6.92700005	-0.0350000001	200	0	0
-9.54300022	6.92749977	0.063000001	200	0	0
-9.52299976	6.92749977	0.050999999	200	0	0
-9.52799988	6.92740011	0.0320000015	200	0	0
-9.54599953	6.92740011	0.0450000018	200	0	0
-9.52400017	6.92740011	0.0680000037	200	0	0
-9.53100014	6.92729998	0.0659999996	200	0	0
-9.52999973	6.92740011	-0.00400000019	200	0	0
-9.54800034	6.92749977	0.0270000007	200	0	0
-9.51299953	6.92700005	-0.0890000015	200	0	0
-9.53100014	6.92749977	-0.0219999999	200	0	0
-9.54199982	6.92759991	0.0299999993	200	0	0
-9.5340004	6.92770004	0.0500000007	200	0	0
-9.52700043	6.92780113	-0.00200000009	200	0	0
-9.53800011	6.92770004	-0.00499999989	200	0	0
-9.52000046	6.92770004	-0.0350000001	200	0	0
-9.51900005	6.92759991	-0.0170000009	200	0	0
-9.52600002	6.92780113	0.0869999975	200	0	0
-9.52200031	6.92780113	0.0710000023	200	0	0
-9.54800034	6.92780113	0.0460000001	200	0	0
-9.55099964	6.92789984	0.0450000018	200	0	0
-9.52299976	6.92789984	0.0350000001	200	0	0
-9.52099991	6.92789984	0	200	0	0
-9.51399994	6.92799997	0.0729999989	200	0	0
-9.53100014	6.92799997	0.0329999998	200	0	0
-9.52700043	6.92799997	0.050999999	200	0	0
-9.53199959	6.92789984	-0.0209999997	200	0	0
-9.52600002	6.92820024	-0.00100000005	200	0	0
-9.52999973	6.92840099	0.050999999	200	0	0
-9.53600025	6.92830038	0.0309999995	200	0	0
-9.52200031	6.92799997	0	200	0	0
-9.53199959	6.92830038	0.0680000037	200	0	0
-9.52099991	6.92820024	0.0350000001	200	0	0
-9.52799988	6.92810011	-0.0549999997	200	0	0
-9.50199986	6.92820024	-0.0839999989	200	0	0
-9.48799992	6.92810011	-0.0799999982	200	0	0
-9.51099968	6.92840099	-0.0329999998	200	0	0
-9.51900005	6.92840099	-0.0170000009	200	0	0
-9.51599979	6.9284997	0.0540000014	200	0	0
-9.51500034	6.92859983	0.0370000005	200	0	0
-9.53299999	6.92859983	0.0500000007	200	0	0
-9.53100014	6.92880011	-0.00300000003	200	0	0
-9.5340004	6.92869997	0.0320000015	200	0	0
-9.53199959	6.92869997	-0.0209999997	200	0	0
-9.50599957	6.92859983	-0.0309999995	200	0	0
-9.53499985	6.92859983	-0.0219999999	200	0	0
-9.52299976	6.92869997	0.0520000011	200	0	0
-9.52299976	6.92869997	0.0700000003	200	0	0
-9.52700043	6.92880011	0.0689999983	200	0	0
-9.52200031	6.92880011	0.0529999994	200	0	0
-9.53899956	6.92880011	0.0309999995	200	0	0
-9.54599953	6.92880011	-0.0240000002	200	0	0
-9.52400017	6.92890024	0.0350000001	200	0	0
-9.53600025	6.92890024	0.0489999987	200	0	0
-9.50899982	6.92890024	0.0909999982	200	0	0
-9.52600002	6.92890024	0.0689999983	200	0	0
-9.52400017	6.92890024	-0.00100000005	200	0	0
-9.51799965	6.92900085	0.0540000014	200	0	0
-9.52400017	6.92909956	0.0350000001	200	0	0
-9.53199959	6.92909956	-0.0209999997	200	0	0
-9.51900005	6.92909956	0	200	0	0
-9.52900028	6.92900085	0.0329999998	200	0	0
-9.51200008	6.92890024	-0.0329999998	200	0	0
-9.5170002	6.92890024	-0.0170000009	200	0	0
-9.53600025	6.9291997	-0.00400000019	200	0	0
-9.54300022	6.92929983	0.0469999984	200	0	0
-9.54699993	6.9291997	0.064000003	200	0	0
-9.52700043	6.9291997	0.0340000018	200	0	0
-9.52499962	6.9291997	0.0520000011	200	0	0
-9.50199986	6.92909956	0.075000003	200	0	0
-9.53600025	6.92909956	0.0850000009	200	0	0
-9.53899956	6.92929983	-0.00499999989	200	0	0
-9.55799961	6.92929983	-0.0280000009	200	0	0
-9.54300022	6.92939997	0.0299999993	200	0	0
-9.5369997	6.92939997	0.0489999987	200	0	0
-9.52999973	6.9295001	-0.00200000009	200	0	0
-9.53600025	6.9295001	0.0489999987	200	0	0
-9.52499962	6.9295001	0.0869999975	200	0	0
-9.53299999	6.9296999	0.0320000015	200	0	0
-9.54800034	6.92960024	0.0460000001	200	0	0
-9.52900028	6.9296999	-0.0199999996	200	0	0
-9.52099991	6.9296999	0	200	0	0
-9.50599957	6.92960024	-0.0320000015	200	0	0
-9.52700043	6.9295001	-0.0199999996	200	0	0
-9.54399967	6.9296999	0.0469999984	200	0	0
-9.52799988	6.9296999	0.0689999983	200	0	0
-9.53499985	6.92980003	-0.00400000019	200	0	0
-9.53100014	6.92980003	0.0680000037	200	0	0
-9.54199982	6.92980003	0.0299999993	200	0	0
-9.52000046	6.92980003	0.0890000015	200	0	0
-9.52099991	6.92999983	0.0529999994	200	0	0
-9.53999996	6.92989969	0.0299999993	200	0	0
-9.54399967	6.92989969	0.0469999984	200	0	0
-9.53100014	6.92999983	-0.00300000003	200	0	0
-9.52400017	6.92999983	0.0350000001	200	0	0
-9.52600002	6.92999983	-0.0370000005	200	0	0
-9.54100037	6.92999983	-0.023	200	0	0
-9.48900032	6.9295001	-0.0799999982	200	0	0
-9.53199959	6.93009996	0.0329999998	200	0	0
-9.51099968	6.93009996	-0.0149999997	200	0	0
-9.5340004	6.9302001	0.0850000009	200	0	0
-9.52099991	6.9302001	0.0710000023	200	0	0
-9.50300026	6.92999983	0.0930000022	200	0	0
-9.53199959	6.9302001	0.0500000007	200	0	0
-9.52799988	6.93009996	0.0689999983	200	0	0
-9.53899956	6.93009996	0.0489999987	200	0	0
-9.51299953	6.9302001	-0.0329999998	200	0	0
-9.52700043	6.93030071	0.0689999983	200	0	0
-9.53600025	6.93030071	-0.00400000019	200	0	0
-9.54100037	6.93030071	0.0480000004	200	0	0
-9.54599953	6.93030071	0.0289999992	200	0	0
-9.52299976	6.93039989	-0.00100000005	200	0	0
-9.52700043	6.93030071	-0.0370000005	200	0	0
-9.52400017	6.93030071	-0.0179999992	200	0	0
-9.52799988	6.93039989	0.0869999975	200	0	0
-9.52999973	6.93039989	0.050999999	200	0	0
-9.52999973	6.93050003	-0.0199999996	200	0	0
-9.5340004	6.93060017	0.0500000007	200	0	0
-9.53800011	6.93050003	-0.00400000019	200	0	0
-9.52000046	6.93050003	0.0529999994	200	0	0
-9.52900028	6.93050003	0.0329999998	200	0	0
-9.49800014	6.93060017	-0.0469999984	200	0	0
-9.50399971	6.93060017	-0.0309999995	200	0	0
-9.52799988	6.93060017	-0.0199999996	200	0	0
-9.51399994	6.93050003	-0.0340000018	200	0	0
-9.50399971	6.93009996	-0.0839999989	200	0	0
-9.5010004	6.93060017	0.0759999976	200	0	0
-9.52099991	6.9307003	-0.0370000005	200	0	0
-9.53100014	6.9307003	0.0309999995	200	0	0
-9.50699997	6.9307003	-0.0160000008	200	0	0
-9.51200008	6.9307003	0.00100000005	200	0	0
-9.5369997	6.9307003	0.0469999984	200	0	0
-9.52799988	6.9307003	0.0680000037	200	0	0
-9.5369997	6.93090105	0.0299999993	200	0	0
-9.54300022	6.93090105	0.0460000001	200	0	0
-9.51799965	6.93090105	0.0700000003	200	0	0
-9.52000046	6.93079996	0.0520000011	200	0	0
-9.52900028	6.93090105	-0.00400000019	200	0	0
-9.52200031	6.93079996	-0.0370000005	200	0	0
-9.52000046	6.93079996	-0.0189999994	200	0	0
-9.49699974	6.93060017	-0.0820000023	200	0	0
-9.52799988	6.93099976	0.0680000037	200	0	0
-9.54199982	6.93099976	0.0460000001	200	0	0
-9.53499985	6.93109989	0.0460000001	200	0	0
-9.51200008	6.93109989	0.0700000003	200	0	0
-9.53299999	6.93109989	0.0820000023	200	0	0
-9.52900028	6.93109989	0.0299999993	200	0	0
-9.52600002	6.93120003	-0.0219999999	200	0	0
-9.52200031	6.93120003	-0.00300000003	200	0	0
-9.51200008	6.93130016	-0.0359999985	200	0	0
-9.53100014	6.93130016	0.0299999993	200	0	0
-9.52799988	6.93130016	-0.00499999989	200	0	0
-9.53600025	6.93120003	-0.0599999987	200	0	0
-9.52299976	6.93130016	0.0670000017	200	0	0
-9.51200008	6.9314003	-0.0540000014	200	0	0
-9.53199959	6.9314003	-0.0410000011	200	0	0
-9.53999996	6.9314003	-0.00800000038	200	0	0
-9.53800011	6.9314003	-0.0250000004	200	0	0
-9.5170002	6.93150091	0.0320000015	200	0	0
-9.52299976	6.93150091	0.0480000004	200	0	0
-9.54599953	6.9314003	0.0439999998	200	0	0
-9.52400017	6.93150091	-0.00499999989	200	0	0
-9.53499985	6.93159962	-0.00800000038	200	0	0
-9.51900005	6.93159962	-0.0219999999	200	0	0
-9.50599957	6.93159962	0.0700000003	200	0	0
-9.51399994	6.93179989	-0.00300000003	200	0	0
-9.53199959	6.93169975	-0.0250000004	200	0	0
-9.52700043	6.93179989	0.0649999976	200	0	0
-9.5369997	6.93169975	0.0799999982	200	0	0
-9.52499962	6.93179989	0.0480000004	200	0	0
-9.53800011	6.93179989	0.0270000007	200	0	0
-9.54300022	6.93169975	0.0250000004	200	0	0
-9.52000046	6.93190002	0.0309999995	200	0	0
-9.52299976	6.93190002	0.0480000004	200	0	0
-9.52799988	6.93190002	0.0820000023	200	0	0
-9.53499985	6.93190002	0.063000001	200	0	0
-9.52200031	6.93190002	-0.00499999989	200	0	0
-9.53800011	6.93200016	0.0439999998	200	0	0
-9.53899956	6.93190002	-0.0270000007	200	0	0
-9.5170002	6.9321003	-0.0399999991	200	0	0
-9.52200031	6.9321003	-0.00600000005	200	0	0
-9.51000023	6.9321003	-0.0209999997	200	0	0
-9.5170002	6.93200016	-0.0209999997	200	0	0
-9.52200031	6.93190002	-0.0579999983	200	0	0
-9.53499985	6.9321003	0.0260000005	200	0	0
-9.52600002	6.93219948	-0.00700000022	200	0	0
-9.52799988	6.93219948	-0.0430000015	200	0	0
-9.51500034	6.93219948	-0.0219999999	200	0	0
-9.53299999	6.93219948	0.0439999998	200	0	0
-9.53299999	6.9321003	0.061999999	200	0	0
-9.52900028	6.93239975	0.063000001	200	0	0
-9.54599953	6.93239975	0.0410000011	200	0	0
-9.53800011	6.93229961	0.0599999987	200	0	0
-9.53100014	6.93229961	0.0450000018	200	0	0
-9.51799965	6.93239975	-0.0410000011	200	0	0
-9.52600002	6.93239975	-0.0250000004	200	0	0
-9.5010004	6.93249989	-0.0540000014	200	0	0
-9.52200031	6.93270016	-0.0419999994	200	0	0
-9.54300022	6.93270016	0.0240000002	200	0	0
-9.51500034	6.93260002	-0.057	200	0	0
-9.5369997	6.93260002	0.0430000015	200	0	0
-9.52099991	6.93260002	-0.0410000011	200	0	0
-9.54399967	6.93249989	0.0410000011	200	0	0
-9.53299999	6.93260002	-0.0270000007	200	0	0
-9.53100014	6.93260002	-0.00800000038	200	0	0
-9.51599979	6.93270016	0.0489999987	200	0	0
-9.5340004	6.93280077	-0.00899999961	200	0	0
-9.53499985	6.93280077	0.0610000007	200	0	0
-9.52799988	6.93280077	0.0450000018	200	0	0
-9.53100014	6.93280077	0.0270000007	200	0	0
-9.51399994	6.93280077	-0.0219999999	200	0	0
-9.52400017	6.93289995	0.0460000001	200	0	0
-9.54199982	6.93300009	-0.0109999999	200	0	0
-9.53800011	6.93300009	-0.0280000009	200	0	0
-9.50699997	6.93300009	-0.0379999988	200	0	0
-9.5369997	6.93289995	-0.00999999978	200	0	0
-9.51299953	6.93289995	-0.0209999997	200	0	0
-9.5369997	6.93300009	0.0260000005	200	0	0
-9.54300022	6.93300009	0.0590000004	200	0	0
-9.53299999	6.93300009	0.0439999998	200	0	0
-9.54399967	6.93309975	0.0240000002	200	0	0
-9.52600002	6.93309975	0.0460000001	200	0	0
-9.53600025	6.93330002	0.0799999982	200	0	0
-9.52600002	6.93319988	0.0299999993	200	0	0
-9.52600002	6.93319988	0.0829999968	200	0	0
-9.51099968	6.93319988	0.0689999983	200	0	0
-9.53299999	6.93330002	-0.00700000022	200	0	0
-9.53899956	6.93330002	-0.0270000007	200	0	0
-9.50800037	6.93330002	-0.0359999985	200	0	0
-9.51799965	6.93340111	-0.0390000008	200	0	0
-9.52799988	6.93359995	-0.00600000005	200	0	0
-9.53199959	6.93349981	-0.00700000022	200	0	0
-9.52000046	6.93349981	-0.0390000008	200	0	0
-9.51099968	6.93359995	0.050999999	200	0	0
-9.5340004	6.93340111	0.063000001	200	0	0
-9.53899956	6.93349981	0.0260000005	200	0	0
-9.52099991	6.93340111	0.0309999995	200	0	0
-9.54100037	6.93340111	0.0439999998	200	0	0
-9.52299976	6.93370008	-0.0219999999	200	0	0
-9.51500034	6.93370008	0.0680000037	200	0	0
-9.53299999	6.93370008	0.0460000001	200	0	0
-9.54300022	6.93380022	0.0250000004	200	0	0
-9.54199982	6.93380022	0.0439999998	200	0	0
-9.51900005	6.93380022	-0.057	200	0	0
-9.5170002	6.93390036	-0.00300000003	200	0	0
-9.53600025	6.93390036	-0.0260000005	200	0	0
-9.53800011	6.93380022	-0.0260000005	200	0	0
-9.51799965	6.93390036	-0.057	200	0	0
-9.52900028	6.93390036	0.0469999984	200	0	0
-9.51099968	6.93390036	0.0689999983	200	0	0
-9.52400017	6.93390036	0.0829999968	200	0	0
-9.52600002	6.93409967	0.0480000004	200	0	0
-9.53600025	6.93429995	0.0799999982	200	0	0
-9.53600025	6.93419981	0.0450000018	200	0	0
-9.53600025	6.93419981	0.0270000007	200	0	0
-9.52200031	6.93419981	-0.00499999989	200	0	0
-9.52700043	6.93429995	-0.0240000002	200	0	0
-9.53899956	6.93440008	-0.061999999	200	0	0
-9.52700043	6.93440008	0.0469999984	200	0	0
-9.54300022	6.93450022	-0.0280000009	200	0	0
-9.52400017	6.93450022	-0.00499999989	200	0	0
-9.53600025	6.93440008	-0.0439999998	200	0	0
-9.54800034	6.93429995	0.0419999994	200	0	0
-9.51799965	6.93440008	-0.0209999997	200	0	0
-9.52700043	6.93440008	-0.00600000005	200	0	0
-9.53899956	6.93429995	0.0270000007	200	0	0
-9.54100037	6.93450022	0.0610000007	200	0	0
-9.53999996	6.93450022	0.0439999998	200	0	0
-9.52299976	6.93440008	0.0659999996	200	0	0
-9.50800037	6.93460035	-0.0540000014	200	0	0
-9.51799965	6.93460035	-0.0390000008	200	0	0
-9.54300022	6.93460035	0.0430000015	200	0	0
-9.54300022	6.93469954	0.0250000004	200	0	0
-9.52900028	6.93469954	-0.0240000002	200	0	0
-9.48700047	6.93460035	-0.0839999989	200	0	0
-9.50899982	6.93450022	-0.0900000036	200	0	0
-9.52299976	6.93479967	0.0309999995	200	0	0
-9.52499962	6.93479967	-0.00499999989	200	0	0
-9.5170002	6.93479967	0.0500000007	200	0	0
-9.53299999	6.93499994	0.063000001	200	0	0
-9.53899956	6.93489981	0.0260000005	200	0	0
-9.54500008	6.93489981	0.0430000015	200	0	0
-9.52700043	6.93520021	0.0469999984	200	0	0
-9.51500034	6.93520021	0.0680000037	200	0	0
-9.53800011	6.93510008	0.0450000018	200	0	0
-9.54100037	6.93510008	0.0610000007	200	0	0
-9.5340004	6.93510008	-0.00800000038	200	0	0
-9.52000046	6.93499994	-0.0390000008	200	0	0
-9.54300022	6.93520021	-0.063000001	200	0	0
-9.51599979	6.93520021	-0.0379999988	200	0	0
-9.5170002	6.93510008	-0.0560000017	200	0	0
-9.54100037	6.93530083	-0.0270000007	200	0	0
-9.53600025	6.93530083	-0.0439999998	200	0	0
-9.49100018	6.93510008	-0.0850000009	200	0	0
-9.50899982	6.93530083	0.0700000003	200	0	0
-9.52600002	6.93530083	0.0480000004	200	0	0
-9.53899956	6.93520021	0.0260000005	200	0	0
-9.53299999	6.93530083	-0.00700000022	200	0	0
-9.54300022	6.93540001	0.0430000015	200	0	0
-9.54100037	6.93549967	-0.00899999961	200	0	0
-9.53100014	6.93549967	0.064000003	200	0	0
-9.52000046	6.93549967	0.0489999987	200	0	0
-9.52000046	6.9355998	-0.00400000019	200	0	0
-9.53899956	6.9355998	0.0439999998	200	0	0
-9.54800034	6.9355998	0.0240000002	200	0	0
-9.51000023	6.9355998	-0.0370000005	200	0	0
-9.53899956	6.9355998	-0.0270000007	200	0	0
-9.52000046	6.93569994	0.0670000017	200	0	0
-9.54500008	6.93569994	0.0250000004	200	0	0
-9.52000046	6.93569994	0.0489999987	200	0	0
-9.54300022	6.93569994	-0.0280000009	200	0	0
-9.5170002	6.93590069	0.0320000015	200	0	0
-9.52900028	6.93590069	0.0469999984	200	0	0
-9.51799965	6.93580008	0.0850000009	200	0	0
-9.51200008	6.93580008	0.0689999983	200	0	0
-9.5340004	6.93580008	0.0460000001	200	0	0
-9.51299953	6.93610001	0.0329999998	200	0	0
-9.54100037	6.93610001	0.0439999998	200	0	0
-9.52799988	6.93599987	0.0289999992	200	0	0
-9.52999973	6.93599987	0.0469999984	200	0	0
-9.52299976	6.93599987	-0.0399999991	200	0	0
-9.54300022	6.93569994	-0.0460000001	200	0	0
-9.53800011	6.93610001	-0.00899999961	200	0	0
-9.53899956	6.93620014	-0.0270000007	200	0	0
-9.53100014	6.93620014	0.0460000001	200	0	0
-9.53199959	6.93630028	-0.00700000022	200	0	0
-9.51599979	6.93630028	0.0680000037	200	0	0
-9.51799965	6.93630028	0.0500000007	200	0	0
-9.53800011	6.93630028	0.0270000007	200	0	0
-9.5340004	6.93639994	-0.0430000015	200	0	0
-9.54500008	6.93639994	0.0250000004	200	0	0
-9.5170002	6.93630028	-0.0560000017	200	0	0
-9.52999973	6.93639994	-0.0240000002	200	0	0
-9.52700043	6.93630028	-0.0410000011	200	0	0
-9.51900005	6.93630028	-0.0209999997	200	0	0
-9.51200008	6.93650103	0.0329999998	200	0	0
-9.52600002	6.93650103	-0.00600000005	200	0	0
-9.49300003	6.93630028	-0.0850000009	200	0	0
-9.53199959	6.93659973	0.0460000001	200	0	0
-9.51500034	6.93659973	0.0680000037	200	0	0
-9.51000023	6.93659973	-0.0189999994	200	0	0
-9.53199959	6.93659973	-0.0430000015	200	0	0
-9.51399994	6.93690014	0.0329999998	200	0	0
-9.52400017	6.9368	-0.00499999989	200	0	0
-9.52299976	6.93669987	-0.00499999989	200	0	0
-9.5170002	6.93669987	0.0680000037	200	0	0
-9.51500034	6.93669987	0.0500000007	200	0	0
-9.51599979	6.93669987	0.0320000015	200	0	0
-9.53299999	6.93690014	0.0460000001	200	0	0
-9.53800011	6.93700027	0.061999999	200	0	0
-9.51500034	6.93690014	-0.0199999996	200	0	0
-9.53600025	6.93700027	0.0450000018	200	0	0
-9.5	6.93690014	0.0719999969	200	0	0
-9.52099991	6.93690014	-0.00400000019	200	0	0
-9.52900028	6.93700027	0.0820000023	200	0	0
-9.51399994	6.93690014	-0.0560000017	200	0	0
-9.50699997	6.93690014	-0.0359999985	200	0	0
-9.51599979	6.93700027	-0.0379999988	200	0	0
-9.54100037	6.93700027	-0.0270000007	200	0	0
-9.52900028	6.93710041	-0.0240000002	200	0	0
-9.51000023	6.93700027	-0.0540000014	200	0	0
-9.54100037	6.93710041	0.0610000007	200	0	0
-9.52900028	6.93710041	0.0289999992	200	0	0
-9.53999996	6.93710041	0.0439999998	200	0	0
-9.52400017	6.93719959	0.0299999993	200	0	0
-9.5170002	6.93719959	-0.0390000008	200	0	0
-9.5369997	6.93719959	0.0450000018	200	0	0
-9.50800037	6.93719959	0.0700000003	200	0	0
-9.52600002	6.93729973	-0.00600000005	200	0	0
-9.51599979	6.93729973	-0.0379999988	200	0	0
-9.52700043	6.93700027	-0.0949999988	200	0	0
-9.5340004	6.93729973	0.063000001	200	0	0
-9.53299999	6.93729973	0.0460000001	200	0	0
-9.5340004	6.93729973	0.0280000009	200	0	0
-9.53199959	6.93739986	0.064000003	200	0	0
-9.54699993	6.93739986	0.0240000002	200	0	0
-9.52400017	6.93729973	0.0829999968	200	0	0
-9.53999996	6.93739986	0.0439999998	200	0	0
-9.52999973	6.9375	-0.00700000022	200	0	0
-9.53499985	6.9375	0.0810000002	200	0	0
-9.54100037	6.9375	0.0260000005	200	0	0
-9.52900028	6.9375	0.0469999984	200	0	0
-9.52900028	6.93780088	-0.00600000005	200	0	0
-9.50800037	6.93770027	0.0869999975	200	0	0
-9.54800034	6.93780088	0.0419999994	200	0	0
-9.54599953	6.93770027	0.0250000004	200	0	0
-9.52799988	6.93770027	0.0469999984	200	0	0
-9.52499962	6.93760014	-0.0590000004	200	0	0
-9.53499985	6.93789959	0.0450000018	200	0	0
-9.52400017	6.93789959	0.0659999996	200	0	0
-9.54500008	6.93780088	-0.0280000009	200	0	0
-9.53100014	6.93789959	-0.0250000004	200	0	0
-9.52799988	6.93809986	-0.0240000002	200	0	0
-9.52999973	6.93799973	0.0289999992	200	0	0
-9.53100014	6.93799973	0.0460000001	200	0	0
-9.53899956	6.93809986	-0.00899999961	200	0	0
-9.52900028	6.93809986	0.0469999984	200	0	0
-9.52200031	6.93809986	0.0309999995	200	0	0
-9.55700016	6.9382	0.0219999999	200	0	0
-9.55099964	6.9382	-0.0299999993	200	0	0
-9.52700043	6.9382	-0.00600000005	200	0	0
-9.55300045	6.9382	0.0410000011	200	0	0
-9.52400017	6.9382	0.0829999968	200	0	0
-9.54100037	6.93830013	0.0260000005	200	0	0
-9.54300022	6.93830013	0.0790000036	200	0	0
-9.52000046	6.93830013	0.0670000017	200	0	0
-9.53199959	6.93830013	-0.00700000022	200	0	0
-9.53299999	6.93840075	0.0280000009	200	0	0
-9.52200031	6.93830013	-0.0579999983	200	0	0
-9.53499985	6.93830013	-0.0439999998	200	0	0
-9.52999973	6.93840075	0.0469999984	200	0	0
-9.54300022	6.93869972	0.0270000007	200	0	0
-9.54500008	6.93860006	0.0439999998	200	0	0
-9.54899979	6.93869972	-0.00999999978	200	0	0
-9.54500008	6.93849993	0.0439999998	200	0	0
-9.52799988	6.93860006	-0.0219999999	200	0	0
-9.54199982	6.93849993	-0.0439999998	200	0	0
-9.5340004	6.93860006	-0.00600000005	200	0	0
-9.53499985	6.93860006	0.0649999976	200	0	0
-9.52799988	6.93849993	0.0659999996	200	0	0
-9.5340004	6.93869972	0.0649999976	200	0	0
-9.52900028	6.93869972	0.0480000004	200	0	0
-9.4829998	6.93830013	-0.0829999968	200	0	0
-9.53800011	6.93879986	0.0280000009	200	0	0
-9.53299999	6.93879986	0.0469999984	200	0	0
-9.53999996	6.93879986	-0.0610000007	200	0	0
-9.52200031	6.93879986	-0.0209999997	200	0	0
-9.53899956	6.93889999	0.0280000009	200	0	0
-9.52799988	6.93900108	-0.00300000003	200	0	0
-9.52999973	6.93900108	-0.0390000008	200	0	0
-9.51900005	6.93900108	-0.0179999992	200	0	0
-9.52700043	6.93889999	-0.0399999991	200	0	0
-9.5340004	6.93889999	-0.0240000002	200	0	0
-9.5340004	6.93889999	0.0469999984	200	0	0
-9.54899979	6.93900108	0.0270000007	200	0	0
-9.54399967	6.93900108	0.0460000001	200	0	0
-9.52600002	6.93909979	-0.00200000009	200	0	0
-9.54500008	6.93909979	0.0460000001	200	0	0
-9.53499985	6.93909979	0.0309999995	200	0	0
-9.53299999	6.93919992	-0.00100000005	200	0	0
-9.54399967	6.93919992	0.0489999987	200	0	0
-9.51200008	6.93919992	0.075000003	200	0	0
-9.53199959	6.93919992	0.0879999995	200	0	0
-9.54699993	6.93919992	-0.023	200	0	0
-9.52799988	6.93930006	0.0710000023	200	0	0
-9.53999996	6.93930006	0.0500000007	200	0	0
-9.51599979	6.93900108	-0.0890000015	200	0	0
-9.53100014	6.93950033	-0.0170000009	200	0	0
-9.54899979	6.93950033	-0.00400000019	200	0	0
-9.52999973	6.93950033	0.0540000014	200	0	0
-9.52900028	6.9394002	-0.0179999992	200	0	0
-9.51299953	6.9394002	0.057	200	0	0
-9.54899979	6.93950033	0.0320000015	200	0	0
-9.5369997	6.9394002	0.0329999998	200	0	0
-9.5170002	6.93950033	-0.0489999987	200	0	0
-9.50399971	6.93950033	0.0790000036	200	0	0
-9.52799988	6.93969965	0.00400000019	200	0	0
-9.54199982	6.93969965	0.0529999994	200	0	0
-9.54500008	6.93969965	0.0350000001	200	0	0
-9.51599979	6.93969965	-0.0109999999	200	0	0
-9.54100037	6.93979979	0.0710000023	200	0	0
-9.54100037	6.93979979	0	200	0	0
-9.54100037	6.93979979	0.0359999985	200	0	0
-9.53199959	6.93989992	0.00200000009	200	0	0
-9.53299999	6.94000006	0.0370000005	200	0	0
-9.51200008	6.94000006	-0.0280000009	200	0	0
-9.5340004	6.94000006	0.0729999989	200	0	0
-9.54899979	6.94000006	0.050999999	200	0	0
-9.54100037	6.94010019	0.0359999985	200	0	0
-9.51200008	6.94010019	0.00800000038	200	0	0
-9.51399994	6.94010019	0.0780000016	200	0	0
-9.52400017	6.94010019	0.0579999983	200	0	0
-9.52200031	6.94010019	0.0930000022	200	0	0
-9.53100014	6.94020033	0.0560000017	200	0	0
-9.53899956	6.94030094	0.0379999988	200	0	0
-9.54300022	6.94039965	-0.0160000008	200	0	0
-9.52299976	6.94030094	-0.0289999992	200	0	0
-9.53899956	6.94030094	0.0549999997	200	0	0
-9.53999996	6.94039965	0.0370000005	200	0	0
-9.52999973	6.94039965	0.075000003	200	0	0
-9.52099991	6.94039965	0.0599999987	200	0	0
-9.5	6.94030094	-0.0759999976	200	0	0
-9.54199982	6.94049978	0.0549999997	200	0	0
-9.54300022	6.94049978	-0.0170000009	200	0	0
-9.55700016	6.94059992	0.050999999	200	0	0
-9.51799965	6.94070005	0.0780000016	200	0	0
-9.52700043	6.94070005	0.0590000004	200	0	0
-9.5340004	6.94070005	0.00400000019	200	0	0
-9.5369997	6.94080019	0.0379999988	200	0	0
-9.53199959	6.94080019	-0.0140000004	200	0	0
-9.52900028	6.9409008	0.0579999983	200	0	0
-9.54800034	6.9409008	0.0359999985	200	0	0
-9.52600002	6.94080019	0.0759999976	200	0	0
-9.52700043	6.94080019	0.0590000004	200	0	0
-9.55099964	6.94080019	-0.0540000014	200	0	0
-9.51799965	6.9409008	-0.0280000009	200	0	0
-9.5010004	6.94070005	-0.0759999976	200	0	0
-9.54199982	6.94109964	0.0370000005	200	0	0
-9.52799988	6.94099998	-0.0130000003	200	0	0
-9.52999973	6.94109964	0.0579999983	200	0	0
-9.52200031	6.94119978	0.0769999996	200	0	0
-9.5170002	6.94109964	0.00800000038	200	0	0
-9.53100014	6.94129992	-0.0489999987	200	0	0
-9.54500008	6.94129992	0.00100000005	200	0	0
-9.54100037	6.94099998	-0.0340000018	200	0	0
-9.5340004	6.94129992	0.074000001	200	0	0
-9.5340004	6.94129992	0.057	200	0	0
-9.54699993	6.94129992	0.0359999985	200	0	0
-9.51500034	6.94140005	0.0790000036	200	0	0
-9.52200031	6.94140005	0.0419999994	200	0	0
-9.53999996	6.94140005	0.0549999997	200	0	0
-9.52999973	6.94140005	-0.0309999995	200	0	0
-9.5340004	6.94150066	0.0390000008	200	0	0
-9.55500031	6.94150066	0.0689999983	200	0	0
-9.52099991	6.94159985	0.0599999987	200	0	0
-9.51200008	6.94159985	-0.0260000005	200	0	0
-9.52900028	6.94159985	-0.0130000003	200	0	0
-9.52999973	6.94159985	0.00499999989	200	0	0
-9.53899956	6.94150066	-0.0160000008	200	0	0
-9.54500008	6.94150066	0.00100000005	200	0	0
-9.53999996	6.94169998	0.0390000008	200	0	0
-9.54399967	6.94169998	-0.0149999997	200	0	0
-9.53100014	6.94180012	0.0590000004	200	0	0
-9.54199982	6.94199991	0.00300000003	200	0	0
-9.53800011	6.94199991	0.0399999991	200	0	0
-9.53899956	6.94190025	0.057	200	0	0
-9.53499985	6.94190025	0.0399999991	200	0	0
-9.52499962	6.94210005	0.0430000015	200	0	0
-9.52999973	6.94210005	0.0590000004	200	0	0
-9.52900028	6.94210005	0.0949999988	200	0	0
-9.55000019	6.94219971	-0.0170000009	200	0	0
-9.54100037	6.94210005	0.00400000019	200	0	0
-9.53899956	6.94210005	-0.0140000004	200	0	0
-9.54100037	6.94219971	0.057	200	0	0
-9.52099991	6.94219971	0.0790000036	200	0	0
-9.54399967	6.94229984	0.074000001	200	0	0
-9.53100014	6.94229984	0.0949999988	200	0	0
-9.52499962	6.94229984	0.0610000007	200	0	0
-9.52799988	6.94229984	0.00700000022	200	0	0
-9.51799965	6.94229984	-0.0260000005	200	0	0
-9.55300045	6.94239998	0.00200000009	200	0	0
-9.52700043	6.94239998	0.0799999982	200	0	0
-9.55000019	6.94239998	0.0379999988	200	0	0
-9.54100037	6.94250011	0.0410000011	200	0	0
-9.5340004	6.94250011	0.0599999987	200	0	0
-9.54199982	6.94260025	0.00499999989	200	0	0
-9.54800034	6.94260025	0.057	200	0	0
-9.55700016	6.94260025	0.0370000005	200	0	0
-9.53100014	6.94260025	-0.00999999978	200	0	0
-9.54199982	6.94270039	0.0419999994	200	0	0
-9.53499985	6.94270039	0.061999999	200	0	0
-9.5539999	6.9428997	0.0390000008	200	0	0
-9.54100037	6.942801	0.0419999994	200	0	0
-9.55000019	6.9428997	0.0579999983	200	0	0
-9.56000042	6.94309998	0.00200000009	200	0	0
-9.53800011	6.94309998	0.0430000015	200	0	0
-9.54199982	6.94309998	0.0599999987	200	0	0
-9.51500034	6.94320011	0.101999998	200	0	0
-9.52799988	6.94320011	0.063000001	200	0	0
-9.51399994	6.94320011	-0.0219999999	200	0	0
-9.55300045	6.94320011	0.00400000019	200	0	0
-9.53600025	6.94330025	-0.0270000007	200	0	0
-9.52400017	6.94330025	0.0109999999	200	0	0
-9.53299999	6.94340086	0.0979999974	200	0	0
-9.53999996	6.94349957	0.0430000015	200	0	0
-9.55500031	6.94349957	-0.0140000004	200	0	0
-9.53499985	6.94330025	-0.0450000018	200	0	0
-9.52999973	6.94349957	0.063000001	200	0	0
-9.53600025	6.94349957	-0.0450000018	200	0	0
-9.54199982	6.9435997	0.0419999994	200	0	0
-9.51900005	6.9435997	-0.023	200	0	0
-9.54500008	6.94379997	0.0590000004	200	0	0
-9.54100037	6.94379997	0.0419999994	200	0	0
-9.54300022	6.94369984	0.00600000005	200	0	0
-9.54599953	6.94369984	0.0410000011	200	0	0
-9.50599957	6.94369984	0.0869999975	200	0	0
-9.52000046	6.94390011	-0.0410000011	200	0	0
-9.52600002	6.94400072	-0.00700000022	200	0	0
-9.54399967	6.94400072	0.00600000005	200	0	0
-9.53999996	6.94400072	0.0780000016	200	0	0
-9.52700043	6.94379997	0.0989999995	200	0	0
-9.54300022	6.94390011	0.0599999987	200	0	0
-9.52999973	6.9440999	0.063000001	200	0	0
-9.53999996	6.9442997	0.0590000004	200	0	0
-9.54699993	6.94420004	0.0590000004	200	0	0
-9.55000019	6.94420004	0.0930000022	200	0	0
-9.52799988	6.94420004	0.0810000002	200	0	0
-9.52900028	6.94439983	0.00899999961	200	0	0
-9.54199982	6.94439983	0.0590000004	200	0	0
-9.53299999	6.94439983	0.0430000015	200	0	0
-9.55099964	6.9442997	0.0379999988	200	0	0
-9.54100037	6.94439983	-0.0299999993	200	0	0
-9.5170002	6.94439983	0.100000001	200	0	0
-9.53199959	6.94449997	0.0610000007	200	0	0
-9.54500008	6.94449997	0.0399999991	200	0	0
-9.51799965	6.94460011	0.00999999978	200	0	0
-9.54399967	6.94469976	0.0390000008	200	0	0
-9.54300022	6.94469976	0.057	200	0	0
-9.51500034	6.94460011	0.0820000023	200	0	0
-9.53499985	6.94460011	0.0410000011	200	0	0
-9.52700043	6.94460011	-0.00999999978	200	0	0
-9.53899956	6.94469976	-0.0130000003	200	0	0
-9.53299999	6.94490004	0.00600000005	200	0	0
-9.52600002	6.94490004	-0.00899999961	200	0	0
-9.52600002	6.9447999	0.0610000007	200	0	0
-9.53600025	6.94490004	0.0410000011	200	0	0
-9.53800011	6.94500017	0.0390000008	200	0	0
-9.52900028	6.94510031	0.00600000005	200	0	0
-9.54500008	6.94519997	0.0729999989	200	0	0
-9.55000019	6.94519997	0.0540000014	200	0	0
-9.52600002	6.94510031	0.0949999988	200	0	0
-9.51900005	6.94510031	0.061999999	200	0	0
-9.52900028	6.94510031	0.0410000011	200	0	0
-9.53600025	6.94510031	0.075000003	200	0	0
-9.52600002	6.94530106	0.0399999991	200	0	0
-9.51299953	6.94530106	0.00800000038	200	0	0
-9.52499962	6.94519997	-0.0109999999	200	0	0
-9.53199959	6.94510031	-0.0130000003	200	0	0
-9.52499962	6.94530106	0.0759999976	200	0	0
-9.53100014	6.94530106	0.057	200	0	0
-9.54100037	6.94539976	0.0359999985	200	0	0
-9.54199982	6.94539976	0.0719999969	200	0	0
-9.52999973	6.94539976	0.057	200	0	0
-9.52700043	6.94539976	0.00499999989	200	0	0
-9.53800011	6.94560003	0.00200000009	200	0	0
-9.54399967	6.9454999	0.0540000014	200	0	0
-9.5170002	6.9458003	0.0430000015	200	0	0
-9.52200031	6.9458003	-0.0120000001	200	0	0
-9.54899979	6.9458003	-0.00100000005	200	0	0
-9.5170002	6.94570017	-0.0280000009	200	0	0
-9.53800011	6.94570017	0.0379999988	200	0	0
-9.53800011	6.94570017	-0.0160000008	200	0	0
-9.51900005	6.94570017	0.00700000022	200	0	0
-9.50800037	6.94560003	0.0979999974	200	0	0
-9.54800034	6.9458003	0.0700000003	200	0	0
-9.53899956	6.9458003	0.0549999997	200	0	0
-9.54599953	6.94590092	0	200	0	0
-9.52900028	6.94590092	0.075000003	200	0	0
-9.55000019	6.94590092	0.0520000011	200	0	0
-9.54599953	6.94590092	0.0350000001	200	0	0
-9.52700043	6.94599962	-0.0309999995	200	0	0
-9.53899956	6.94599962	0.0370000005	200	0	0
-9.53100014	6.94599962	-0.0140000004	200	0	0
-9.54399967	6.94590092	-0.0350000001	200	0	0
-9.51200008	6.94590092	-0.00899999961	200	0	0
-9.53100014	6.94609976	0.057	200	0	0
-9.54100037	6.94599962	0.0540000014	200	0	0
-9.53600025	6.94619989	0.0729999989	200	0	0
-9.52000046	6.94619989	0.0599999987	200	0	0
-9.53199959	6.94619989	0.0390000008	200	0	0
-9.51900005	6.94630003	0.00700000022	200	0	0
-9.52200031	6.94630003	0.0590000004	200	0	0
-9.51099968	6.94630003	0.0799999982	200	0	0
-9.5340004	6.94640017	0.0560000017	200	0	0
-9.55000019	6.94650078	-0.00100000005	200	0	0
-9.54300022	6.94640017	0.0359999985	200	0	0
-9.52700043	6.94640017	-0.0130000003	200	0	0
-9.52400017	6.94640017	0.00600000005	200	0	0
-9.51900005	6.94640017	0.0780000016	200	0	0
-9.53199959	6.94669962	0.074000001	200	0	0
-9.54199982	6.94659996	0.00100000005	200	0	0
-9.54100037	6.94669962	0.0370000005	200	0	0
-9.54599953	6.94659996	0.0350000001	200	0	0
-9.53199959	6.94659996	0.057	200	0	0
-9.53299999	6.94650078	0.074000001	200	0	0
-9.5369997	6.94650078	0.0549999997	200	0	0
-9.54500008	6.94669962	0	200	0	0
-9.49400043	6.94640017	-0.075000003	200	0	0
-9.52400017	6.94659996	-0.0469999984	200	0	0
-9.54300022	6.94659996	-0.0170000009	200	0	0
-9.52299976	6.94679976	0.0590000004	200	0	0
-9.55799961	6.94689989	0.0500000007	200	0	0
-9.54199982	6.94689989	0.0370000005	200	0	0
-9.55500031	6.94700003	0.0329999998	200	0	0
-9.54100037	6.94700003	0.0540000014	200	0	0
-9.54800034	6.94689989	0.0879999995	200	0	0
-9.54699993	6.94710016	0.0350000001	200	0	0
-9.55500031	6.94710016	0.050999999	200	0	0
-9.52900028	6.94710016	0.00400000019	200	0	0
-9.52200031	6.94719982	-0.0289999992	200	0	0
-9.55099964	6.94719982	-0.00100000005	200	0	0
-9.54300022	6.94710016	-0.0350000001	200	0	0
-9.54899979	6.94710016	-0.0189999994	200	0	0
-9.53199959	6.94700003	-0.0320000015	200	0	0
-9.55099964	6.94719982	0.0520000011	200	0	0
-9.56299973	6.94729996	0.0670000017	200	0	0
-9.54500008	6.94729996	0.0359999985	200	0	0
-9.55200005	6.94729996	0.0520000011	200	0	0
-9.53199959	6.94729996	-0.0320000015	200	0	0
-9.52900028	6.94729996	-0.0130000003	200	0	0
-9.51900005	6.94740009	0.0759999976	200	0	0
-9.52000046	6.94759989	0.0939999968	200	0	0
-9.5369997	6.94759989	0.0719999969	200	0	0
-9.5369997	6.94750023	0.0359999985	200	0	0
-9.54599953	6.94750023	0.0520000011	200	0	0
-9.54699993	6.94740009	0.050999999	200	0	0
-9.52499962	6.94759989	0.00400000019	200	0	0
-9.5340004	6.94770002	0.0370000005	200	0	0
-9.54100037	6.94770002	0.0710000023	200	0	0
-9.52999973	6.94770002	0.00300000003	200	0	0
-9.5369997	6.94780111	0.0719999969	200	0	0
-9.55099964	6.94780111	0.0329999998	200	0	0
-9.54100037	6.94780111	0.0529999994	200	0	0
-9.54699993	6.94789982	0.0689999983	200	0	0
-9.54599953	6.94789982	-0.00100000005	200	0	0
-9.5539999	6.94789982	0.0500000007	200	0	0
-9.54599953	6.94789982	0.0340000018	200	0	0
-9.54100037	6.94799995	0.0529999994	200	0	0
-9.51799965	6.94780111	-0.0299999993	200	0	0
-9.52200031	6.94770002	-0.0309999995	200	0	0
-9.54399967	6.94799995	0.0350000001	200	0	0
-9.54699993	6.94799995	-0.0189999994	200	0	0
-9.53100014	6.94770002	-0.050999999	200	0	0
-9.53199959	6.94770002	-0.0869999975	200	0	0
-9.54500008	6.94810009	0.0520000011	200	0	0
-9.53999996	6.94820023	0.0359999985	200	0	0
-9.54500008	6.94820023	-0.00100000005	200	0	0
-9.53299999	6.94820023	-0.0160000008	200	0	0
-9.52000046	6.94820023	-0.0299999993	200	0	0
-9.5340004	6.94830036	0.0549999997	200	0	0
-9.53299999	6.94830036	0.0729999989	200	0	0
-9.54599953	6.94830036	0.0340000018	200	0	0
-9.52799988	6.94830036	0.00300000003	200	0	0
-9.56400013	6.94849968	0.0469999984	200	0	0
-9.54599953	6.94840097	0.0340000018	200	0	0
-9.52999973	6.94830036	-0.0149999997	200	0	0
-9.52600002	6.94849968	-0.0320000015	200	0	0
-9.5340004	6.94849968	-0.0160000008	200	0	0
-9.53100014	6.94849968	0.00300000003	200	0	0
-9.53100014	6.94840097	-0.0149999997	200	0	0
-9.54199982	6.94859982	0	200	0	0
-9.53899956	6.94859982	0.0359999985	200	0	0
-9.53999996	6.94859982	-0.0170000009	200	0	0
-9.54100037	6.94869995	0.0340000018	200	0	0
-9.52900028	6.94869995	0.0900000036	200	0	0
-9.52900028	6.94869995	0.0549999997	200	0	0
-9.52999973	6.94869995	0.0719999969	200	0	0
-9.53499985	6.94869995	0	200	0	0
-9.53899956	6.94880009	0.0350000001	200	0	0
-9.52900028	6.94880009	-0.0160000008	200	0	0
-9.52200031	6.94890022	0.0920000002	200	0	0
-9.5340004	6.94890022	0.0359999985	200	0	0
-9.55099964	6.94890022	0.0670000017	200	0	0
-9.53800011	6.94890022	0.0520000011	200	0	0
-9.53100014	6.94890022	0.00100000005	200	0	0
-9.51500034	6.94890022	-0.0480000004	200	0	0
-9.51200008	6.94890022	-0.0289999992	200	0	0
-9.5340004	6.94900084	0.0379999988	200	0	0
-9.5539999	6.94909954	-0.00300000003	200	0	0
-9.54599953	6.94909954	0.0700000003	200	0	0
-9.54300022	6.94909954	0.0350000001	200	0	0
-9.53999996	6.94909954	-0.0170000009	200	0	0
-9.5340004	6.94929981	0.0549999997	200	0	0
-9.51200008	6.94919968	0.0960000008	200	0	0
-9.54599953	6.94929981	0.0350000001	200	0	0
-9.52499962	6.94919968	0.00400000019	200	0	0
-9.5340004	6.94919968	-0.0329999998	200	0	0
-9.54199982	6.94919968	-0.0179999992	200	0	0
-9.53899956	6.94939995	0.0719999969	200	0	0
-9.5340004	6.94929981	0.0909999982	200	0	0
-9.54399967	6.94929981	0	200	0	0
-9.53800011	6.94939995	0.0540000014	200	0	0
-9.52400017	6.94929981	-0.0309999995	200	0	0
-9.54300022	6.94950008	0.0350000001	200	0	0
-9.52299976	6.94950008	-0.0480000004	200	0	0
-9.53100014	6.94960022	0.0560000017	200	0	0
-9.55599976	6.94960022	0.0320000015	200	0	0
-9.52799988	6.94960022	0.0920000002	200	0	0
-9.55599976	6.94960022	-0.0209999997	200	0	0
-9.54399967	6.94969988	0.00100000005	200	0	0
-9.54500008	6.94969988	0.0540000014	200	0	0
-9.53899956	6.94969988	0.0379999988	200	0	0
-9.55500031	6.94960022	-0.057	200	0	0
-9.54599953	6.94980001	0.0719999969	200	0	0
-9.52499962	6.94980001	0.0949999988	200	0	0
-9.52700043	6.94969988	0.0769999996	200	0	0
-9.54899979	6.94980001	0.0529999994	200	0	0
-9.54399967	6.94980001	0.0370000005	200	0	0
-9.56099987	6.94980001	-0.0209999997	200	0	0
-9.51099968	6.94960022	-0.0810000002	200	0	0
-9.53999996	6.94989967	0.00400000019	200	0	0
-9.55300045	6.94999981	0.0359999985	200	0	0
-9.53800011	6.94999981	0.00499999989	200	0	0
-9.55200005	6.94999981	0.0900000036	200	0	0
-9.52799988	6.94999981	0.0780000016	200	0	0
-9.54800034	6.94999981	0.0549999997	200	0	0
-9.54699993	6.95020008	0.0909999982	200	0	0
-9.52600002	6.95020008	0.0790000036	200	0	0
-9.52000046	6.95020008	0.0450000018	200	0	0
-9.54500008	6.95020008	0.0560000017	200	0	0
-9.54199982	6.95020008	0.00400000019	200	0	0
-9.54800034	6.95009995	-0.0160000008	200	0	0
-9.54500008	6.95030069	0.0379999988	200	0	0
-9.55200005	6.95030069	0.0540000014	200	0	0
-9.52099991	6.95030069	0.0799999982	200	0	0
-9.54899979	6.95039988	0.0370000005	200	0	0
-9.54199982	6.95030069	0.00400000019	200	0	0
-9.54699993	6.95039988	-0.0149999997	200	0	0
-9.52600002	6.95039988	-0.0270000007	200	0	0
-9.53800011	6.95050001	0.0930000022	200	0	0
-9.52600002	6.95050001	0.0790000036	200	0	0
-9.53999996	6.95060015	0.0930000022	200	0	0
-9.53899956	6.95060015	0.075000003	200	0	0
-9.53800011	6.95060015	0.0579999983	200	0	0
-9.53899956	6.95070028	0.0399999991	200	0	0
-9.54699993	6.95070028	0.0909999982	200	0	0
-9.55000019	6.95070028	0.0549999997	200	0	0
-9.5340004	6.95070028	0.0769999996	200	0	0
-9.53199959	6.95079994	0.0419999994	200	0	0
-9.55900002	6.95090103	-0.00100000005	200	0	0
-9.52900028	6.95090103	0.0599999987	200	0	0
-9.53999996	6.95090103	0.0399999991	200	0	0
-9.52799988	6.95090103	-0.00999999978	200	0	0
-9.52900028	6.95090103	0.0780000016	200	0	0
-9.52499962	6.95079994	0.0970000029	200	0	0
-9.54899979	6.95099974	0.0549999997	200	0	0
-9.54699993	6.95109987	0.0560000017	200	0	0
-9.52299976	6.95099974	0.0439999998	200	0	0
-9.5340004	6.95109987	0.0769999996	200	0	0
-9.5539999	6.95099974	0.0710000023	200	0	0
-9.53800011	6.95099974	0.0930000022	200	0	0
-9.52900028	6.95099974	-0.0109999999	200	0	0
-9.52400017	6.95099974	0.00899999961	200	0	0
-9.54500008	6.95120001	0.0560000017	200	0	0
-9.52700043	6.95109987	-0.00999999978	200	0	0
-9.54100037	6.95109987	0.00400000019	200	0	0
-9.54599953	6.95120001	0.00300000003	200	0	0
-9.54300022	6.95120001	0.0390000008	200	0	0
-9.54199982	6.95130014	0.075000003	200	0	0
-9.52600002	6.95120001	-0.00999999978	200	0	0
-9.54100037	6.95130014	0.057	200	0	0
-9.54100037	6.95140028	0.057	200	0	0
-9.55200005	6.95150089	0.0540000014	200	0	0
-9.5340004	6.95150089	0.0769999996	200	0	0
-9.55099964	6.9515996	0.00100000005	200	0	0
-9.56099987	6.9515996	0.0520000011	200	0	0
-9.53299999	6.9515996	0.0419999994	200	0	0
-9.54899979	6.95150089	0.00200000009	200	0	0
-9.51599979	6.95150089	-0.0250000004	200	0	0
-9.56099987	6.95169973	0.0520000011	200	0	0
-9.54500008	6.95169973	0.0379999988	200	0	0
-9.54800034	6.95179987	0.0379999988	200	0	0
-9.53899956	6.95179987	0.00499999989	200	0	0
-9.55599976	6.95169973	0	200	0	0
-9.54100037	6.95179987	0.0930000022	200	0	0
-9.53600025	6.95179987	0.0759999976	200	0	0
-9.54699993	6.95190001	0.0379999988	200	0	0
-9.55700016	6.95190001	0.0529999994	200	0	0
-9.55799961	6.95200014	0.0350000001	200	0	0
-9.53600025	6.95200014	0.0590000004	200	0	0
-9.53899956	6.95200014	0.00499999989	200	0	0
-9.53499985	6.95210028	0.0769999996	200	0	0
-9.55500031	6.95210028	0.0540000014	200	0	0
-9.54100037	6.95200014	-0.0140000004	200	0	0
-9.53999996	6.95210028	0.00400000019	200	0	0
-9.54300022	6.95219994	0.0390000008	200	0	0
-9.53999996	6.95219994	0.0579999983	200	0	0
-9.53800011	6.95219994	0.0759999976	200	0	0
-9.53999996	6.95239973	0.0579999983	200	0	0
-9.53199959	6.95229959	0.0949999988	200	0	0
-9.55000019	6.95219994	0.00200000009	200	0	0
-9.54500008	6.95229959	0.074000001	200	0	0
-9.53499985	6.95229959	0.0590000004	200	0	0
-9.53499985	6.95239973	0.0939999968	200	0	0
-9.52799988	6.95239973	0.0780000016	200	0	0
-9.54800034	6.95239973	0.0379999988	200	0	0
-9.53899956	6.95249987	0.0399999991	200	0	0
-9.52700043	6.95229959	-0.0450000018	200	0	0
-9.55200005	6.95239973	-0.0160000008	200	0	0
-9.5539999	6.95239973	0.00100000005	200	0	0
-9.51799965	6.95219994	-0.0250000004	200	0	0
-9.54100037	6.95229959	-0.0140000004	200	0	0
-9.53899956	6.95249987	0.0579999983	200	0	0
-9.52400017	6.95249987	0.0790000036	200	0	0
-9.55000019	6.9526	0.0549999997	200	0	0
-9.55500031	6.9526	0	200	0	0
-9.55799961	6.95270014	0.0529999994	200	0	0
-9.53999996	6.95270014	0.0399999991	200	0	0
-9.51799965	6.95270014	0.0989999995	200	0	0
-9.52400017	6.95270014	0.0790000036	200	0	0
-9.5369997	6.95280075	0.00499999989	200	0	0
-9.55599976	6.95280075	0.0359999985	200	0	0
-9.52900028	6.95280075	-0.00999999978	200	0	0
-9.5369997	6.95289993	0.0780000016	200	0	0
-9.53499985	6.9531002	0.00800000038	200	0	0
-9.53199959	6.9531002	0.0610000007	200	0	0
-9.55300045	6.9531002	0.0379999988	200	0	0
-9.53600025	6.9533	0.0960000008	200	0	0
-9.52900028	6.9533	0.0799999982	200	0	0
-9.52799988	6.9533	0.0450000018	200	0	0
-9.53299999	6.9533	0.0610000007	200	0	0
-9.54599953	6.95319986	0.0759999976	200	0	0
-9.5340004	6.9533	0.00800000038	200	0	0
-9.52700043	6.95340109	0.0799999982	200	0	0
-9.54500008	6.95340109	0.00499999989	200	0	0
-9.52299976	6.95340109	0.064000003	200	0	0
-9.54199982	6.95340109	0.0410000011	200	0	0
-9.53299999	6.95340109	0.0970000029	200	0	0
-9.52900028	6.95349979	0.0799999982	200	0	0
-9.54599953	6.95349979	0.0579999983	200	0	0
-9.54300022	6.95349979	-0.0120000001	200	0	0
-9.56400013	6.95349979	0	200	0	0
-9.52799988	6.95359993	0.0799999982	200	0	0
-9.53299999	6.95359993	0.00800000038	200	0	0
-9.53600025	6.95359993	0.0960000008	200	0	0
-9.55599976	6.95370007	0.0379999988	200	0	0
-9.53100014	6.95370007	0.00899999961	200	0	0
-9.5539999	6.95370007	0.0560000017	200	0	0
-9.53199959	6.9538002	0.0970000029	200	0	0
-9.54100037	6.9538002	0.0769999996	200	0	0
-9.52700043	6.95370007	0.0979999974	200	0	0
-9.53999996	6.95370007	0.0769999996	200	0	0
-9.54899979	6.95400095	-0.0309999995	200	0	0
-9.55500031	6.95400095	0.0379999988	200	0	0
-9.56400013	6.95390034	0	200	0	0
-9.54699993	6.95390034	-0.0130000003	200	0	0
-9.53299999	6.95400095	0.0970000029	200	0	0
-9.54899979	6.95400095	0.075000003	200	0	0
-9.53299999	6.95400095	0.0610000007	200	0	0
-9.5369997	6.95419979	0.0599999987	200	0	0
-9.53800011	6.95409966	0.0419999994	200	0	0
-9.54699993	6.95419979	0.0930000022	200	0	0
-9.52799988	6.95409966	0.063000001	200	0	0
-9.52600002	6.95409966	0.0979999974	200	0	0
-9.53999996	6.95419979	0.00600000005	200	0	0
-9.53100014	6.95409966	-0.00899999961	200	0	0
-9.56099987	6.95419979	0.0359999985	200	0	0
-9.53999996	6.95409966	0.00600000005	200	0	0
-9.52499962	6.95419979	-0.0250000004	200	0	0
-9.52700043	6.95419979	-0.00800000038	200	0	0
-9.55900002	6.95429993	0.0719999969	200	0	0
-9.54800034	6.95429993	0.0579999983	200	0	0
-9.53199959	6.95429993	0.0970000029	200	0	0
-9.53800011	6.95429993	-0.0289999992	200	0	0
-9.54800034	6.95429993	0.00400000019	200	0	0
-9.54899979	6.95440006	0.057	200	0	0
-9.54699993	6.95440006	-0.0130000003	200	0	0
-9.54199982	6.9545002	0.0410000011	200	0	0
-9.56000042	6.9545002	0.0549999997	200	0	0
-9.56400013	6.9545002	0.0890000015	200	0	0
-9.55799961	6.95460033	0.00200000009	200	0	0
-9.56499958	6.95460033	0.0710000023	200	0	0
-9.55300045	6.95460033	0.0560000017	200	0	0
-9.56299973	6.95460033	0.0359999985	200	0	0
-9.53600025	6.95460033	-0.00999999978	200	0	0
-9.55900002	6.95469952	0.0719999969	200	0	0
-9.5340004	6.95469952	0.0610000007	200	0	0
-9.55300045	6.95460033	0.127000004	200	0	0
-9.5369997	6.95489979	0.00700000022	200	0	0
-9.54199982	6.95469952	0.00600000005	200	0	0
-9.54800034	6.95469952	-0.0130000003	200	0	0
-9.54800034	6.95469952	-0.0309999995	200	0	0
-9.54800034	6.95460033	-0.0489999987	200	0	0
-9.55099964	6.95460033	-0.0320000015	200	0	0
-9.54100037	6.95489979	0.0590000004	200	0	0
-9.54800034	6.95489979	0.0399999991	200	0	0
-9.55599976	6.95479965	0.0729999989	200	0	0
-9.54199982	6.95479965	0.0410000011	200	0	0
-9.53899956	6.95510006	0.0419999994	200	0	0
-9.54899979	6.95510006	0.0579999983	200	0	0
-9.54800034	6.95499992	0.0930000022	200	0	0
-9.5539999	6.95499992	0.074000001	200	0	0
-9.55000019	6.95499992	0.057	200	0	0
-9.54399967	6.95510006	0.128999993	200	0	0
-9.53299999	6.9552002	0.0790000036	200	0	0
-9.55300045	6.9552002	0.00300000003	200	0	0
-9.51599979	6.9552002	-0.023	200	0	0
-9.55599976	6.95530081	0.0379999988	200	0	0
-9.54699993	6.95530081	0.0579999983	200	0	0
-9.55500031	6.95530081	-0.0149999997	200	0	0
-9.5340004	6.95539999	0.0790000036	200	0	0
-9.52700043	6.95539999	0.00999999978	200	0	0
-9.53299999	6.95539999	0.0439999998	200	0	0
-9.54699993	6.95539999	0.0930000022	200	0	0
-9.55500031	6.95549965	0.0379999988	200	0	0
-9.53600025	6.95539999	-0.00999999978	200	0	0
-9.54500008	6.95549965	0.0759999976	200	0	0
-9.55200005	6.95549965	0.057	200	0	0
-9.52600002	6.95549965	-0.0430000015	200	0	0
-9.55599976	6.95559978	0.0560000017	200	0	0
-9.54800034	6.95559978	0.075000003	200	0	0
-9.54500008	6.95559978	0.00499999989	200	0	0
-9.53600025	6.95580006	0.0790000036	200	0	0
-9.53100014	6.95599985	0.0799999982	200	0	0
-9.53199959	6.95590067	0.0970000029	200	0	0
-9.5369997	6.95590067	-0.00999999978	200	0	0
-9.53999996	6.95599985	0.0599999987	200	0	0
-9.55700016	6.95590067	0.00200000009	200	0	0
-9.54899979	6.95599985	0.0399999991	200	0	0
-9.55000019	6.95590067	0.0390000008	200	0	0
-9.55200005	6.95599985	0.0920000002	200	0	0
-9.53800011	6.95599985	0.130999997	200	0	0
-9.54100037	6.95609999	0.0949999988	200	0	0
-9.5340004	6.95609999	0.0790000036	200	0	0
-9.55799961	6.95609999	0.0370000005	200	0	0
-9.54199982	6.95609999	-0.0289999992	200	0	0
-9.54500008	6.95609999	0.00499999989	200	0	0
-9.54899979	6.95590067	-0.0489999987	200	0	0
-9.52700043	6.95590067	-0.0260000005	200	0	0
-9.54100037	6.95620012	0.0769999996	200	0	0
-9.54599953	6.95620012	0.00499999989	200	0	0
-9.55599976	6.95620012	0.0560000017	200	0	0
-9.54100037	6.95630026	0.0419999994	200	0	0
-9.52099991	6.95630026	0.100000001	200	0	0
-9.54500008	6.95630026	0.0759999976	200	0	0
-9.52499962	6.95620012	0.0989999995	200	0	0
-9.53600025	6.95630026	0.00800000038	200	0	0
-9.5340004	6.95639992	0.0439999998	200	0	0
-9.5340004	6.95639992	-0.00899999961	200	0	0
-9.55500031	6.95650101	0.0379999988	200	0	0
-9.55700016	6.95650101	0.0560000017	200	0	0
-9.55000019	6.95650101	-0.0309999995	200	0	0
-9.55000019	6.95669985	0.057	200	0	0
-9.55700016	6.95659971	0.0379999988	200	0	0
-9.54399967	6.95669985	0.0939999968	200	0	0
-9.54300022	6.95669985	0.0769999996	200	0	0
-9.55799961	6.95659971	0.0549999997	200	0	0
-9.56299973	6.95669985	0.125	200	0	0
-9.55300045	6.95679998	0.074000001	200	0	0
-9.54300022	6.95669985	-0.0120000001	200	0	0
-9.5539999	6.95659971	0.00300000003	200	0	0
-9.5539999	6.95700026	0.0560000017	200	0	0
-9.53199959	6.95700026	0.0970000029	200	0	0
-9.54300022	6.95700026	0.00600000005	200	0	0
-9.56299973	6.95700026	0.0359999985	200	0	0
-9.5539999	6.95719957	0.074000001	200	0	0
-9.56200027	6.95719957	0.0370000005	200	0	0
-9.55200005	6.95719957	0.0920000002	200	0	0
-9.56900024	6.95719957	-0.0189999994	200	0	0
-9.5710001	6.95729971	0.0340000018	200	0	0
-9.5340004	6.95729971	-0.00899999961	200	0	0
-9.54100037	6.95739985	0.0769999996	200	0	0
-9.55700016	6.95739985	0.00200000009	200	0	0
-9.55799961	6.95739985	0.0549999997	200	0	0
-9.53999996	6.95739985	0.0949999988	200	0	0
-9.54399967	6.95760012	0.0939999968	200	0	0
-9.53800011	6.95729971	0.130999997	200	0	0
-9.54899979	6.95760012	0.075000003	200	0	0
-9.56599998	6.95749998	0.0529999994	200	0	0
-9.55000019	6.95770025	0.0410000011	200	0	0
-9.53499985	6.95770025	0.0979999974	200	0	0
-9.55700016	6.95770025	0.075000003	200	0	0
-9.54500008	6.95770025	-0.00999999978	200	0	0
-9.53499985	6.95780087	0.00999999978	200	0	0
-9.54599953	6.95789957	0.0419999994	200	0	0
-9.56200027	6.95789957	0.0560000017	200	0	0
-9.54899979	6.95780087	0.0949999988	200	0	0
-9.53899956	6.95770025	0.00899999961	200	0	0
-9.54100037	6.95780087	0.0790000036	200	0	0
-9.54199982	6.95780087	0.0430000015	200	0	0
-9.55099964	6.95780087	0.0590000004	200	0	0
-9.54300022	6.95780087	0.131999999	200	0	0
-9.55099964	6.95799971	0.0960000008	200	0	0
-9.55000019	6.95799971	0.0610000007	200	0	0
-9.56700039	6.95799971	0.074000001	200	0	0
-9.55799961	6.95799971	0.00600000005	200	0	0
-9.55700016	6.95819998	0.0590000004	200	0	0
-9.55500031	6.95830011	0.0419999994	200	0	0
-9.55200005	6.95830011	0.0960000008	200	0	0
-9.55300045	6.95830011	0.0599999987	200	0	0
-9.56799984	6.95819998	0.0920000002	200	0	0
-9.54699993	6.95830011	-0.0270000007	200	0	0
-9.55300045	6.95830011	0.00700000022	200	0	0
-9.56200027	6.95849991	0.0599999987	200	0	0
-9.55000019	6.95840073	0.0450000018	200	0	0
-9.52400017	6.95849991	0.104999997	200	0	0
-9.54599953	6.95849991	0.0810000002	200	0	0
-9.53899956	6.95840073	0.0829999968	200	0	0
-9.55000019	6.95840073	0.0979999974	200	0	0
-9.55900002	6.95849991	-0.00999999978	200	0	0
-9.54100037	6.95860004	0.0649999976	200	0	0
-9.56900024	6.95860004	0.0399999991	200	0	0
-9.55500031	6.95849991	0.00800000038	200	0	0
-9.55300045	6.95840073	0.00899999961	200	0	0
-9.53100014	6.95849991	0.137999997	200	0	0
-9.53899956	6.95870018	0.0500000007	200	0	0
-9.54399967	6.95879984	0.0839999989	200	0	0
-9.56299973	6.95879984	0.0610000007	200	0	0
-9.56499958	6.95870018	0.0610000007	200	0	0
-9.5539999	6.95889997	0.064000003	200	0	0
-9.54500008	6.95889997	0.0839999989	200	0	0
