9.16300011	6.625	0.137999997	200	0	0
9.20300007	6.62580013	0.164000005	200	0	0
9.17199993	6.62559986	0.203999996	200	0	0
9.17700005	6.6257	0.187000006	200	0	0
9.18900013	6.62520027	0.216999993	200	0	0
9.19799995	6.62510014	0.215000004	200	0	0
9.18900013	6.62580013	0.133000001	200	0	0
9.1789999	6.62559986	0.185000002	200	0	0
9.20100021	6.62510014	0.196999997	200	0	0
9.18200016	6.62559986	0.167999998	200	0	0
9.18200016	6.62520027	0.202000007	200	0	0
9.18900013	6.625	0.200000003	200	0	0
9.19499969	6.62510014	0.180999994	200	0	0
9.19299984	6.62510014	0.165000007	200	0	0
9.17500019	6.62510014	0.135000005	200	0	0
9.16300011	6.625	0.137999997	200	0	0
9.18599987	6.62559986	0.252000004	200	0	0
9.18700027	6.6257	0.252999991	200	0	0
9.17099953	6.62559986	0.222000003	200	0	0
9.20499992	6.62580013	0.196999997	200	0	0
9.19400024	6.625	0.26699999	200	0	0
9.18799973	6.62530088	0.284999996	200	0	0
9.17199993	6.6257	0.291000009	200	0	0
9.18700027	6.62559986	0.284999996	200	0	0
9.17000008	6.625	0.256000012	200	0	0
9.18799973	6.62559986	0.268000007	200	0	0
9.18000031	6.625	0.30399999	200	0	0
9.18700027	6.625	0.284999996	200	0	0
9.18099976	6.6257	0.338999987	200	0	0
9.18400002	6.625	0.354000002	200	0	0
9.18099976	6.625	0.338	200	0	0
9.17800045	6.625	0.372000009	200	0	0
9.18999958	6.62539959	0.370000005	200	0	0
9.17800045	6.6257	0.356999993	200	0	0
9.16300011	6.6257	0.377000004	200	0	0
9.19499969	6.625	0.38499999	200	0	0
9.18299961	6.6257	0.423000008	200	0	0
9.16699982	6.6257	0.393000007	200	0	0
9.20199966	6.625	0.451000005	200	0	0
9.19099998	6.625	0.437000006	200	0	0
9.19799995	6.625	0.419	200	0	0
9.19900036	6.625	0.469000012	200	0	0
9.17599964	6.6257	0.442000002	200	0	0
9.17099953	6.6257	0.460000008	200	0	0
9.18599987	6.62549973	0.472000003	200	0	0
9.19200039	6.6257	0.472000003	200	0	0
9.17300034	6.62559986	0.474999994	200	0	0
9.19299984	6.62559986	0.521000028	200	0	0
9.18200016	6.6257	0.508000016	200	0	0
9.18200016	6.62559986	0.505999982	200	0	0
9.1960001	6.62549973	0.537	200	0	0
9.18500042	6.625	0.538999975	200	0	0
9.19099998	6.625	0.521000028	200	0	0
9.18900013	6.625	0.504999995	200	0	0
9.18799973	6.62559986	0.538999975	200	0	0
9.18000031	6.6257	0.524999976	200	0	0
9.18299961	6.625	0.555999994	200	0	0
9.18599987	6.62559986	0.555999994	200	0	0
9.16800022	6.6257	0.54400003	200	0	0
9.16399956	6.6257	0.561999977	200	0	0
9.20199966	6.625	0.586000025	200	0	0
9.18000031	6.6257	0.592000008	200	0	0
9.19699955	6.62559986	0.587000012	200	0	0
9.18599987	6.625	0.623000026	200	0	0
9.17700005	6.6257	0.625999987	200	0	0
9.19499969	6.62559986	0.620999992	200	0	0
9.19499969	6.625	0.638000011	200	0	0
9.19900036	6.62559986	0.637000024	200	0	0
9.1789999	6.6257	0.64200002	200	0	0
9.18799973	6.625	0.672999978	200	0	0
9.19400024	6.6257	0.689999998	200	0	0
9.20400047	6.62559986	0.68599999	200	0	0
9.17800045	6.6257	0.675999999	200	0	0
9.20199966	6.62559986	0.670000017	200	0	0
9.19099998	6.625	0.722000003	200	0	0
9.18900013	6.625	0.70599997	200	0	0
9.19099998	6.625	0.68900001	200	0	0
9.18299961	6.6257	0.725000024	200	0	0
9.20100021	6.62559986	0.720000029	200	0	0
9.18500042	6.6257	0.708000004	200	0	0
9.19499969	6.62559986	0.704999983	200	0	0
9.20400047	6.625	0.768999994	200	0	0
9.19699955	6.625	0.754000008	200	0	0
9.19999981	6.62559986	0.787	200	0	0
9.18900013	6.6257	0.773999989	200	0	0
9.20499992	6.62559986	0.768999994	200	0	0
9.19400024	6.6257	0.755999982	200	0	0
9.19900036	6.62559986	0.754000008	200	0	0
9.18500042	6.6257	0.791000009	200	0	0
9.19200039	6.625	0.805000007	200	0	0
9.19299984	6.625	0.787999988	200	0	0
9.19400024	6.62559986	0.805000007	200	0	0
9.20100021	6.62559986	0.837000012	200	0	0
9.20400047	6.625	0.852999985	200	0	0
9.20600033	6.625	0.836000025	200	0	0
9.19099998	6.6257	0.873000026	200	0	0
9.19200039	6.62559986	0.870999992	200	0	0
9.17800045	6.6257	0.859000027	200	0	0
9.20400047	6.62559986	0.852999985	200	0	0
9.18700027	6.6257	0.841000021	200	0	0
9.1960001	6.62559986	0.887000024	200	0	0
9.19200039	6.625	0.888000011	200	0	0
9.1960001	6.625	0.870999992	200	0	0
9.19900036	6.62549973	0.902999997	200	0	0
9.1789999	6.6257	0.89200002	200	0	0
9.20199966	6.62559986	0.93599999	200	0	0
9.21700001	6.62549973	0.933000028	200	0	0
9.19200039	6.6257	0.922999978	200	0	0
9.20300007	6.62559986	0.91900003	200	0	0
9.20899963	6.62510014	0.950999975	200	0	0
9.18000031	6.625	0.922999978	200	0	0
9.19799995	6.62549973	0.970000029	200	0	0
9.19499969	6.6257	0.972000003	200	0	0
9.19900036	6.62559986	0.970000029	200	0	0
9.18599987	6.62549973	0.954999983	200	0	0
9.18200016	6.6257	0.957000017	200	0	0
9.19799995	6.62559986	0.953000009	200	0	0
9.19499969	6.6257	0.93900001	200	0	0
9.19900036	6.625	0.953000009	200	0	0
9.20100021	6.625	0.968999982	200	0	0
9.21100044	6.62549973	1.00100005	200	0	0
9.20499992	6.62559986	1.03499997	200	0	0
9.21500015	6.62510014	1.01600003	200	0	0
9.18299961	6.6257	1.023	200	0	0
9.20800018	6.625	1.00100005	200	0	0
9.2159996	6.62539959	1.01600003	200	0	0
9.19999981	6.62559986	1.01900005	200	0	0
9.2159996	6.62510014	1	200	0	0
9.1960001	6.6257	1.00399995	200	0	0
9.19799995	6.62559986	1.00300002	200	0	0
9.20600033	6.625	1.01800001	200	0	0
9.21000004	6.625	1.04999995	200	0	0
9.21199989	6.62510014	1.04999995	200	0	0
9.2159996	6.62539959	1.03299999	200	0	0
9.1960001	6.625	1.03600001	200	0	0
9.21700001	6.62510014	1.03299999	200	0	0
9.18700027	6.6257	1.05499995	200	0	0
9.20600033	6.62539959	1.051	200	0	0
9.20400047	6.62559986	1.051	200	0	0
9.19299984	6.6257	1.03799999	200	0	0
9.20899963	6.62539959	1.10000002	200	0	0
9.21100044	6.62559986	1.10000002	200	0	0
9.21100044	6.625	1.08299994	200	0	0
9.21899986	6.62510014	1.08200002	200	0	0
9.19400024	6.6257	1.08700001	200	0	0
9.20100021	6.62539959	1.08500004	200	0	0
9.20600033	6.62559986	1.08399999	200	0	0
9.20400047	6.62559986	1.13399994	200	0	0
9.20800018	6.62510014	1.11699998	200	0	0
9.20199966	6.625	1.10099995	200	0	0
9.21800041	6.62530088	1.11500001	200	0	0
9.19499969	6.6257	1.12	200	0	0
9.19900036	6.62559986	1.11800003	200	0	0
9.21700001	6.62510014	1.09899998	200	0	0
9.19099998	6.6257	1.10399997	200	0	0
9.20300007	6.625	1.11699998	200	0	0
9.19499969	6.625	1.13499999	200	0	0
9.2159996	6.62510014	1.13199997	200	0	0
9.19799995	6.6257	1.13600004	200	0	0
9.22200012	6.62530088	1.19700003	200	0	0
9.20300007	6.625	1.18299997	200	0	0
9.19699955	6.6257	1.18499994	200	0	0
9.21800041	6.62510014	1.18099999	200	0	0
9.20699978	6.62530088	1.18200004	200	0	0
9.22000027	6.625	1.16400003	200	0	0
9.20300007	6.6257	1.16799998	200	0	0
9.21500015	6.62510014	1.16499996	200	0	0
9.20300007	6.62559986	1.16700006	200	0	0
9.20899963	6.62530088	1.16600001	200	0	0
9.20499992	6.62559986	1.199	200	0	0
9.2130003	6.62510014	1.21399999	200	0	0
9.20199966	6.625	1.199	200	0	0
9.18799973	6.6257	1.21899998	200	0	0
9.22500038	6.62530088	1.21300006	200	0	0
9.21700001	6.62510014	1.19700003	200	0	0
9.18999958	6.6257	1.20299995	200	0	0
9.19900036	6.625	1.21599996	200	0	0
9.22299957	6.62520027	1.29499996	200	0	0
9.20400047	6.6257	1.28299999	200	0	0
9.22200012	6.625	1.27900004	200	0	0
9.22200012	6.62510014	1.27900004	200	0	0
9.20100021	6.6257	1.26699996	200	0	0
9.22700024	6.62520027	1.278	200	0	0
9.20400047	6.62559986	1.26499999	200	0	0
9.20699978	6.625	1.26400006	200	0	0
9.19699955	6.6257	1.25100005	200	0	0
9.22000027	6.62510014	1.26300001	200	0	0
9.22700024	6.62520027	1.26199996	200	0	0
9.20899963	6.62559986	1.24800003	200	0	0
9.19499969	6.62520027	1.25	200	0	0
9.21500015	6.625	1.24699998	200	0	0
9.21899986	6.62510014	1.24600005	200	0	0
9.19699955	6.62559986	1.29900002	200	0	0
9.21800041	6.625	1.296	200	0	0
9.2130003	6.62510014	1.296	200	0	0
9.19999981	6.6257	1.29999995	200	0	0
9.20899963	6.6257	1.38	200	0	0
9.20499992	6.62559986	1.37899995	200	0	0
9.19400024	6.6257	1.36600006	200	0	0
9.21899986	6.625	1.37699997	200	0	0
9.22500038	6.62510014	1.37699997	200	0	0
9.20100021	6.62559986	1.36300004	200	0	0
9.19699955	6.6257	1.34899998	200	0	0
9.20899963	6.625	1.36199999	200	0	0
9.21199989	6.62510014	1.36199999	200	0	0
9.20199966	6.6257	1.33200002	200	0	0
9.20699978	6.62559986	1.33000004	200	0	0
9.21899986	6.625	1.34500003	200	0	0
9.21500015	6.62510014	1.34500003	200	0	0
9.20600033	6.625	1.33000004	200	0	0
9.22000027	6.62510014	1.32799995	200	0	0
9.22399998	6.62520027	1.32799995	200	0	0
9.21700001	6.62510014	1.45899999	200	0	0
9.2159996	6.625	1.44299996	200	0	0
9.21399975	6.62510014	1.44299996	200	0	0
9.19299984	6.6257	1.46399999	200	0	0
9.21700001	6.625	1.42700005	200	0	0
9.21100044	6.625	1.41100001	200	0	0
9.22099972	6.62510014	1.426	200	0	0
9.22799969	6.62510014	1.40900004	200	0	0
9.19900036	6.6257	1.44700003	200	0	0
9.20800018	6.62559986	1.44400001	200	0	0
9.19999981	6.6257	1.42999995	200	0	0
9.20899963	6.62559986	1.42799997	200	0	0
9.19099998	6.6257	1.41499996	200	0	0
9.20899963	6.62559986	1.41100001	200	0	0
9.2130003	6.625	1.46000004	200	0	0
9.21399975	6.62559986	1.54100001	200	0	0
9.20199966	6.6257	1.528	200	0	0
9.20100021	6.625	1.54299998	200	0	0
9.20899963	6.62559986	1.52499998	200	0	0
9.19999981	6.6257	1.51199996	200	0	0
9.22299957	6.62510014	1.53999996	200	0	0
9.20800018	6.62559986	1.50899994	200	0	0
9.20600033	6.6257	1.495	200	0	0
9.22200012	6.625	1.52400005	200	0	0
9.22000027	6.62510014	1.52400005	200	0	0
9.20699978	6.62559986	1.49300003	200	0	0
9.21800041	6.625	1.50800002	200	0	0
9.2159996	6.62510014	1.50800002	200	0	0
9.20899963	6.625	1.49300003	200	0	0
9.22099972	6.62510014	1.49199998	200	0	0
9.19799995	6.6257	1.54400003	200	0	0
9.22299957	6.62510014	1.62199998	200	0	0
9.22299957	6.625	1.60500002	200	0	0
9.20699978	6.6257	1.625	200	0	0
9.22200012	6.62510014	1.60599995	200	0	0
9.21000004	6.62559986	1.62300003	200	0	0
9.20800018	6.625	1.59099996	200	0	0
9.18599987	6.6257	1.61099994	200	0	0
9.22000027	6.62510014	1.58899999	200	0	0
9.22200012	6.625	1.57299995	200	0	0
9.20699978	6.62559986	1.60699999	200	0	0
9.2329998	6.62510014	1.57200003	200	0	0
9.20300007	6.6257	1.59300005	200	0	0
9.21100044	6.62559986	1.59000003	200	0	0
9.20499992	6.6257	1.57599998	200	0	0
9.20899963	6.62559986	1.574	200	0	0
9.21899986	6.625	1.62199998	200	0	0
9.23200035	6.62530088	1.71899998	200	0	0
9.21500015	6.625	1.72000003	200	0	0
9.21700001	6.62510014	1.72000003	200	0	0
9.22700024	6.62520027	1.71899998	200	0	0
9.2130003	6.62559986	1.704	200	0	0
9.20199966	6.6257	1.69000006	200	0	0
9.21100044	6.62559986	1.68799996	200	0	0
9.22000027	6.625	1.70299995	200	0	0
9.21899986	6.62510014	1.70299995	200	0	0
9.20699978	6.6257	1.67299998	200	0	0
9.20600033	6.6257	1.65699995	200	0	0
9.21800041	6.62559986	1.671	200	0	0
9.22500038	6.625	1.68700004	200	0	0
9.22099972	6.62520027	1.68700004	200	0	0
9.21800041	6.62510014	1.68700004	200	0	0
9.20899963	6.62559986	1.65600002	200	0	0
9.21800041	6.625	1.671	200	0	0
9.23200035	6.62520027	1.66999996	200	0	0
9.22200012	6.62510014	1.671	200	0	0
9.23600006	6.62520027	1.653	200	0	0
9.22200012	6.625	1.65400004	200	0	0
9.21700001	6.62510014	1.65499997	200	0	0
9.20199966	6.6257	1.72300005	200	0	0
9.2130003	6.62559986	1.72000003	200	0	0
9.2130003	6.6257	1.70500004	200	0	0
9.22500038	6.6257	1.78600001	200	0	0
9.2159996	6.625	1.78499997	200	0	0
9.21700001	6.62559986	1.78499997	200	0	0
9.22299957	6.62510014	1.78400004	200	0	0
9.21399975	6.6257	1.76999998	200	0	0
9.23400021	6.62530088	1.78299999	200	0	0
9.20400047	6.6257	1.755	200	0	0
9.21800041	6.62559986	1.76800001	200	0	0
9.21899986	6.625	1.76800001	200	0	0
9.21899986	6.62510014	1.76800001	200	0	0
9.23200035	6.62530088	1.76699996	200	0	0
9.2159996	6.62559986	1.75199997	200	0	0
9.22099972	6.625	1.75199997	200	0	0
9.22099972	6.62510014	1.75199997	200	0	0
9.2159996	6.62530088	1.75199997	200	0	0
9.22900009	6.62520027	1.75100005	200	0	0
9.21899986	6.62510014	1.81700003	200	0	0
9.22399998	6.625	1.81700003	200	0	0
9.19900036	6.6257	1.82000005	200	0	0
9.2159996	6.62559986	1.81700003	200	0	0
9.23099995	6.62510014	1.86500001	200	0	0
9.21199989	6.625	1.85000002	200	0	0
9.2329998	6.62510014	1.84800005	200	0	0
9.21399975	6.625	1.83399999	200	0	0
9.22700024	6.62539959	1.86500001	200	0	0
9.20899963	6.6257	1.86800003	200	0	0
9.21000004	6.62559986	1.86600006	200	0	0
9.22799969	6.62510014	1.83299994	200	0	0
9.23499966	6.62539959	1.84800005	200	0	0
9.2130003	6.6257	1.85099995	200	0	0
9.21399975	6.62559986	1.85000002	200	0	0
9.23200035	6.62530088	1.83200002	200	0	0
9.21199989	6.62539959	1.83399999	200	0	0
9.20499992	6.62559986	1.83399999	200	0	0
9.21199989	6.6257	1.83500004	200	0	0
9.20899963	6.625	1.86600006	200	0	0
9.2130003	6.625	1.91400003	200	0	0
9.22500038	6.62510014	1.91400003	200	0	0
9.20499992	6.62559986	1.89900005	200	0	0
9.23200035	6.62539959	1.89699996	200	0	0
9.22000027	6.625	1.898	200	0	0
9.22700024	6.62510014	1.89699996	200	0	0
9.2159996	6.6257	1.91600001	200	0	0
9.21700001	6.62559986	1.91400003	200	0	0
9.21399975	6.6257	1.89999998	200	0	0
9.22900009	6.62539959	1.91400003	200	0	0
9.21899986	6.62559986	1.94599998	200	0	0
9.2159996	6.6257	1.93200004	200	0	0
9.24199963	6.62549973	1.94500005	200	0	0
9.21700001	6.62559986	1.92999995	200	0	0
9.22700024	6.625	1.94599998	200	0	0
9.22999954	6.62510014	1.94599998	200	0	0
9.22099972	6.62549973	1.92999995	200	0	0
9.20600033	6.625	1.93099999	200	0	0
9.22900009	6.62510014	1.92999995	200	0	0
9.22399998	6.6257	1.94799995	200	0	0
9.22700024	6.62510014	2.01099992	200	0	0
9.20600033	6.625	2.01200008	200	0	0
9.20699978	6.6257	1.98099995	200	0	0
9.23099995	6.62549973	1.99399996	200	0	0
9.22000027	6.62559986	1.97899997	200	0	0
9.22299957	6.62510014	1.995	200	0	0
9.21199989	6.625	1.995	200	0	0
9.21500015	6.62510014	1.97899997	200	0	0
9.22200012	6.625	1.97899997	200	0	0
9.22200012	6.62559986	1.995	200	0	0
9.21399975	6.6257	1.99699998	200	0	0
9.21399975	6.6257	2.01300001	200	0	0
9.22099972	6.62559986	2.01099992	200	0	0
9.22999954	6.62510014	2.02699995	200	0	0
9.22299957	6.6257	2.02900004	200	0	0
9.21700001	6.62559986	2.02699995	200	0	0
9.19499969	6.625	2.02900004	200	0	0
9.22999954	6.625	2.10800004	200	0	0
9.23099995	6.62510014	2.10800004	200	0	0
9.21700001	6.62559986	2.09200001	200	0	0
9.22599983	6.6257	2.0769999	200	0	0
9.22000027	6.62559986	2.07599998	200	0	0
9.23900032	6.625	2.09100008	200	0	0
9.2329998	6.62510014	2.09100008	200	0	0
9.22000027	6.6257	2.06100011	200	0	0
9.2159996	6.62559986	2.05999994	200	0	0
9.22500038	6.625	2.07599998	200	0	0
9.22599983	6.62510014	2.07599998	200	0	0
9.22599983	6.62510014	2.05900002	200	0	0
9.21700001	6.6257	2.0940001	200	0	0
9.21000004	6.6257	2.1099999	200	0	0
9.21899986	6.62559986	2.10800004	200	0	0
9.22900009	6.6257	2.17400002	200	0	0
9.22000027	6.62559986	2.1730001	200	0	0
9.23099995	6.62510014	2.18799996	200	0	0
9.23200035	6.625	2.18799996	200	0	0
9.21700001	6.6257	2.14199996	200	0	0
9.21700001	6.62559986	2.1400001	200	0	0
9.22500038	6.62510014	2.1730001	200	0	0
9.22299957	6.625	2.1730001	200	0	0
9.23200035	6.62510014	2.1400001	200	0	0
9.22999954	6.625	2.1400001	200	0	0
9.21899986	6.62559986	2.18899989	200	0	0
9.22500038	6.6257	2.19000006	200	0	0
9.23200035	6.62510014	2.25300002	200	0	0
9.22000027	6.6257	2.27099991	200	0	0
9.22299957	6.62559986	2.26900005	200	0	0
9.22099972	6.625	2.23699999	200	0	0
9.23400021	6.62510014	2.23699999	200	0	0
9.23099995	6.625	2.22099996	200	0	0
9.20600033	6.62559986	2.25399995	200	0	0
9.21700001	6.6257	2.25500011	200	0	0
9.22099972	6.62510014	2.22099996	200	0	0
9.2159996	6.6257	2.23900008	200	0	0
9.22000027	6.62559986	2.23699999	200	0	0
9.21800041	6.6257	2.22300005	200	0	0
9.22200012	6.62559986	2.22099996	200	0	0
9.22900009	6.625	2.26900005	200	0	0
9.23099995	6.62510014	2.26900005	200	0	0
9.23799992	6.625	2.25300002	200	0	0
9.22399998	6.625	2.3499999	200	0	0
9.23799992	6.62510014	2.3499999	200	0	0
9.22099972	6.62559986	2.33400011	200	0	0
9.21700001	6.6257	2.31900001	200	0	0
9.23499966	6.62549973	2.33400011	200	0	0
9.22099972	6.62559986	2.31800008	200	0	0
9.23099995	6.625	2.33400011	200	0	0
9.23900032	6.62510014	2.33400011	200	0	0
9.22099972	6.6257	2.30299997	200	0	0
9.23099995	6.62559986	2.30200005	200	0	0
9.23799992	6.625	2.31800008	200	0	0
9.22299957	6.62510014	2.31800008	200	0	0
9.22999954	6.625	2.30200005	200	0	0
9.22700024	6.62510014	2.30200005	200	0	0
9.24199963	6.62549973	2.3499999	200	0	0
9.22900009	6.6257	2.352	200	0	0
9.22900009	6.62559986	2.3499999	200	0	0
9.22299957	6.6257	2.33500004	200	0	0
9.21899986	6.6257	2.41599989	200	0	0
9.24400043	6.62539959	2.43099999	200	0	0
9.22399998	6.62559986	2.41499996	200	0	0
9.22099972	6.6257	2.4000001	200	0	0
9.23700047	6.62549973	2.41499996	200	0	0
9.23999977	6.625	2.43099999	200	0	0
9.22500038	6.62510014	2.43099999	200	0	0
9.22599983	6.6257	2.38400006	200	0	0
9.23099995	6.62559986	2.398	200	0	0
9.23499966	6.62549973	2.398	200	0	0
9.21800041	6.62559986	2.38199997	200	0	0
9.23200035	6.62510014	2.41499996	200	0	0
9.23400021	6.625	2.41499996	200	0	0
9.22900009	6.62510014	2.398	200	0	0
9.2329998	6.625	2.398	200	0	0
9.23799992	6.625	2.38199997	200	0	0
9.23099995	6.62510014	2.38199997	200	0	0
9.22799969	6.62559986	2.43099999	200	0	0
9.22200012	6.6257	2.43199992	200	0	0
9.22900009	6.62510014	2.49499989	200	0	0
9.22599983	6.6257	2.51300001	200	0	0
9.22799969	6.62559986	2.51099992	200	0	0
9.23200035	6.625	2.47900009	200	0	0
9.23400021	6.62510014	2.47900009	200	0	0
9.24300003	6.62539959	2.49499989	200	0	0
9.23999977	6.625	2.46300006	200	0	0
9.22399998	6.6257	2.49699998	200	0	0
9.22999954	6.62559986	2.49499989	200	0	0
9.21700001	6.62510014	2.46300006	200	0	0
9.24300003	6.62539959	2.47900009	200	0	0
9.22299957	6.6257	2.48099995	200	0	0
9.2159996	6.62559986	2.47900009	200	0	0
9.23999977	6.62539959	2.46300006	200	0	0
9.23200035	6.6257	2.46499991	200	0	0
9.2159996	6.62559986	2.46300006	200	0	0
9.23499966	6.625	2.51099992	200	0	0
9.24199963	6.62539959	2.51099992	200	0	0
9.23600006	6.625	2.49499989	200	0	0
9.23799992	6.625	2.59200001	200	0	0
9.2329998	6.62510014	2.59200001	200	0	0
9.2159996	6.6257	2.56100011	200	0	0
9.22999954	6.62559986	2.55999994	200	0	0
9.23700047	6.62530088	2.55999994	200	0	0
9.23900032	6.625	2.55999994	200	0	0
9.23200035	6.62510014	2.55999994	200	0	0
9.23700047	6.6257	2.6099999	200	0	0
9.23099995	6.62559986	2.60800004	200	0	0
9.24699974	6.62530088	2.59200001	200	0	0
9.22500038	6.6257	2.5940001	200	0	0
9.22599983	6.62559986	2.59200001	200	0	0
9.23499966	6.62510014	2.60800004	200	0	0
9.23499966	6.625	2.60800004	200	0	0
9.24400043	6.62530088	2.60899997	200	0	0
9.24300003	6.62520027	2.68899989	200	0	0
9.23099995	6.62510014	2.68899989	200	0	0
9.24499989	6.625	2.68899989	200	0	0
9.22500038	6.6257	2.64199996	200	0	0
9.23999977	6.62520027	2.6730001	200	0	0
9.23099995	6.62510014	2.6730001	200	0	0
9.2489996	6.625	2.6730001	200	0	0
9.22099972	6.6257	2.62599993	200	0	0
9.22900009	6.62559986	2.64100003	200	0	0
9.22399998	6.62559986	2.62400007	200	0	0
9.25500011	6.62520027	2.64100003	200	0	0
9.23900032	6.62510014	2.64100003	200	0	0
9.23400021	6.625	2.64100003	200	0	0
9.24499989	6.62530088	2.625	200	0	0
9.22999954	6.62510014	2.62400007	200	0	0
9.23700047	6.625	2.625	200	0	0
9.22700024	6.62559986	2.6730001	200	0	0
9.2329998	6.6257	2.70700002	200	0	0
9.22799969	6.62559986	2.70499992	200	0	0
9.23600006	6.6257	2.69099998	200	0	0
9.22999954	6.62559986	2.68899989	200	0	0
9.22299957	6.6257	2.67400002	200	0	0
9.2489996	6.625	2.70600009	200	0	0
9.24600029	6.62520027	2.70600009	200	0	0
9.23999977	6.62510014	2.70499992	200	0	0
9.24300003	6.625	2.78600001	200	0	0
9.23400021	6.62510014	2.78600001	200	0	0
9.23200035	6.6257	2.77099991	200	0	0
9.23200035	6.62559986	2.76999998	200	0	0
9.22299957	6.6257	2.75500011	200	0	0
9.23999977	6.625	2.76999998	200	0	0
9.23999977	6.62510014	2.76999998	200	0	0
9.23099995	6.62559986	2.75399995	200	0	0
9.24199963	6.625	2.75399995	200	0	0
9.22999954	6.62510014	2.75399995	200	0	0
9.22099972	6.6257	2.72300005	200	0	0
9.22799969	6.62559986	2.72099996	200	0	0
9.23700047	6.62510014	2.72199988	200	0	0
9.22599983	6.6257	2.8039999	200	0	0
9.23200035	6.62559986	2.80200005	200	0	0
9.23499966	6.6257	2.78800011	200	0	0
9.22999954	6.62559986	2.78600001	200	0	0
9.23999977	6.625	2.80299997	200	0	0
9.23900032	6.62510014	2.80200005	200	0	0
9.2489996	6.625	2.88400006	200	0	0
9.22500038	6.6257	2.852	200	0	0
9.23499966	6.62510014	2.8829999	200	0	0
9.22799969	6.62559986	2.85100007	200	0	0
9.22500038	6.6257	2.83599997	200	0	0
9.2510004	6.625	2.86800003	200	0	0
9.24300003	6.62510014	2.8670001	200	0	0
9.22399998	6.62559986	2.83400011	200	0	0
9.23900032	6.62510014	2.85100007	200	0	0
9.2329998	6.625	2.85100007	200	0	0
9.23900032	6.62510014	2.83500004	200	0	0
9.22999954	6.625	2.83400011	200	0	0
9.23200035	6.62559986	2.8670001	200	0	0
9.22900009	6.6257	2.86800003	200	0	0
9.22799969	6.6257	2.88400006	200	0	0
9.23099995	6.62559986	2.8829999	200	0	0
9.23799992	6.6257	2.95000005	200	0	0
9.23600006	6.62559986	2.94799995	200	0	0
9.23700047	6.6257	2.93300009	200	0	0
9.24199963	6.62510014	2.96399999	200	0	0
9.22700024	6.6257	2.91700006	200	0	0
9.23600006	6.62559986	2.93199992	200	0	0
9.23099995	6.62559986	2.91499996	200	0	0
9.24199963	6.62510014	2.94799995	200	0	0
9.24600029	6.625	2.94899988	200	0	0
9.23200035	6.62510014	2.93199992	200	0	0
9.23900032	6.62510014	2.91599989	200	0	0
9.24600029	6.625	2.91599989	200	0	0
9.23200035	6.62559986	2.96399999	200	0	0
9.24300003	6.6257	2.96600008	200	0	0
9.23700047	6.62510014	3.02900004	200	0	0
9.22900009	6.6257	3.046	200	0	0
9.23600006	6.62559986	3.04500008	200	0	0
9.23900032	6.625	3.01300001	200	0	0
9.24100018	6.62520027	3.02900004	200	0	0
9.23400021	6.62510014	3.01300001	200	0	0
9.24199963	6.625	2.99699998	200	0	0
9.23499966	6.6257	3.02999997	200	0	0
9.23499966	6.62559986	3.02900004	200	0	0
9.24100018	6.62510014	2.99699998	200	0	0
9.23200035	6.6257	3.01399994	200	0	0
9.23700047	6.62559986	3.01300001	200	0	0
9.23700047	6.6257	2.99799991	200	0	0
9.23200035	6.62559986	2.99600005	200	0	0
9.25500011	6.62520027	3.046	200	0	0
9.24400043	6.625	3.046	200	0	0
9.24499989	6.62510014	3.046	200	0	0
9.24600029	6.625	3.02999997	200	0	0
9.24800014	6.62510014	3.12700009	200	0	0
9.23600006	6.62559986	3.1099999	200	0	0
9.24100018	6.6257	3.09599996	200	0	0
9.24800014	6.62530088	3.11100006	200	0	0
9.23700047	6.62559986	3.0940001	200	0	0
9.23499966	6.625	3.1099999	200	0	0
9.23999977	6.62510014	3.1099999	200	0	0
9.22700024	6.6257	3.079	200	0	0
9.25800037	6.62530088	3.09500003	200	0	0
9.26099968	6.62520027	3.09599996	200	0	0
9.23999977	6.62559986	3.07800007	200	0	0
9.24300003	6.62510014	3.0940001	200	0	0
9.24400043	6.625	3.07800007	200	0	0
9.24199963	6.62510014	3.07800007	200	0	0
9.25899982	6.62530088	3.12800002	200	0	0
9.22399998	6.6257	3.12700009	200	0	0
9.23600006	6.62559986	3.12599993	200	0	0
9.22999954	6.6257	3.11100006	200	0	0
9.26200008	6.625	3.12800002	200	0	0
9.23700047	6.62559986	3.20799994	200	0	0
9.23499966	6.6257	3.19300008	200	0	0
9.2510004	6.62539959	3.20900011	200	0	0
9.25	6.625	3.20900011	200	0	0
9.23700047	6.62559986	3.19099998	200	0	0
9.23799992	6.62510014	3.20799994	200	0	0
9.23700047	6.6257	3.17700005	200	0	0
9.24199963	6.62539959	3.19199991	200	0	0
9.23499966	6.62559986	3.17499995	200	0	0
9.23999977	6.6257	3.16100001	200	0	0
9.24300003	6.625	3.19199991	200	0	0
9.2489996	6.62510014	3.19199991	200	0	0
9.2329998	6.62559986	3.15899992	200	0	0
9.25699997	6.62530088	3.17700005	200	0	0
9.25199986	6.625	3.17600012	200	0	0
9.24499989	6.62510014	3.17600012	200	0	0
9.2489996	6.625	3.16000009	200	0	0
9.24100018	6.62510014	3.15899992	200	0	0
9.23400021	6.6257	3.20900011	200	0	0
9.23799992	6.62510014	3.28900003	200	0	0
9.25399971	6.625	3.27399993	200	0	0
9.26599979	6.62549973	3.29099989	200	0	0
9.25199986	6.62510014	3.27399993	200	0	0
9.22799969	6.6257	3.28999996	200	0	0
9.23700047	6.62559986	3.28900003	200	0	0
9.24100018	6.625	3.25699997	200	0	0
9.25	6.62539959	3.27399993	200	0	0
9.2510004	6.625	3.24099994	200	0	0
9.23400021	6.62510014	3.25600004	200	0	0
9.23700047	6.6257	3.27399993	200	0	0
9.23999977	6.62549973	3.273	200	0	0
9.24199963	6.62559986	3.273	200	0	0
9.23499966	6.62510014	3.24000001	200	0	0
9.23700047	6.62539959	3.25600004	200	0	0
9.23400021	6.6257	3.2579999	200	0	0
9.23999977	6.62559986	3.25699997	200	0	0
9.24600029	6.62539959	3.24099994	200	0	0
9.23799992	6.6257	3.2420001	200	0	0
9.23200035	6.62559986	3.24000001	200	0	0
9.25300026	6.625	3.28999996	200	0	0
9.24600029	6.62559986	3.37100005	200	0	0
9.25599957	6.62549973	3.37199998	200	0	0
9.23499966	6.6257	3.35500002	200	0	0
9.2510004	6.625	3.37199998	200	0	0
9.23999977	6.62510014	3.37100005	200	0	0
9.23799992	6.62559986	3.35400009	200	0	0
9.25399971	6.62549973	3.35599995	200	0	0
9.23499966	6.6257	3.33899999	200	0	0
9.25899982	6.625	3.35599995	200	0	0
9.24100018	6.62559986	3.33800006	200	0	0
9.23499966	6.6257	3.32299995	200	0	0
9.23999977	6.62510014	3.35400009	200	0	0
9.23999977	6.62559986	3.32200003	200	0	0
9.25599957	6.62549973	3.32299995	200	0	0
9.24699974	6.625	3.33899999	200	0	0
9.2489996	6.62510014	3.33899999	200	0	0
9.25699997	6.625	3.32299995	200	0	0
9.24100018	6.62510014	3.32200003	200	0	0
9.23499966	6.6257	3.37199998	200	0	0
9.25300026	6.62510014	3.454	200	0	0
9.26000023	6.625	3.43799996	200	0	0
9.24300003	6.6257	3.454	200	0	0
9.24199963	6.62510014	3.43600011	200	0	0
9.24699974	6.62559986	3.45300007	200	0	0
9.25599957	6.625	3.421	200	0	0
9.23700047	6.62510014	3.41899991	200	0	0
9.25500011	6.625	3.40499997	200	0	0
9.23900032	6.6257	3.43700004	200	0	0
9.23900032	6.62559986	3.43600011	200	0	0
9.24300003	6.62510014	3.40400004	200	0	0
9.23200035	6.6257	3.42000008	200	0	0
9.23900032	6.62559986	3.42000008	200	0	0
9.24100018	6.6257	3.40499997	200	0	0
9.24100018	6.62559986	3.40300012	200	0	0
9.26000023	6.625	3.454	200	0	0
9.24499989	6.62559986	3.53500009	200	0	0
9.23700047	6.6257	3.51900005	200	0	0
9.2489996	6.625	3.53500009	200	0	0
9.24600029	6.62559986	3.51799989	200	0	0
9.24199963	6.62510014	3.53399992	200	0	0
9.23999977	6.6257	3.50300002	200	0	0
9.22500038	6.6257	3.4849999	200	0	0
9.23499966	6.62559986	3.50099993	200	0	0
9.26399994	6.625	3.51999998	200	0	0
9.24800014	6.62510014	3.51900005	200	0	0
9.23900032	6.62559986	3.4849999	200	0	0
9.25899982	6.625	3.50300002	200	0	0
9.24300003	6.62510014	3.50200009	200	0	0
9.25699997	6.625	3.48699999	200	0	0
9.24300003	6.62510014	3.4849999	200	0	0
9.24400043	6.6257	3.53600001	200	0	0
9.25199986	6.62510014	3.6170001	200	0	0
9.2510004	6.625	3.60100007	200	0	0
9.2489996	6.62510014	3.60100007	200	0	0
9.23999977	6.62559986	3.61599994	200	0	0
9.24600029	6.625	3.58400011	200	0	0
9.26099968	6.625	3.56900001	200	0	0
9.23799992	6.62510014	3.58299994	200	0	0
9.24800014	6.6257	3.602	200	0	0
9.2329998	6.62559986	3.59899998	200	0	0
9.24100018	6.62510014	3.56699991	200	0	0
9.23400021	6.6257	3.58400011	200	0	0
9.23999977	6.62559986	3.58299994	200	0	0
9.23799992	6.6257	3.56800008	200	0	0
9.24199963	6.62559986	3.56699991	200	0	0
9.24600029	6.625	3.6170001	200	0	0
9.2510004	6.62559986	3.69899988	200	0	0
9.25199986	6.62549973	3.70000005	200	0	0
9.23999977	6.6257	3.68300009	200	0	0
9.25500011	6.625	3.70000005	200	0	0
9.24600029	6.62559986	3.68199992	200	0	0
9.24699974	6.62510014	3.69899988	200	0	0
9.2489996	6.6257	3.66799998	200	0	0
9.25800037	6.62549973	3.68400002	200	0	0
9.24400043	6.62559986	3.66599989	200	0	0
9.23900032	6.6257	3.6500001	200	0	0
9.25800037	6.625	3.68400002	200	0	0
9.24499989	6.62510014	3.68199992	200	0	0
9.25	6.62549973	3.66599989	200	0	0
9.23999977	6.62559986	3.64899993	200	0	0
9.25300026	6.625	3.66700006	200	0	0
9.24699974	6.62510014	3.66599989	200	0	0
9.26399994	6.625	3.65199995	200	0	0
9.25699997	6.62510014	3.65100002	200	0	0
9.23999977	6.6257	3.70000005	200	0	0
9.25899982	6.625	3.76600003	200	0	0
9.25599957	6.6257	3.78399992	200	0	0
9.24600029	6.62510014	3.7650001	200	0	0
9.24800014	6.62559986	3.7809999	200	0	0
9.2489996	6.625	3.74900007	200	0	0
9.26200008	6.62539959	3.76699996	200	0	0
9.24800014	6.62510014	3.74900007	200	0	0
9.26200008	6.625	3.73399997	200	0	0
9.24499989	6.6257	3.76600003	200	0	0
9.24499989	6.62559986	3.7650001	200	0	0
9.24199963	6.62510014	3.73099995	200	0	0
9.25	6.6257	3.75	200	0	0
9.24400043	6.62559986	3.74799991	200	0	0
9.22299957	6.6257	3.73000002	200	0	0
9.24499989	6.62549973	3.73200011	200	0	0
9.2510004	6.62559986	3.73200011	200	0	0
9.24699974	6.62510014	3.7980001	200	0	0
9.27600002	6.625	3.78500009	200	0	0
9.25899982	6.625	3.86599994	200	0	0
9.25199986	6.62510014	3.86500001	200	0	0
9.25	6.6257	3.83299994	200	0	0
9.26200008	6.62539959	3.84899998	200	0	0
9.24499989	6.62559986	3.82999992	200	0	0
9.2489996	6.6257	3.81599998	200	0	0
9.26099968	6.625	3.84899998	200	0	0
9.25199986	6.62510014	3.84800005	200	0	0
9.24400043	6.62559986	3.81399989	200	0	0
9.26799965	6.625	3.83400011	200	0	0
9.26299953	6.62510014	3.83299994	200	0	0
9.25300026	6.62539959	3.81500006	200	0	0
9.26299953	6.625	3.81699991	200	0	0
9.25	6.62510014	3.81500006	200	0	0
9.26099968	6.62539959	3.86599994	200	0	0
9.2489996	6.6257	3.86599994	200	0	0
9.23799992	6.62559986	3.86299992	200	0	0
9.2510004	6.6257	3.84899998	200	0	0
9.25199986	6.62559986	3.84800005	200	0	0
9.25	6.62510014	3.89700007	200	0	0
9.24100018	6.6257	3.93099999	200	0	0
9.25399971	6.62559986	3.93099999	200	0	0
9.26000023	6.62530088	3.94899988	200	0	0
9.27099991	6.62520027	3.95000005	200	0	0
9.25599957	6.6257	3.91599989	200	0	0
9.25800037	6.625	3.94799995	200	0	0
9.25300026	6.62510014	3.94700003	200	0	0
9.23999977	6.6257	3.89700007	200	0	0
9.23999977	6.62559986	3.91199994	200	0	0
9.25899982	6.62530088	3.93199992	200	0	0
9.27099991	6.62520027	3.93400002	200	0	0
9.2489996	6.62559986	3.89700007	200	0	0
9.25300026	6.62510014	3.93099999	200	0	0
9.25399971	6.625	3.93099999	200	0	0
9.25699997	6.62530088	3.91499996	200	0	0
9.26500034	6.625	3.91599989	200	0	0
9.24499989	6.62510014	3.91300011	200	0	0
9.25599957	6.62530088	3.898	200	0	0
9.26200008	6.625	3.89899993	200	0	0
9.25500011	6.62559986	3.94799995	200	0	0
9.25	6.6257	3.94899988	200	0	0
9.24300003	6.62510014	3.99600005	200	0	0
9.24199963	6.62559986	3.97900009	200	0	0
9.26900005	6.625	3.98300004	200	0	0
9.26799965	6.62520027	3.98300004	200	0	0
9.24699974	6.62510014	3.98000002	200	0	0
9.26099968	6.62520027	3.99900007	200	0	0
9.25599957	6.62559986	4.01399994	200	0	0
9.24800014	6.6257	4.01499987	200	0	0
9.2510004	6.6257	3.99900007	200	0	0
9.2489996	6.62559986	3.99699998	200	0	0
9.24499989	6.6257	3.98099995	200	0	0
9.26200008	6.62510014	4.01499987	200	0	0
9.27200031	6.62520027	4.0170002	200	0	0
9.24800014	6.6257	4.03100014	200	0	0
9.26299953	6.625	4.03200006	200	0	0
9.26399994	6.62559986	4.03200006	200	0	0
9.2670002	6.62520027	4.03299999	200	0	0
9.25300026	6.62510014	4.03100014	200	0	0
9.26000023	6.625	4.01499987	200	0	0
9.25	6.62559986	4.07999992	200	0	0
9.2510004	6.6257	4.06500006	200	0	0
9.26900005	6.625	4.08300018	200	0	0
9.25	6.62559986	4.0630002	200	0	0
9.24699974	6.62510014	4.079	200	0	0
9.26200008	6.625	4.06500006	200	0	0
9.24699974	6.62510014	4.0630002	200	0	0
9.25699997	6.62510014	4.09800005	200	0	0
9.26299953	6.6257	4.08400011	200	0	0
9.24400043	6.6257	4.09700012	200	0	0
9.25300026	6.62559986	4.09700012	200	0	0
9.25399971	6.62559986	4.11399984	200	0	0
9.25	6.62510014	4.11299992	200	0	0
9.27200031	6.625	4.0999999	200	0	0
9.25199986	6.6257	4.11499977	200	0	0
9.26799965	6.625	4.11600018	200	0	0
9.25199986	6.62510014	4.16400003	200	0	0
9.26399994	6.625	4.14900017	200	0	0
9.24800014	6.6257	4.16499996	200	0	0
9.24400043	6.62510014	4.14599991	200	0	0
9.2510004	6.62559986	4.16300011	200	0	0
9.26399994	6.6257	4.15100002	200	0	0
9.26099968	6.62559986	4.14900017	200	0	0
9.2510004	6.62510014	4.17999983	200	0	0
9.25199986	6.62510014	4.19700003	200	0	0
9.26399994	6.62559986	4.18300009	200	0	0
9.27400017	6.625	4.18499994	200	0	0
9.25699997	6.6257	4.18300009	200	0	0
9.25199986	6.6257	4.19899988	200	0	0
9.25699997	6.62559986	4.19799995	200	0	0
9.26200008	6.625	4.19899988	200	0	0
9.25699997	6.6257	4.2329998	200	0	0
9.26399994	6.625	4.25	200	0	0
9.26099968	6.62510014	4.24900007	200	0	0
9.25	6.62559986	4.23000002	200	0	0
9.2510004	6.62510014	4.23099995	200	0	0
9.26599979	6.62559986	4.25	200	0	0
9.25199986	6.6257	4.24900007	200	0	0
