-14.4180002	6.84210014	0.800999999	200	0	0
-14.4230003	6.84210014	0.851000011	200	0	0
-14.4329996	6.8421998	0.926999986	200	0	0
-14.4160004	6.84250021	1.33200002	200	0	0
-14.4320002	6.84250021	1.27999997	200	0	0
-14.4280005	6.84250021	1.30499995	200	0	0
-14.4370003	6.84250021	1.35500002	200	0	0
-14.4119997	6.84189987	0.59799999	200	0	0
-14.4130001	6.84200001	0.648999989	200	0	0
-14.4160004	6.84200001	0.725000024	200	0	0
-14.415	6.84210014	0.699999988	200	0	0
-14.4239998	6.84210014	0.647000015	200	0	0
-14.4110003	6.84210014	0.675000012	200	0	0
-14.408	6.84200001	0.700999975	200	0	0
-14.4060001	6.84210014	0.726000011	200	0	0
-14.4099998	6.8421998	0.77700001	200	0	0
-14.4200001	6.8421998	0.825999975	200	0	0
-14.4200001	6.8421998	0.800999999	200	0	0
-14.4130001	6.8421998	0.852999985	200	0	0
-14.434	6.84229994	0.898999989	200	0	0
-14.4259996	6.84229994	0.949999988	200	0	0
-14.4169998	6.84229994	0.925999999	200	0	0
-14.4239998	6.8421998	0.90200001	200	0	0
-14.4180002	6.84240007	0.899999976	200	0	0
-14.4189997	6.84240007	0.950999975	200	0	0
-14.4250002	6.84240007	0.925000012	200	0	0
-14.4309998	6.84240007	0.975000024	200	0	0
-14.434	6.84229994	0.84799999	200	0	0
-14.4259996	6.84179974	0.442000002	200	0	0
-14.4320002	6.84179974	0.467000008	200	0	0
-14.4180002	6.84119987	0.063000001	200	0	0
-14.415	6.84140015	0.137999997	200	0	0
-14.4169998	6.84150076	0.164000005	200	0	0
-14.4239998	6.84150076	0.187999994	200	0	0
-14.4169998	6.84119987	0.0109999999	200	0	0
-14.3940001	6.84130001	0.0930000022	200	0	0
-14.4090004	6.84130001	0.0379999988	200	0	0
-14.4060001	6.84130001	0.0649999976	200	0	0
-14.4110003	6.84140015	0.0869999975	200	0	0
-14.4239998	6.84109974	-0.0390000008	200	0	0
-14.4259996	6.84109974	-0.0659999996	200	0	0
-14.3979998	6.84119987	-0.0370000005	200	0	0
-14.3959999	6.84130001	0.0149999997	200	0	0
-14.3929996	6.84140015	0.0130000003	200	0	0
-14.4200001	6.84140015	0.0340000018	200	0	0
-14.4250002	6.84150076	0.0850000009	200	0	0
-14.4209995	6.84020042	-0.321999997	200	0	0
-14.4200001	6.84020042	-0.374000013	200	0	0
-14.4200001	6.84020042	-0.34799999	200	0	0
-14.4209995	6.84010029	-0.321999997	200	0	0
-14.4180002	6.84010029	-0.374000013	200	0	0
-14.415	6.84010029	-0.347000003	200	0	0
-14.4250002	6.84000015	-0.375	200	0	0
-14.4239998	6.84000015	-0.349000007	200	0	0
-14.4049997	6.84000015	-0.423000008	200	0	0
-14.4069996	6.84030104	-0.372000009	200	0	0
-14.4110003	6.84030104	-0.319999993	200	0	0
-14.415	6.83990002	-0.425000012	200	0	0
-14.4180002	6.84030104	-0.34799999	200	0	0
-14.4090004	6.8409009	-0.165999994	200	0	0
-14.4189997	6.8409996	-0.115999997	200	0	0
-14.4320002	6.84259987	1.176	200	0	0
-14.4370003	6.84259987	1.14999998	200	0	0
-14.4300003	6.84259987	1.227	200	0	0
-14.4069996	6.84250021	1.23099995	200	0	0
-14.4069996	6.84250021	1.20599997	200	0	0
-14.4130001	6.84240007	1.23099995	200	0	0
-14.427	6.84250021	1.05200005	200	0	0
-14.4160004	6.84250021	1.028	200	0	0
-14.4420004	6.84259987	1.04799998	200	0	0
-14.441	6.84259987	1.09899998	200	0	0
-14.4110003	6.8427	1.22800004	200	0	0
-14.4060001	6.84259987	1.27900004	200	0	0
-14.4370003	6.84259987	1.30200005	200	0	0
-14.434	6.84259987	1.32799995	200	0	0
-14.4429998	6.84259987	1.352	200	0	0
-14.4429998	6.84250021	0.973999977	200	0	0
-14.4230003	6.8427	1.42999995	200	0	0
-14.4440002	6.8427	1.403	200	0	0
-14.415	6.84259987	1.40499997	200	0	0
-14.4399996	6.84259987	1.42799997	200	0	0
-14.4160004	6.8427	1.329	200	0	0
-14.4429998	6.8427	1.352	200	0	0
-14.4110003	6.8427	1.30400002	200	0	0
-14.4320002	6.84280109	1.35000002	200	0	0
-14.408	6.84280109	1.27600002	200	0	0
-14.4359999	6.84280109	1.29900002	200	0	0
-14.4280005	6.84259987	1.48000002	200	0	0
-14.4329996	6.8427	1.454	200	0	0
-14.4160004	6.8428998	1.301	200	0	0
-14.4169998	6.8428998	1.32599998	200	0	0
-14.4309998	6.8428998	1.35000002	200	0	0
-14.4359999	6.84280109	1.40100002	200	0	0
-14.4309998	6.84280109	1.426	200	0	0
-14.4420004	6.84280109	1.47599995	200	0	0
-14.434	6.84280109	1.45099998	200	0	0
-14.4420004	6.8427	1.47899997	200	0	0
-14.4329996	6.84259987	1.52999997	200	0	0
-14.4309998	6.84250021	0.924000025	200	0	0
-14.4219999	6.84250021	0.950999975	200	0	0
-14.4219999	6.84250021	1.68499994	200	0	0
-14.4309998	6.84250021	1.65900004	200	0	0
-14.46	6.84240007	1.68200004	200	0	0
-14.4449997	6.83710003	-1.02699995	200	0	0
-14.4280005	6.8375001	-0.944999993	200	0	0
-14.434	6.83780098	-0.893999994	200	0	0
-14.4449997	6.83719969	-1.02900004	200	0	0
-14.4350004	6.83729982	-1	200	0	0
-14.4429998	6.83729982	-1.02900004	200	0	0
-14.4420004	6.83739996	-1.00199997	200	0	0
-14.4320002	6.83739996	-0.97299999	200	0	0
-14.4350004	6.8375001	-1	200	0	0
-14.427	6.83760023	-0.972000003	200	0	0
-14.4390001	6.83760023	-0.948000014	200	0	0
-14.4300003	6.8375001	-0.97299999	200	0	0
-14.4250002	6.83770037	-0.944999993	200	0	0
-14.4239998	6.83780098	-0.944999993	200	0	0
-14.4259996	6.83789968	-0.89200002	200	0	0
-14.46	6.83859968	-0.769999981	200	0	0
-14.4379997	6.83879995	-0.740999997	200	0	0
-14.4289999	6.83879995	-0.712000012	200	0	0
-14.4490004	6.83869982	-0.740999997	200	0	0
-14.4259996	6.83949995	-0.582000017	200	0	0
-14.4090004	6.83960009	-0.555000007	200	0	0
-14.4300003	6.83890009	-0.739000022	200	0	0
-14.4399996	6.83840084	-0.818000019	200	0	0
-14.4519997	6.83830023	-0.82099998	200	0	0
-14.4469995	6.83869982	-0.76700002	200	0	0
-14.4219999	6.83789968	-0.944000006	200	0	0
-14.4300003	6.83799982	-0.865999997	200	0	0
-14.4390001	6.83799982	-0.894999981	200	0	0
-14.4420004	6.83809996	-0.869000018	200	0	0
-14.4200001	6.83809996	-0.838	200	0	0
-14.4309998	6.83949995	-0.610000014	200	0	0
-14.4180002	6.83960009	-0.583000004	200	0	0
-14.4110003	6.84000015	-0.476999998	200	0	0
-14.4139996	6.83990002	-0.504000008	200	0	0
-14.4160004	6.83990002	-0.451999992	200	0	0
-14.4139996	6.83990002	-0.476999998	200	0	0
-14.4230003	6.83979988	-0.504999995	200	0	0
-14.4230003	6.83979988	-0.479000002	200	0	0
-14.4119997	6.84000015	-0.451000005	200	0	0
-14.4040003	6.84020042	-0.423000008	200	0	0
-14.4099998	6.84010029	-0.423999995	200	0	0
-14.4449997	6.83820009	-0.842999995	200	0	0
-14.427	6.83920002	-0.688000023	200	0	0
-14.4250002	6.83960009	-0.611000001	200	0	0
-14.4230003	6.83969975	-0.583999991	200	0	0
-14.401	6.83969975	-0.552999973	200	0	0
-14.4160004	6.83979988	-0.555999994	200	0	0
-14.3929996	6.84000015	-0.499000013	200	0	0
-14.4119997	6.84080029	-0.193000004	200	0	0
-14.3999996	6.8409009	-0.189999998	200	0	0
-14.4259996	6.8409996	-0.169	200	0	0
-14.4209995	6.84109974	-0.0909999982	200	0	0
-14.4060001	6.84109974	-0.114	200	0	0
-14.4399996	6.83890009	-0.768000007	200	0	0
-14.4090004	6.83909988	-0.736999989	200	0	0
-14.4280005	6.83920002	-0.713999987	200	0	0
-14.4060001	6.83909988	-0.709999979	200	0	0
-14.4390001	6.83949995	-0.638000011	200	0	0
-14.408	6.84010029	-0.449999988	200	0	0
-14.3979998	6.83990002	-0.552999973	200	0	0
-14.4040003	6.84010029	-0.501999974	200	0	0
-14.4099998	6.84010029	-0.476999998	200	0	0
-14.4119997	6.84020042	-0.451000005	200	0	0
-14.4110003	6.84030104	-0.425000012	200	0	0
-14.415	6.84039974	-0.347000003	200	0	0
-14.4169998	6.84039974	-0.372999996	200	0	0
-14.4130001	6.84039974	-0.32100001	200	0	0
-14.4180002	6.84049988	-0.374000013	200	0	0
-14.4069996	6.84049988	-0.319000006	200	0	0
-14.4160004	6.84049988	-0.347000003	200	0	0
-14.4209995	6.84119987	-0.0670000017	200	0	0
-14.4040003	6.84119987	-0.0900000036	200	0	0
-14.4110003	6.84130001	-0.0649999976	200	0	0
-14.408	6.84130001	-0.0390000008	200	0	0
-14.4090004	6.84119987	-0.116999999	200	0	0
-14.3999996	6.84130001	-0.0890000015	200	0	0
-14.427	6.83809996	-0.89200002	200	0	0
-14.434	6.83840084	-0.842999995	200	0	0
-14.4280005	6.83820009	-0.865999997	200	0	0
-14.4390001	6.83830023	-0.843999982	200	0	0
-14.4449997	6.83859968	-0.819000006	200	0	0
-14.4399996	6.83849955	-0.818000019	200	0	0
-14.4420004	6.83760023	-1.02900004	200	0	0
-14.434	6.83760023	-1	200	0	0
-14.4420004	6.83780098	-1.00199997	200	0	0
-14.4259996	6.83780098	-0.972000003	200	0	0
-14.4350004	6.83770037	-1	200	0	0
-14.4370003	6.83770037	-0.973999977	200	0	0
-14.415	6.83789968	-0.968999982	200	0	0
-14.4320002	6.83809996	-0.94599998	200	0	0
-14.4250002	6.83820009	-0.89200002	200	0	0
-14.4239998	6.83799982	-0.944999993	200	0	0
-14.4169998	6.83830023	-0.89200002	200	0	0
-14.4300003	6.83840084	-0.894999981	200	0	0
-14.4289999	6.83840084	-0.869000018	200	0	0
-14.4300003	6.83849955	-0.869000018	200	0	0
-14.448	6.83849955	-0.846000016	200	0	0
-14.434	6.83859968	-0.842999995	200	0	0
-14.4250002	6.83849955	-0.893999994	200	0	0
-14.4350004	6.83859968	-0.870000005	200	0	0
-14.4209995	6.83869982	-0.866999984	200	0	0
-14.4239998	6.83879995	-0.842999995	200	0	0
-14.4320002	6.83879995	-0.819000006	200	0	0
-14.4160004	6.83869982	-0.838999987	200	0	0
-14.4180002	6.83909988	-0.764999986	200	0	0
-14.4099998	6.84039974	-0.423999995	200	0	0
-14.4020004	6.84049988	-0.291999996	200	0	0
-14.4139996	6.84060001	-0.372999996	200	0	0
-14.408	6.84060001	-0.319999993	200	0	0
-14.4069996	6.84060001	-0.344999999	200	0	0
-14.3999996	6.84020042	-0.474999994	200	0	0
-14.4029999	6.84030104	-0.449000001	200	0	0
-14.4069996	6.84070015	-0.293000013	200	0	0
-14.4300003	6.8409996	-0.247999996	200	0	0
-14.4189997	6.84060001	-0.296000004	200	0	0
-14.4099998	6.8409996	-0.217999995	200	0	0
-14.4040003	6.8409009	-0.243000001	200	0	0
-14.4099998	6.8409009	-0.217999995	200	0	0
-14.3979998	6.84080029	-0.241999999	200	0	0
-14.4060001	6.84109974	-0.165999994	200	0	0
-14.4169998	6.84130001	-0.118000001	200	0	0
-14.4280005	6.84140015	-0.0450000018	200	0	0
-14.4239998	6.84150076	0.00800000038	200	0	0
-14.4189997	6.84150076	0.0599999987	200	0	0
-14.415	6.8416996	0.189999998	200	0	0
-14.4200001	6.84159994	0.266000003	200	0	0
-14.3990002	6.8416996	0.32100001	200	0	0
-14.3900003	6.84179974	0.268000007	200	0	0
-14.4219999	6.84189987	0.263000011	200	0	0
-14.3879995	6.8416996	0.270999998	200	0	0
-14.3889999	6.8416996	0.167999998	200	0	0
-14.4250002	6.84140015	-0.0960000008	200	0	0
-14.4099998	6.84159994	0.0359999985	200	0	0
-14.4169998	6.84150076	-0.0430000015	200	0	0
-14.3950005	6.84119987	-0.165999994	200	0	0
-14.3929996	6.84119987	-0.192000002	200	0	0
-14.4049997	6.84109974	-0.216999993	200	0	0
-14.4130001	6.84130001	-0.170000002	200	0	0
-14.3909998	6.84140015	-0.115999997	200	0	0
-14.4029999	6.84070015	-0.319000006	200	0	0
-14.4090004	6.8409009	-0.296000004	200	0	0
-14.4049997	6.84080029	-0.294999987	200	0	0
-14.401	6.84080029	-0.32100001	200	0	0
-14.4029999	6.84109974	-0.243000001	200	0	0
-14.3909998	6.84119987	-0.243000001	200	0	0
-14.3950005	6.84119987	-0.217999995	200	0	0
-14.4139996	6.84030104	-0.476999998	200	0	0
-14.4049997	6.84039974	-0.449000001	200	0	0
-14.4169998	6.84020042	-0.504000008	200	0	0
-14.4139996	6.83979988	-0.582000017	200	0	0
-14.4189997	6.83949995	-0.68599999	200	0	0
-14.4119997	6.83979988	-0.634000003	200	0	0
-14.4289999	6.83939981	-0.688000023	200	0	0
-14.4189997	6.83979988	-0.609000027	200	0	0
-14.441	6.83930016	-0.690999985	200	0	0
-14.4309998	6.83969975	-0.638000011	200	0	0
-14.4259996	6.83969975	-0.611000001	200	0	0
-14.4440002	6.83960009	-0.640999973	200	0	0
-14.4139996	6.83990002	-0.582000017	200	0	0
-14.415	6.84010029	-0.555999994	200	0	0
-14.3940001	6.84000015	-0.551999986	200	0	0
-14.3979998	6.84030104	-0.5	200	0	0
-14.4099998	6.84000015	-0.58099997	200	0	0
-14.3979998	6.84020042	-0.552999973	200	0	0
-14.408	6.84039974	-0.501999974	200	0	0
-14.408	6.84039974	-0.476000011	200	0	0
-14.415	6.84229994	0.799000025	200	0	0
-14.4049997	6.8421998	0.700999975	200	0	0
-14.4200001	6.8421998	0.723999977	200	0	0
-14.4130001	6.84250021	0.773999989	200	0	0
-14.415	6.84259987	0.796000004	200	0	0
-14.4250002	6.84259987	0.846000016	200	0	0
-14.4130001	6.84259987	0.822000027	200	0	0
-14.4110003	6.84240007	0.773999989	200	0	0
-14.4300003	6.84250021	0.84799999	200	0	0
-14.3979998	6.84250021	0.825999975	200	0	0
-14.4309998	6.84240007	0.84799999	200	0	0
-14.4110003	6.84240007	0.824999988	200	0	0
-14.4289999	6.84250021	0.898999989	200	0	0
-14.4350004	6.8427	0.921000004	200	0	0
-14.4189997	6.8427	0.898000002	200	0	0
-14.4250002	6.84259987	0.921999991	200	0	0
-14.4200001	6.84259987	0.898000002	200	0	0
-14.4359999	6.8427	0.972000003	200	0	0
-14.4200001	6.8427	1.10099995	200	0	0
-14.4280005	6.8427	1.07500005	200	0	0
-14.4189997	6.8427	1.02499998	200	0	0
-14.3979998	6.84280109	1.02400005	200	0	0
-14.4169998	6.84280109	1.04799998	200	0	0
-14.4219999	6.84280109	1.09800005	200	0	0
-14.4250002	6.84280109	1.07200003	200	0	0
-14.4049997	6.8421998	0.675000012	200	0	0
-14.4180002	6.84229994	0.697000027	200	0	0
-14.4099998	6.84240007	0.72299999	200	0	0
-14.4069996	6.8427	0.772000015	200	0	0
-14.3950005	6.84259987	0.773000002	200	0	0
-14.4250002	6.8427	0.846000016	200	0	0
-14.4139996	6.8421998	0.648999989	200	0	0
-14.4280005	6.84229994	0.670000017	200	0	0
-14.4029999	6.84229994	0.596000016	200	0	0
-14.4040003	6.84240007	0.672999978	200	0	0
-14.4060001	6.84200001	0.573000014	200	0	0
-14.3990002	6.84240007	0.648000002	200	0	0
-14.4180002	6.84189987	0.572000027	200	0	0
-14.4139996	6.8421998	0.59799999	200	0	0
-14.4049997	6.84229994	0.647000015	200	0	0
-14.4139996	6.84210014	0.59799999	200	0	0
-14.4069996	6.84200001	0.598999977	200	0	0
-14.3940001	6.84200001	0.549000025	200	0	0
-14.4029999	6.84189987	0.547999978	200	0	0
-14.4029999	6.84210014	0.547999978	200	0	0
-14.4049997	6.8421998	0.573000014	200	0	0
-14.4289999	6.84189987	0.467999995	200	0	0
-14.415	6.84189987	0.393000007	200	0	0
-14.3950005	6.84200001	0.472000003	200	0	0
-14.427	6.8416996	0.393000007	200	0	0
-14.4200001	6.84179974	0.418000013	200	0	0
-14.4180002	6.84210014	0.39199999	200	0	0
-14.4040003	6.84200001	0.522000015	200	0	0
-14.4060001	6.84210014	0.470999986	200	0	0
-14.4049997	6.84210014	0.522000015	200	0	0
-14.3950005	6.8421998	0.523000002	200	0	0
-14.3990002	6.8421998	0.547999978	200	0	0
-14.3959999	6.84229994	0.546000004	200	0	0
-14.4429998	6.84259987	1.55499995	200	0	0
-14.4289999	6.84259987	1.60599995	200	0	0
-14.4499998	6.84259987	1.579	200	0	0
-14.4429998	6.8427	1.55499995	200	0	0
-14.4379997	6.8427	1.60500002	200	0	0
-14.4499998	6.8427	1.579	200	0	0
-14.4259996	6.8427	1.52999997	200	0	0
-14.4189997	6.84259987	1.65699995	200	0	0
-14.4320002	6.84259987	1.68099999	200	0	0
-14.434	6.84280109	1.52699995	200	0	0
-14.4309998	6.84280109	1.57799995	200	0	0
-14.4329996	6.84280109	1.65400004	200	0	0
-14.4379997	6.8427	1.65600002	200	0	0
-14.4300003	6.84280109	1.60300004	200	0	0
-14.4180002	6.8427	1.68200004	200	0	0
-14.4289999	6.8428998	1.55299997	200	0	0
-14.4280005	6.8428998	1.60300004	200	0	0
-14.4469995	6.8428998	1.52600002	200	0	0
-14.4350004	6.8428998	1.653	200	0	0
-14.4300003	6.84280109	1.67900002	200	0	0
-14.4259996	6.8428998	1.42700005	200	0	0
-14.4289999	6.8428998	1.477	200	0	0
-14.4320002	6.8428998	1.45200002	200	0	0
-14.4449997	6.8428998	1.39999998	200	0	0
-14.4160004	6.84280109	1.20000005	200	0	0
-14.4259996	6.84280109	1.22399998	200	0	0
-14.4429998	6.84299994	1.47599995	200	0	0
-14.4169998	6.84299994	1.40199995	200	0	0
-14.4189997	6.84299994	1.45200002	200	0	0
-14.4329996	6.84299994	1.426	200	0	0
-14.4289999	6.8428998	1.27499998	200	0	0
-14.4239998	6.8428998	1.199	200	0	0
-14.4189997	6.8428998	1.22500002	200	0	0
-14.4280005	6.8428998	1.17299998	200	0	0
-14.3990002	6.84280109	1.176	200	0	0
-14.4259996	6.84299994	1.32500005	200	0	0
-14.4130001	6.84299994	1.301	200	0	0
-14.4209995	6.84299994	1.27499998	200	0	0
-14.4169998	6.84299994	1.35099995	200	0	0
-14.4110003	6.84299994	1.20000005	200	0	0
-14.4280005	6.84299994	1.22399998	200	0	0
-14.4429998	6.84310007	1.398	200	0	0
-14.4119997	6.84310007	1.324	200	0	0
-14.4209995	6.84310007	1.34899998	200	0	0
-14.4329996	6.8428998	1.02100003	200	0	0
-14.4219999	6.8428998	1.07299995	200	0	0
-14.4160004	6.84280109	0.972000003	200	0	0
-14.415	6.84280109	0.921000004	200	0	0
-14.4250002	6.8428998	1.148	200	0	0
-14.4250002	6.8428998	1.09800005	200	0	0
-14.4160004	6.84299994	1.17400002	200	0	0
-14.4060001	6.84299994	1.14999998	200	0	0
-14.4180002	6.84250021	0.697000027	200	0	0
-14.4069996	6.84240007	0.698000014	200	0	0
-14.4099998	6.8428998	1.67999995	200	0	0
-14.4499998	6.84299994	1.551	200	0	0
-14.4320002	6.84299994	1.52699995	200	0	0
-14.4370003	6.84299994	1.60300004	200	0	0
-14.4250002	6.84299994	1.57799995	200	0	0
-14.4370003	6.84299994	1.653	200	0	0
-14.4300003	6.84299994	1.67900002	200	0	0
-14.4300003	6.84310007	1.449	200	0	0
-14.4239998	6.84310007	1.42400002	200	0	0
-14.434	6.84310007	1.57500005	200	0	0
-14.4230003	6.84310007	1.551	200	0	0
-14.4300003	6.84310007	1.52499998	200	0	0
-14.4399996	6.84320021	1.52400005	200	0	0
-14.4390001	6.84320021	1.44799995	200	0	0
-14.4329996	6.84320021	1.47399998	200	0	0
-14.4370003	6.84320021	1.398	200	0	0
-14.4329996	6.84320021	1.42400002	200	0	0
-14.427	6.84310007	1.60099995	200	0	0
-14.4280005	6.84310007	1.65100002	200	0	0
-14.4390001	6.84310007	1.70099998	200	0	0
-14.4169998	6.84310007	1.67700005	200	0	0
-14.4399996	6.84320021	1.57500005	200	0	0
-14.4359999	6.84320021	1.54999995	200	0	0
-14.448	6.84320021	1.60000002	200	0	0
-14.4069996	6.84049988	-0.449999988	200	0	0
-14.4139996	6.84049988	-0.425000012	200	0	0
-14.4020004	6.84049988	-0.474999994	200	0	0
-14.4160004	6.84130001	-0.222000003	200	0	0
-14.4119997	6.84130001	-0.194999993	200	0	0
-14.4060001	6.8416996	0.061999999	200	0	0
-14.4020004	6.8416996	0.0890000015	200	0	0
-14.4110003	6.8416996	0.00999999978	200	0	0
-14.4060001	6.8416996	0.0359999985	200	0	0
-14.4139996	6.84179974	0.136000007	200	0	0
-14.4040003	6.84179974	0.163000003	200	0	0
-14.4130001	6.8416996	0.137999997	200	0	0
-14.4250002	6.84150076	-0.0960000008	200	0	0
-14.4219999	6.84150076	-0.0700000003	200	0	0
-14.3999996	6.84150076	-0.118000001	200	0	0
-14.4130001	6.84159994	-0.119999997	200	0	0
-14.4090004	6.84159994	-0.0680000037	200	0	0
-14.4069996	6.84159994	-0.0930000022	200	0	0
-14.4040003	6.84159994	-0.0410000011	200	0	0
-14.4040003	6.84189987	0.136999995	200	0	0
-14.3959999	6.84189987	0.189999998	200	0	0
-14.4040003	6.84179974	0.215000004	200	0	0
-14.3979998	6.84189987	0.164000005	200	0	0
-14.4060001	6.84179974	0.0850000009	200	0	0
-14.427	6.83789968	-0.998000026	200	0	0
-14.4180002	6.83789968	-1.023	200	0	0
-14.4320002	6.83780098	-1.02600002	200	0	0
-14.4189997	6.83799982	-0.970000029	200	0	0
-14.4300003	6.83799982	-1.02600002	200	0	0
-14.4320002	6.83799982	-1	200	0	0
-14.4309998	6.83869982	-0.894999981	200	0	0
-14.4119997	6.83849955	-0.944000006	200	0	0
-14.4200001	6.83820009	-0.970000029	200	0	0
-14.4460001	6.83859968	-0.898999989	200	0	0
-14.4259996	6.83840084	-0.947000027	200	0	0
-14.4280005	6.83809996	-0.972000003	200	0	0
-14.4300003	6.83830023	-0.948000014	200	0	0
-14.4420004	6.83820009	-0.949000001	200	0	0
-14.434	6.83809996	-1	200	0	0
-14.4320002	6.83820009	-1	200	0	0
-14.4180002	6.83830023	-0.972000003	200	0	0
-14.4469995	6.83879995	-0.875	200	0	0
-14.4420004	6.83890009	-0.82099998	200	0	0
-14.4280005	6.83920002	-0.76700002	200	0	0
-14.4359999	6.83930016	-0.742999971	200	0	0
-14.4200001	6.83930016	-0.713	200	0	0
-14.4320002	6.83920002	-0.741999984	200	0	0
-14.4239998	6.83939981	-0.74000001	200	0	0
-14.4090004	6.83949995	-0.709999979	200	0	0
-14.4200001	6.83939981	-0.713	200	0	0
-14.4160004	6.84000015	-0.609000027	200	0	0
-14.4280005	6.83990002	-0.638000011	200	0	0
-14.4309998	6.83990002	-0.611999989	200	0	0
-14.3979998	6.84010029	-0.578999996	200	0	0
-14.3990002	6.84030104	-0.552999973	200	0	0
-14.4110003	6.84049988	-0.503000021	200	0	0
-14.415	6.84070015	-0.372999996	200	0	0
-14.3940001	6.8409996	-0.319000006	200	0	0
-14.4169998	6.8409009	-0.349999994	200	0	0
-14.4119997	6.84080029	-0.349000007	200	0	0
-14.3999996	6.8409009	-0.319999993	200	0	0
-14.4029999	6.84070015	-0.344999999	200	0	0
-14.4099998	6.84140015	-0.197999999	200	0	0
-14.3999996	6.84080029	-0.372999996	200	0	0
-14.4169998	6.8409996	-0.349999994	200	0	0
-14.3999996	6.84109974	-0.319999993	200	0	0
-14.3789997	6.84119987	-0.293000013	200	0	0
-14.3920002	6.84200001	0.268000007	200	0	0
-14.4110003	6.84229994	0.518999994	200	0	0
-14.401	6.84240007	0.597000003	200	0	0
-14.4090004	6.8421998	0.469999999	200	0	0
-14.3929996	6.84240007	0.521000028	200	0	0
-14.4040003	6.84259987	0.721000016	200	0	0
-14.3990002	6.84250021	0.723999977	200	0	0
-14.4099998	6.84259987	0.694999993	200	0	0
-14.3990002	6.84259987	0.671000004	200	0	0
-14.415	6.84250021	0.595000029	200	0	0
-14.408	6.84259987	0.643999994	200	0	0
-14.3959999	6.84250021	0.648000002	200	0	0
-14.4230003	6.84229994	0.465999991	200	0	0
-14.4110003	6.84250021	0.518999994	200	0	0
-14.4110003	6.84210014	0.291000009	200	0	0
-14.4130001	6.8421998	0.316000015	200	0	0
-14.4099998	6.8421998	0.342000008	200	0	0
-14.4029999	6.84200001	0.163000003	200	0	0
-14.4060001	6.84200001	0.136999995	200	0	0
-14.3959999	6.84200001	0.216000006	200	0	0
-14.3929996	6.84200001	0.191	200	0	0
-14.4049997	6.84179974	0.0599999987	200	0	0
-14.4090004	6.84179974	0.0329999998	200	0	0
-14.3929996	6.84189987	0.0879999995	200	0	0
-14.3900003	6.84210014	0.165000007	200	0	0
-14.3920002	6.84210014	0.191	200	0	0
-14.408	6.84210014	0.136999995	200	0	0
-14.4069996	6.8421998	0.264999986	200	0	0
-14.415	6.84240007	0.389999986	200	0	0
-14.4239998	6.84229994	0.388999999	200	0	0
-14.3889999	6.84240007	0.470999986	200	0	0
-14.401	6.84179974	0.00899999961	200	0	0
-14.4020004	6.84189987	0.0340000018	200	0	0
-14.3859997	6.84189987	0.063000001	200	0	0
-14.4020004	6.8416996	-0.0659999996	200	0	0
-14.4040003	6.8416996	-0.0410000011	200	0	0
-14.4069996	6.84179974	-0.0439999998	200	0	0
-14.4099998	6.84189987	0.00700000022	200	0	0
-14.408	6.8416996	-0.0930000022	200	0	0
-14.4040003	6.8416996	-0.119000003	200	0	0
-14.4049997	6.84179974	-0.0700000003	200	0	0
-14.3950005	6.84159994	-0.169	200	0	0
-14.3900003	6.84150076	-0.167999998	200	0	0
-14.4069996	6.84179974	-0.122000001	200	0	0
-14.4040003	6.84179974	-0.0949999988	200	0	0
-14.3929996	6.84150076	-0.219999999	200	0	0
-14.408	6.84150076	-0.196999997	200	0	0
-14.3900003	6.84159994	-0.194000006	200	0	0
-14.4049997	6.8416996	-0.171000004	200	0	0
-14.3979998	6.84150076	-0.246999994	200	0	0
-14.401	6.84159994	-0.247999996	200	0	0
-14.3990002	6.84159994	-0.221000001	200	0	0
-14.4350004	6.83809996	-1.02699995	200	0	0
-14.4049997	6.84280109	0.897000015	200	0	0
-14.4029999	6.8428998	0.97299999	200	0	0
-14.4090004	6.8428998	0.947000027	200	0	0
-14.3979998	6.84299994	1.02400005	200	0	0
-14.427	6.84299994	1.097	200	0	0
-14.4020004	6.84299994	1.04900002	200	0	0
-14.4169998	6.84299994	1.07299995	200	0	0
-14.4090004	6.84310007	1.14699996	200	0	0
-14.4029999	6.84310007	1.17299998	200	0	0
-14.3970003	6.84310007	1.22399998	200	0	0
-14.4029999	6.8428998	0.897000015	200	0	0
-14.4090004	6.84299994	0.921000004	200	0	0
-14.408	6.84299994	0.972000003	200	0	0
-14.4160004	6.84299994	0.94599998	200	0	0
-14.4139996	6.84310007	1.04499996	200	0	0
-14.3970003	6.8428998	0.82099998	200	0	0
-14.4209995	6.84320021	1.34899998	200	0	0
-14.4309998	6.84320021	1.32299995	200	0	0
-14.4180002	6.84320021	1.29799998	200	0	0
-14.4189997	6.84320021	1.14600003	200	0	0
-14.4250002	6.84320021	1.19700003	200	0	0
-14.4169998	6.84320021	1.17200005	200	0	0
-14.401	6.84320021	1.22399998	200	0	0
-14.4090004	6.84320021	1.046	200	0	0
-14.3950005	6.84320021	1.07299995	200	0	0
-14.4189997	6.84320021	1.09599996	200	0	0
-14.4049997	6.84320021	1.02100003	200	0	0
-14.408	6.84310007	0.944000006	200	0	0
-14.415	6.84330034	1.14400005	200	0	0
-14.4040003	6.84330034	1.06900001	200	0	0
-14.415	6.84330034	1.09399998	200	0	0
-14.4040003	6.84320021	0.970000029	200	0	0
-14.401	6.84330034	1.01900005	200	0	0
-14.4020004	6.84340096	1.22099996	200	0	0
-14.4169998	6.84340096	1.14400005	200	0	0
-14.408	6.84340096	1.19500005	200	0	0
-14.4069996	6.84340096	1.16999996	200	0	0
-14.4200001	6.84330034	1.22000003	200	0	0
-14.4209995	6.84330034	1.19400001	200	0	0
-14.4139996	6.84330034	1.347	200	0	0
-14.4239998	6.84330034	1.26999998	200	0	0
-14.4189997	6.84330034	1.32099998	200	0	0
-14.4139996	6.84330034	1.296	200	0	0
-14.4379997	6.84330034	1.39600003	200	0	0
-14.4250002	6.84330034	1.523	200	0	0
-14.4289999	6.84330034	1.54799998	200	0	0
-14.4390001	6.84330034	1.57200003	200	0	0
-14.4370003	6.84320021	1.65100002	200	0	0
-14.4350004	6.84330034	1.59800005	200	0	0
-14.4209995	6.84320021	1.67700005	200	0	0
-14.4289999	6.84330034	1.44700003	200	0	0
-14.4329996	6.84330034	1.421	200	0	0
-14.4510002	6.84330034	1.47000003	200	0	0
-14.4259996	6.84340096	1.39600003	200	0	0
-14.4359999	6.84340096	1.421	200	0	0
-14.4099998	6.84340096	1.44799995	200	0	0
-14.4320002	6.84340096	1.472	200	0	0
-14.4309998	6.84340096	1.52199996	200	0	0
-14.4449997	6.84340096	1.54700005	200	0	0
-14.4200001	6.84340096	1.59899998	200	0	0
-14.4370003	6.84330034	1.67400002	200	0	0
-14.434	6.84330034	1.648	200	0	0
-14.4029999	6.8427	0.568000019	200	0	0
-14.3999996	6.8427	0.593999982	200	0	0
-14.3870001	6.84259987	0.569999993	200	0	0
-14.3940001	6.84259987	0.595000029	200	0	0
-14.4169998	6.84250021	0.467000008	200	0	0
-14.4180002	6.8427	0.514999986	200	0	0
-14.3900003	6.8427	0.54400003	200	0	0
-14.401	6.8427	0.644999981	200	0	0
-14.4169998	6.8427	0.694000006	200	0	0
-14.415	6.84280109	0.717000008	200	0	0
-14.3950005	6.8427	0.722000003	200	0	0
-14.3850002	6.84280109	0.644999981	200	0	0
-14.4250002	6.83930016	-0.765999973	200	0	0
-14.3959999	6.84200001	0.0350000001	200	0	0
-14.3909998	6.84200001	0.061999999	200	0	0
-14.4099998	6.84200001	0.0850000009	200	0	0
-14.3970003	6.84210014	0.0610000007	200	0	0
-14.3970003	6.84210014	0.0869999975	200	0	0
-14.408	6.8421998	0.136999995	200	0	0
-14.3950005	6.8421998	0.189999998	200	0	0
-14.3950005	6.8421998	0.164000005	200	0	0
-14.3929996	6.8421998	0.216000006	200	0	0
-14.4060001	6.84200001	0.00800000038	200	0	0
-14.408	6.84189987	-0.0439999998	200	0	0
-14.3940001	6.84189987	-0.0670000017	200	0	0
-14.3920002	6.84189987	-0.0930000022	200	0	0
-14.3999996	6.8416996	-0.195999995	200	0	0
-14.4139996	6.84189987	-0.123000003	200	0	0
-14.4329996	6.84020042	-0.612999976	200	0	0
-14.427	6.84030104	-0.584999979	200	0	0
-14.427	6.84010029	-0.611000001	200	0	0
-14.4180002	6.84020042	-0.583000004	200	0	0
-14.4029999	6.84060001	-0.449000001	200	0	0
-14.4130001	6.84060001	-0.503000021	200	0	0
-14.3970003	6.84060001	-0.474000007	200	0	0
-14.4049997	6.84060001	-0.423000008	200	0	0
-14.4180002	6.84000015	-0.635999978	200	0	0
-14.4200001	6.83879995	-0.894999981	200	0	0
-14.4180002	6.83890009	-0.867999971	200	0	0
-14.4289999	6.83930016	-0.819999993	200	0	0
-14.4209995	6.83920002	-0.819000006	200	0	0
-14.4350004	6.83939981	-0.768999994	200	0	0
-14.4209995	6.83949995	-0.765999973	200	0	0
-14.427	6.83949995	-0.740999997	200	0	0
-14.4189997	6.83969975	-0.740999997	200	0	0
-14.415	6.83979988	-0.713999987	200	0	0
-14.4160004	6.83979988	-0.688000023	200	0	0
-14.4119997	6.83960009	-0.74000001	200	0	0
-14.4280005	6.83969975	-0.717000008	200	0	0
-14.4219999	6.83969975	-0.68900001	200	0	0
-14.4049997	6.83960009	-0.712000012	200	0	0
-14.4180002	6.83990002	-0.688000023	200	0	0
-14.4200001	6.84010029	-0.635999978	200	0	0
-14.4219999	6.84020042	-0.637000024	200	0	0
-14.4180002	6.84030104	-0.609000027	200	0	0
-14.3999996	6.84039974	-0.578999996	200	0	0
-14.408	6.84039974	-0.555000007	200	0	0
-14.4069996	6.84049988	-0.555000007	200	0	0
-14.3979998	6.84070015	-0.421999991	200	0	0
-14.3909998	6.84070015	-0.47299999	200	0	0
-14.4020004	6.84070015	-0.449000001	200	0	0
-14.4160004	6.83990002	-0.713999987	200	0	0
-14.4209995	6.84000015	-0.68900001	200	0	0
-14.408	6.84030104	-0.634000003	200	0	0
-14.415	6.8409009	-0.375999987	200	0	0
-14.4060001	6.84109974	-0.34799999	200	0	0
-14.4049997	6.84119987	-0.324000001	200	0	0
-14.3929996	6.84259987	0.467000008	200	0	0
-14.4060001	6.84229994	0.289000005	200	0	0
-14.4020004	6.84240007	0.340000004	200	0	0
-14.4180002	6.84229994	0.338	200	0	0
-14.4060001	6.84240007	0.289000005	200	0	0
-14.4110003	6.84240007	0.261999995	200	0	0
-14.3879995	6.84229994	0.188999996	200	0	0
-14.3879995	6.8428998	0.771000028	200	0	0
-14.3950005	6.84299994	0.847000003	200	0	0
-14.4219999	6.8428998	0.716000021	200	0	0
-14.3850002	6.84299994	0.772000015	200	0	0
-14.4119997	6.84310007	0.893000007	200	0	0
-14.4180002	6.84340096	1.296	200	0	0
-14.4280005	6.84340096	1.34599996	200	0	0
-14.4250002	6.84340096	1.32099998	200	0	0
-14.3999996	6.84340096	1.27199996	200	0	0
-14.3850002	6.84280109	0.568000019	200	0	0
-14.4069996	6.84280109	0.591000021	200	0	0
-14.4110003	6.8428998	0.640999973	200	0	0
-14.4049997	6.8428998	0.693000019	200	0	0
-14.3959999	6.84299994	0.66900003	200	0	0
-14.3929996	6.84299994	0.720000029	200	0	0
-14.3929996	6.84299994	0.694000006	200	0	0
-14.3879995	6.84299994	0.643999994	200	0	0
-14.4069996	6.84310007	0.791999996	200	0	0
-14.4029999	6.84310007	0.76700002	200	0	0
-14.4020004	6.84310007	0.843999982	200	0	0
-14.4029999	6.84320021	0.893999994	200	0	0
-14.4040003	6.84320021	0.842999995	200	0	0
-14.4169998	6.84330034	0.940999985	200	0	0
-14.3979998	6.84330034	0.967999995	200	0	0
-14.3979998	6.8427	0.467000008	200	0	0
-14.401	6.84210014	0.0340000018	200	0	0
-14.415	6.8421998	0.0839999989	200	0	0
-14.3920002	6.84229994	0.136999995	200	0	0
-14.3920002	6.84240007	0.187999994	200	0	0
-14.4060001	6.84240007	0.134000003	200	0	0
-14.4029999	6.84240007	0.159999996	200	0	0
-14.3900003	6.84240007	0.214000002	200	0	0
-14.4040003	6.84200001	-0.0430000015	200	0	0
-14.4049997	6.84210014	0.00800000038	200	0	0
-14.4060001	6.8421998	0.0590000004	200	0	0
-14.3920002	6.8421998	0.00999999978	200	0	0
-14.4049997	6.8421998	0.0340000018	200	0	0
-14.4090004	6.84229994	0.0560000017	200	0	0
-14.3870001	6.84229994	0.0860000029	200	0	0
-14.4090004	6.84200001	-0.0700000003	200	0	0
-14.4189997	6.84200001	-0.0979999974	200	0	0
-14.4020004	6.84210014	-0.0689999983	200	0	0
-14.4029999	6.84210014	-0.0430000015	200	0	0
-14.3990002	6.8421998	-0.0430000015	200	0	0
-14.4110003	6.84229994	0.0299999993	200	0	0
-14.4049997	6.84229994	0.00600000005	200	0	0
-14.4040003	6.84240007	0.057	200	0	0
-14.3990002	6.84240007	0.0839999989	200	0	0
-14.3999996	6.8409996	-0.372999996	200	0	0
-14.4029999	6.84080029	-0.451999992	200	0	0
-14.3970003	6.8409996	-0.423999995	200	0	0
-14.4060001	6.84109974	-0.374000013	200	0	0
-14.4020004	6.8409009	-0.425000012	200	0	0
-14.4020004	6.84080029	-0.425000012	200	0	0
-14.3950005	6.84080029	-0.476000011	200	0	0
-14.4090004	6.8409009	-0.453000009	200	0	0
-14.401	6.84109974	-0.425000012	200	0	0
-14.4200001	6.84119987	-0.352999985	200	0	0
-14.415	6.84119987	-0.377999991	200	0	0
-14.3950005	6.8416996	-0.221000001	200	0	0
-14.4040003	6.84179974	-0.199000001	200	0	0
-14.3950005	6.84179974	-0.171000004	200	0	0
-14.4180002	6.84349966	1.14400005	200	0	0
-14.4130001	6.84349966	1.19500005	200	0	0
-14.4069996	6.84349966	1.16999996	200	0	0
-14.4119997	6.84340096	1.01800001	200	0	0
-14.4069996	6.84340096	1.06900001	200	0	0
-14.415	6.84340096	1.04299998	200	0	0
-14.408	6.84349966	1.06900001	200	0	0
-14.4110003	6.84340096	1.09399998	200	0	0
-14.4099998	6.84349966	1.09399998	200	0	0
-14.4099998	6.8435998	1.26900005	200	0	0
-14.408	6.8435998	1.19299996	200	0	0
-14.3990002	6.8435998	1.21899998	200	0	0
-14.4069996	6.84349966	1.27100003	200	0	0
-14.427	6.84349966	1.29499996	200	0	0
-14.4189997	6.84349966	1.32099998	200	0	0
-14.4119997	6.84349966	1.347	200	0	0
-14.4029999	6.84340096	0.967999995	200	0	0
-14.4329996	6.8435998	1.46899998	200	0	0
-14.4259996	6.8435998	1.39400005	200	0	0
-14.4309998	6.8435998	1.44400001	200	0	0
-14.4189997	6.84349966	1.47300005	200	0	0
-14.4209995	6.8435998	1.41900003	200	0	0
-14.4259996	6.84349966	1.39600003	200	0	0
-14.4230003	6.84349966	1.44700003	200	0	0
-14.4209995	6.84349966	1.42200005	200	0	0
-14.4110003	6.8435998	1.29400003	200	0	0
-14.4230003	6.8435998	1.34300005	200	0	0
-14.4119997	6.84369993	1.31900001	200	0	0
-14.4189997	6.84369993	1.34399998	200	0	0
-14.4130001	6.84380007	1.34200001	200	0	0
-14.4049997	6.84380007	1.26600003	200	0	0
-14.4180002	6.84380007	1.31599998	200	0	0
-14.4189997	6.84369993	1.39400005	200	0	0
-14.4250002	6.84369993	1.41900003	200	0	0
-14.4350004	6.84369993	1.46899998	200	0	0
-14.4250002	6.84369993	1.44400001	200	0	0
-14.4379997	6.8435998	1.51900005	200	0	0
-14.4139996	6.84349966	1.523	200	0	0
-14.4189997	6.84349966	1.54799998	200	0	0
-14.4069996	6.84340096	0.941999972	200	0	0
-14.4259996	6.84340096	1.64900005	200	0	0
-14.4399996	6.84330034	1.699	200	0	0
-14.415	6.83830023	-0.998000026	200	0	0
-14.4230003	6.83840084	-0.97299999	200	0	0
-14.4230003	6.83859968	-0.947000027	200	0	0
-14.4280005	6.83820009	-1.02499998	200	0	0
-14.427	6.83830023	-1.028	200	0	0
-14.4160004	6.83840084	-1.02499998	200	0	0
-14.4259996	6.83840084	-1.00100005	200	0	0
-14.4160004	6.83849955	-0.998000026	200	0	0
-14.4130001	6.83849955	-0.971000016	200	0	0
-14.4139996	6.83859968	-0.971000016	200	0	0
-14.4180002	6.83859968	-0.999000013	200	0	0
-14.415	6.83869982	-0.971000016	200	0	0
-14.4209995	6.83869982	-0.94599998	200	0	0
-14.4180002	6.83969975	-0.76700002	200	0	0
-14.4259996	6.83960009	-0.768999994	200	0	0
-14.4180002	6.84039974	-0.610000014	200	0	0
-14.3999996	6.84049988	-0.578999996	200	0	0
-14.4099998	6.83949995	-0.815999985	200	0	0
-14.4259996	6.83979988	-0.768999994	200	0	0
-14.3979998	6.83939981	-0.813000023	200	0	0
-14.4110003	6.83979988	-0.74000001	200	0	0
-14.415	6.83920002	-0.870000005	200	0	0
-14.4289999	6.83930016	-0.847000003	200	0	0
-14.4309998	6.83890009	-0.898000002	200	0	0
-14.4130001	6.83920002	-0.842999995	200	0	0
-14.4329996	6.83869982	-1.00199997	200	0	0
-14.4169998	6.83879995	-0.948000014	200	0	0
-14.4020004	6.84039974	-0.632000029	200	0	0
-14.3990002	6.84049988	-0.605000019	200	0	0
-14.4040003	6.84060001	-0.55400002	200	0	0
-14.4040003	6.8409009	-0.504000008	200	0	0
-14.3999996	6.8409009	-0.476999998	200	0	0
-14.4060001	6.84080029	-0.504999995	200	0	0
-14.4040003	6.84070015	-0.501999974	200	0	0
-14.4029999	6.84070015	-0.55400002	200	0	0
-14.4069996	6.8409996	-0.477999985	200	0	0
-14.3850002	6.84109974	-0.448000014	200	0	0
-14.375	6.8409996	-0.44600001	200	0	0
-14.3900003	6.84010029	-0.681999981	200	0	0
-14.3990002	6.84010029	-0.709999979	200	0	0
-14.4169998	6.84000015	-0.740999997	200	0	0
-14.4189997	6.83990002	-0.740999997	200	0	0
-14.4060001	6.84000015	-0.712000012	200	0	0
-14.4090004	6.84060001	-0.606999993	200	0	0
-14.4110003	6.84060001	-0.582000017	200	0	0
-14.3879995	6.84070015	-0.577000022	200	0	0
-14.3950005	6.8416996	-0.246999994	200	0	0
-14.401	6.84179974	-0.224000007	200	0	0
-14.4020004	6.84189987	-0.199000001	200	0	0
-14.3950005	6.84189987	-0.171000004	200	0	0
-14.3879995	6.84200001	-0.118000001	200	0	0
-14.4169998	6.83969975	-0.819999993	200	0	0
-14.4230003	6.83939981	-0.845000029	200	0	0
-14.408	6.83960009	-0.818000019	200	0	0
-14.4130001	6.84000015	-0.765999973	200	0	0
-14.4180002	6.83990002	-0.76700002	200	0	0
-14.4029999	6.84010029	-0.737999976	200	0	0
-14.4320002	6.84030104	-0.691999972	200	0	0
-14.3959999	6.84080029	-0.58099997	200	0	0
-14.4110003	6.84080029	-0.558000028	200	0	0
-14.3979998	6.8409009	-0.555000007	200	0	0
-14.3990002	6.8409996	-0.503000021	200	0	0
-14.3780003	6.84109974	-0.47299999	200	0	0
-14.3970003	6.84119987	-0.426999986	200	0	0
-14.3909998	6.84130001	-0.372999996	200	0	0
-14.3950005	6.84140015	-0.377000004	200	0	0
-14.3909998	6.84210014	-0.119000003	200	0	0
-14.3850002	6.84210014	-0.0920000002	200	0	0
-14.3950005	6.8421998	-0.0939999968	200	0	0
-14.4020004	6.8421998	-0.0689999983	200	0	0
-14.3909998	6.84200001	-0.171000004	200	0	0
-14.401	6.8421998	-0.120999999	200	0	0
-14.4160004	6.83890009	-0.947000027	200	0	0
-14.408	6.83920002	-0.894999981	200	0	0
-14.4110003	6.83930016	-0.869000018	200	0	0
-14.4219999	6.83909988	-0.898000002	200	0	0
-14.4169998	6.83939981	-0.870999992	200	0	0
-14.4110003	6.83849955	-1.02400005	200	0	0
-14.4180002	6.83869982	-1.02499998	200	0	0
-14.427	6.83859968	-1.02699995	200	0	0
-14.4280005	6.83879995	-1.00399995	200	0	0
-14.4259996	6.83890009	-1.00300002	200	0	0
-14.4200001	6.83890009	-0.975000024	200	0	0
-14.4130001	6.83920002	-0.949000001	200	0	0
-14.4119997	6.83930016	-0.896000028	200	0	0
-14.415	6.83939981	-0.897000015	200	0	0
-14.415	6.83949995	-0.870000005	200	0	0
-14.408	6.83930016	-0.948000014	200	0	0
-14.4169998	6.83949995	-0.897000015	200	0	0
-14.4130001	6.83960009	-0.898999989	200	0	0
-14.4180002	6.83960009	-0.847000003	200	0	0
-14.4069996	6.83960009	-0.870999992	200	0	0
-14.3990002	6.83969975	-0.869000018	200	0	0
-14.3970003	6.83969975	-0.842000008	200	0	0
-14.4099998	6.83990002	-0.818000019	200	0	0
-14.4200001	6.83979988	-0.82099998	200	0	0
-14.382	6.84119987	-0.476000011	200	0	0
-14.3970003	6.84150076	-0.351000011	200	0	0
-14.3999996	6.84150076	-0.377999991	200	0	0
-14.3900003	6.84150076	-0.298000008	200	0	0
-14.3920002	6.84150076	-0.324000001	200	0	0
-14.3800001	6.84109974	-0.499000013	200	0	0
-14.3909998	6.84159994	-0.324000001	200	0	0
-14.401	6.84159994	-0.300000012	200	0	0
-14.3990002	6.84189987	-0.224000007	200	0	0
-14.401	6.84189987	-0.25	200	0	0
-14.3950005	6.8416996	-0.298999995	200	0	0
-14.3959999	6.84179974	-0.248999998	200	0	0
-14.3909998	6.84200001	-0.196999997	200	0	0
-14.4040003	6.84229994	-0.0719999969	200	0	0
-14.3990002	6.84229994	-0.0450000018	200	0	0
-14.3979998	6.84240007	0.0320000015	200	0	0
-14.3959999	6.84240007	0.00700000022	200	0	0
-14.4029999	6.84250021	0.135000005	200	0	0
-14.408	6.84259987	0.157000005	200	0	0
-14.3809996	6.84250021	0.215000004	200	0	0
-14.3940001	6.84250021	0.162	200	0	0
-14.3940001	6.84250021	0.187999994	200	0	0
-14.3870001	6.84250021	0.291999996	200	0	0
-14.3929996	6.84250021	0.264999986	200	0	0
-14.3889999	6.84259987	0.289000005	200	0	0
-14.4180002	6.84250021	0.338	200	0	0
-14.3970003	6.8427	0.287	200	0	0
-14.4090004	6.84259987	0.25999999	200	0	0
-14.408	6.8427	0.209000006	200	0	0
-14.4020004	6.84280109	0.257999986	200	0	0
-14.4049997	6.84259987	0.131999999	200	0	0
-14.3940001	6.84229994	-0.122000001	200	0	0
-14.3970003	6.84229994	-0.0970000029	200	0	0
-14.3999996	6.84250021	0.00600000005	200	0	0
-14.3909998	6.84250021	0.0590000004	200	0	0
-14.3970003	6.84250021	0.0329999998	200	0	0
-14.401	6.84240007	-0.0719999969	200	0	0
-14.3909998	6.84240007	-0.0439999998	200	0	0
-14.3979998	6.84200001	-0.224000007	200	0	0
-14.3859997	6.84210014	-0.195999995	200	0	0
-14.3859997	6.84210014	-0.170000002	200	0	0
-14.3999996	6.84200001	-0.25	200	0	0
-14.3950005	6.84210014	-0.224000007	200	0	0
-14.4029999	6.8421998	-0.199000001	200	0	0
-14.3900003	6.8421998	-0.171000004	200	0	0
-14.401	6.84159994	-0.351999998	200	0	0
-14.3999996	6.8416996	-0.351999998	200	0	0
-14.3979998	6.84179974	-0.328000009	200	0	0
-14.3979998	6.84179974	-0.301999986	200	0	0
-14.3889999	6.8416996	-0.324000001	200	0	0
-14.4060001	6.84159994	-0.379000008	200	0	0
-14.3900003	6.84189987	-0.300000012	200	0	0
-14.3950005	6.84200001	-0.300999999	200	0	0
-14.3909998	6.84210014	-0.248999998	200	0	0
-14.3959999	6.8409996	-0.555000007	200	0	0
-14.4160004	6.84060001	-0.63499999	200	0	0
-14.4090004	6.84030104	-0.739000022	200	0	0
-14.4060001	6.84039974	-0.712000012	200	0	0
-14.4289999	6.84039974	-0.690999985	200	0	0
-14.408	6.84020042	-0.739000022	200	0	0
-14.4029999	6.84030104	-0.712000012	200	0	0
-14.415	6.84020042	-0.713999987	200	0	0
-14.3870001	6.84060001	-0.681999981	200	0	0
-14.4250002	6.84070015	-0.637000024	200	0	0
-14.3950005	6.84049988	-0.683000028	200	0	0
-14.4029999	6.84080029	-0.609000027	200	0	0
-14.4189997	6.8409009	-0.611999989	200	0	0
-14.4020004	6.84080029	-0.63499999	200	0	0
-14.4020004	6.8409996	-0.609000027	200	0	0
-14.4029999	6.84109974	-0.583000004	200	0	0
-14.4139996	6.84109974	-0.559000015	200	0	0
-14.4090004	6.84320021	0.765999973	200	0	0
-14.3830004	6.84310007	0.693000019	200	0	0
-14.3940001	6.84310007	0.717000008	200	0	0
-14.4139996	6.84340096	0.788999975	200	0	0
-14.4060001	6.84320021	0.716000021	200	0	0
-14.4099998	6.84340096	0.763999999	200	0	0
-14.3909998	6.84330034	0.765999973	200	0	0
-14.4099998	6.84330034	0.788999975	200	0	0
-14.3970003	6.84340096	0.815999985	200	0	0
-14.401	6.84330034	0.841000021	200	0	0
-14.4020004	6.84349966	0.841000021	200	0	0
-14.3879995	6.8435998	0.916000009	200	0	0
-14.3859997	6.84349966	0.970000029	200	0	0
-14.4219999	6.8435998	1.14100003	200	0	0
-14.4110003	6.8435998	1.06599998	200	0	0
-14.3970003	6.8435998	1.09300005	200	0	0
-14.3859997	6.84349966	1.01999998	200	0	0
-14.4049997	6.84369993	1.01600003	200	0	0
-14.3990002	6.84369993	1.09200001	200	0	0
-14.3999996	6.84310007	0.639999986	200	0	0
-14.3879995	6.84320021	0.666999996	200	0	0
-14.4099998	6.84320021	0.689999998	200	0	0
-14.3769999	6.84330034	0.717000008	200	0	0
-14.3839998	6.8435998	0.763999999	200	0	0
-14.3889999	6.84340096	0.714999974	200	0	0
-14.382	6.84349966	0.76700002	200	0	0
-14.4049997	6.84320021	0.563000023	200	0	0
-14.3909998	6.84320021	0.589999974	200	0	0
-14.3760004	6.84310007	0.592000008	200	0	0
-14.4169998	6.84280109	0.537999988	200	0	0
-14.3889999	6.84299994	0.566999972	200	0	0
-14.3940001	6.84299994	0.592000008	200	0	0
-14.4069996	6.8428998	0.564999998	200	0	0
-14.4020004	6.84330034	0.637000024	200	0	0
-14.3879995	6.84330034	0.665000021	200	0	0
-14.415	6.84299994	0.513000011	200	0	0
-14.4189997	6.8428998	0.512000024	200	0	0
-14.4200001	6.84280109	0.460999995	200	0	0
-14.4139996	6.8427	0.335999995	200	0	0
-14.427	6.84280109	0.382999986	200	0	0
-14.4320002	6.8427	0.38499999	200	0	0
-14.4139996	6.8428998	0.462000012	200	0	0
-14.4169998	6.8428998	0.333000004	200	0	0
-14.4130001	6.84299994	0.411000013	200	0	0
-14.4180002	6.84280109	0.333000004	200	0	0
-14.4139996	6.84299994	0.38499999	200	0	0
-14.4110003	6.8428998	0.411000013	200	0	0
-14.3999996	6.8428998	0.386999995	200	0	0
-14.3979998	6.84299994	0.437999994	200	0	0
-14.3940001	6.84299994	0.465000004	200	0	0
-14.4069996	6.84320021	0.537	200	0	0
-14.4230003	6.84349966	1.57299995	200	0	0
-14.4280005	6.84349966	1.59800005	200	0	0
-14.4230003	6.8435998	1.54499996	200	0	0
-14.427	6.8435998	1.57000005	200	0	0
-14.4370003	6.8435998	1.64600003	200	0	0
-14.408	6.8435998	1.597	200	0	0
-14.4180002	6.84349966	1.64900005	200	0	0
-14.4230003	6.84349966	1.699	200	0	0
-14.4189997	6.84349966	1.67400002	200	0	0
-14.4169998	6.84369993	1.546	200	0	0
-14.4239998	6.84369993	1.51999998	200	0	0
-14.4189997	6.84369993	1.59599996	200	0	0
-14.4219999	6.84369993	1.57099998	200	0	0
-14.415	6.84369993	1.67200005	200	0	0
-14.4420004	6.8435998	1.69599998	200	0	0
-14.4390001	6.84369993	1.64499998	200	0	0
-14.4200001	6.8435998	1.67200005	200	0	0
-14.434	6.84380007	1.59300005	200	0	0
-14.415	6.84380007	1.51800001	200	0	0
-14.4139996	6.84380007	1.56900001	200	0	0
-14.4110003	6.84380007	1.54400003	200	0	0
-14.4250002	6.84380007	1.64400005	200	0	0
-14.4160004	6.84380007	1.66900003	200	0	0
-14.4110003	6.84380007	1.39199996	200	0	0
-14.4250002	6.84380007	1.41700006	200	0	0
-14.408	6.84380007	1.46800005	200	0	0
-14.4110003	6.84369993	1.16700006	200	0	0
-14.4040003	6.84369993	1.21899998	200	0	0
-14.4110003	6.8435998	1.16700006	200	0	0
-14.427	6.8439002	1.46700001	200	0	0
-14.4309998	6.8439002	1.39100003	200	0	0
-14.4250002	6.8439002	1.41700006	200	0	0
-14.408	6.84380007	1.16499996	200	0	0
-14.408	6.84380007	1.21599996	200	0	0
-14.4090004	6.84380007	1.19000006	200	0	0
-14.415	6.84380007	1.13900006	200	0	0
-14.401	6.84369993	1.14300001	200	0	0
-14.3979998	6.8439002	1.29200006	200	0	0
-14.4110003	6.8439002	1.34200001	200	0	0
-14.415	6.8439002	1.31599998	200	0	0
-14.4069996	6.8439002	1.21599996	200	0	0
-14.4209995	6.84400082	1.28999996	200	0	0
-14.4239998	6.84369993	0.963	200	0	0
-14.4040003	6.84380007	1.01300001	200	0	0
-14.3990002	6.84380007	1.09000003	200	0	0
-14.3999996	6.8439002	1.13999999	200	0	0
-14.3959999	6.84340096	0.68900001	200	0	0
-14.4250002	6.8439002	1.51800001	200	0	0
-14.4209995	6.8439002	1.54299998	200	0	0
-14.4180002	6.8439002	1.59399998	200	0	0
-14.4309998	6.8439002	1.69400001	200	0	0
-14.4230003	6.8439002	1.66900003	200	0	0
-14.4180002	6.84400082	1.46700001	200	0	0
-14.4160004	6.84400082	1.54299998	200	0	0
-14.4110003	6.84400082	1.59399998	200	0	0
-14.4300003	6.84400082	1.56799996	200	0	0
-14.408	6.84409952	1.46800005	200	0	0
-14.4169998	6.84409952	1.39199996	200	0	0
-14.4160004	6.84400082	1.64400005	200	0	0
-14.3999996	6.84400082	1.69500005	200	0	0
-14.4259996	6.84400082	1.71899998	200	0	0
-14.3830004	6.84140015	-0.426999986	200	0	0
-14.3959999	6.84140015	-0.481000006	200	0	0
-14.3760004	6.84140015	-0.503000021	200	0	0
-14.3889999	6.8421998	-0.247999996	200	0	0
-14.3979998	6.8421998	-0.224000007	200	0	0
-14.3999996	6.84259987	0.0299999993	200	0	0
-14.3940001	6.84259987	0.0820000023	200	0	0
-14.3940001	6.84259987	0.0560000017	200	0	0
-14.3920002	6.84250021	0.0850000009	200	0	0
-14.4060001	6.84250021	-0.0460000001	200	0	0
-14.3830004	6.84259987	0.00700000022	200	0	0
-14.3830004	6.8427	0.160999998	200	0	0
-14.3760004	6.8427	0.136999995	200	0	0
-14.3839998	6.8427	0.187000006	200	0	0
-14.3940001	6.84240007	-0.122000001	200	0	0
-14.3970003	6.84240007	-0.0970000029	200	0	0
-14.3839998	6.84229994	-0.172000006	200	0	0
-14.3979998	6.84240007	-0.174999997	200	0	0
-14.3920002	6.84250021	-0.0960000008	200	0	0
-14.3920002	6.84250021	-0.122000001	200	0	0
-14.3739996	6.84250021	-0.0670000017	200	0	0
-14.4069996	6.8427	0.0799999982	200	0	0
-14.3920002	6.84280109	0.157000005	200	0	0
-14.3990002	6.84280109	0.129999995	200	0	0
-14.4029999	6.84280109	0.207000002	200	0	0
-14.3950005	6.84280109	0.181999996	200	0	0
-14.3900003	6.8427	0.057	200	0	0
-14.4200001	6.83879995	-1.028	200	0	0
-14.4200001	6.83890009	-1.028	200	0	0
-14.4099998	6.83949995	-0.948000014	200	0	0
-14.4049997	6.83920002	-0.973999977	200	0	0
-14.4139996	6.83939981	-0.949000001	200	0	0
-14.4040003	6.83939981	-0.973999977	200	0	0
-14.4099998	6.83920002	-1.00199997	200	0	0
-14.4119997	6.83930016	-0.975000024	200	0	0
-14.3970003	6.83909988	-0.999000013	200	0	0
-14.4189997	6.84000015	-0.819999993	200	0	0
-14.4219999	6.84020042	-0.768999994	200	0	0
-14.4069996	6.84030104	-0.764999986	200	0	0
-14.4189997	6.84039974	-0.740999997	200	0	0
-14.4200001	6.8409009	-0.638999999	200	0	0
-14.4090004	6.84049988	-0.713	200	0	0
-14.3950005	6.84150076	-0.42899999	200	0	0
-14.3889999	6.84189987	-0.351999998	200	0	0
-14.4040003	6.8416996	-0.379000008	200	0	0
-14.3859997	6.84189987	-0.326000005	200	0	0
-14.401	6.84179974	-0.354999989	200	0	0
-14.3959999	6.84179974	-0.379999995	200	0	0
-14.3929996	6.84229994	-0.225999996	200	0	0
-14.3909998	6.84229994	-0.199000001	200	0	0
-14.3850002	6.84159994	-0.426999986	200	0	0
-14.3789997	6.84189987	-0.375999987	200	0	0
-14.3979998	6.84200001	-0.354000002	200	0	0
-14.3900003	6.84200001	-0.326000005	200	0	0
-14.3809996	6.84210014	-0.324999988	200	0	0
-14.3879995	6.84210014	-0.300000012	200	0	0
-14.4020004	6.8428998	0.257999986	200	0	0
-14.3999996	6.84310007	0.460999995	200	0	0
-14.3990002	6.84330034	0.587000012	200	0	0
-14.3990002	6.84310007	0.43599999	200	0	0
-14.4239998	6.84330034	0.507000029	200	0	0
-14.408	6.84330034	0.533999979	200	0	0
-14.3730001	6.84349966	0.717000008	200	0	0
-14.368	6.84349966	0.691999972	200	0	0
-14.3990002	6.84340096	0.587000012	200	0	0
-14.4069996	6.84320021	0.435000002	200	0	0
-14.4239998	6.84320021	0.458000004	200	0	0
-14.3859997	6.84340096	0.512000024	200	0	0
-14.3789997	6.84299994	0.261999995	200	0	0
-14.3999996	6.84299994	0.310000002	200	0	0
-14.4040003	6.84299994	0.284000009	200	0	0
-14.3900003	6.84310007	0.308999985	200	0	0
-14.4040003	6.84299994	0.335000008	200	0	0
-14.4090004	6.84310007	0.382999986	200	0	0
-14.3870001	6.8428998	0.131999999	200	0	0
-14.3859997	6.8428998	0.184	200	0	0
-14.3830004	6.8428998	0.158999994	200	0	0
-14.4029999	6.8428998	0.207000002	200	0	0
-14.382	6.8427	0.0329999998	200	0	0
-14.3870001	6.8427	0.00600000005	200	0	0
-14.3760004	6.84280109	0.057	200	0	0
-14.3760004	6.84280109	0.0829999968	200	0	0
-14.3889999	6.84299994	0.131999999	200	0	0
-14.3719997	6.84299994	0.211999997	200	0	0
-14.3999996	6.84310007	0.256000012	200	0	0
-14.408	6.84320021	0.331999987	200	0	0
-14.4119997	6.84330034	0.430999994	200	0	0
-14.4099998	6.84330034	0.405999988	200	0	0
-14.4069996	6.84330034	0.381000012	200	0	0
-14.427	6.84320021	0.405999988	200	0	0
-14.4040003	6.84320021	0.384000003	200	0	0
-14.3999996	6.84310007	0.409999996	200	0	0
-14.3940001	6.84330034	0.460000008	200	0	0
-14.3950005	6.84259987	-0.0469999984	200	0	0
-14.3970003	6.84280109	0.00200000009	200	0	0
-14.3879995	6.84280109	0.0289999992	200	0	0
