-3.85599995	6.75010014	2.17400002	200	0	0
-3.86199999	6.75010014	2.12599993	200	0	0
-3.85100007	6.75010014	2.15400004	200	0	0
-3.85800004	6.75010014	2.16000009	200	0	0
-3.86899996	6.74989986	2.09100008	200	0	0
-3.85599995	6.74989986	2.20700002	200	0	0
-3.86100006	6.75010014	2.1400001	200	0	0
-3.86100006	6.75	2.19300008	200	0	0
-3.8599999	6.75010014	2.14700007	200	0	0
-3.86199999	6.75	2.18600011	200	0	0
-3.85400009	6.75	2.18000007	200	0	0
-3.852	6.74979973	2.09200001	200	0	0
-3.86199999	6.75	2.125	200	0	0
-3.85800004	6.75	2.1730001	200	0	0
-3.85800004	6.75	2.14599991	200	0	0
-3.85500002	6.74989986	2.18700004	200	0	0
-3.86299992	6.75	2.15199995	200	0	0
-3.852	6.74979973	2.10599995	200	0	0
-3.84899998	6.74989986	2.17400002	200	0	0
-3.8440001	6.74919987	2.07999992	200	0	0
-3.86199999	6.74989986	2.18000007	200	0	0
-3.85899997	6.74979973	2.19300008	200	0	0
-3.85299993	6.74979973	2.11299992	200	0	0
-3.8440001	6.74919987	2.08599997	200	0	0
-3.85899997	6.74989986	2.16000009	200	0	0
-3.85899997	6.74979973	2.18700004	200	0	0
-3.85899997	6.74979973	2.18000007	200	0	0
-3.86899996	6.74979973	2.11800003	200	0	0
-3.85599995	6.74979973	2.12599993	200	0	0
-3.86299992	6.74979973	2.1730001	200	0	0
-3.85400009	6.74979973	2.16000009	200	0	0
-3.85299993	6.74979973	2.14700007	200	0	0
-3.85599995	6.74979973	2.13899994	200	0	0
-3.85400009	6.74979973	2.15300012	200	0	0
-3.85700011	6.74919987	2.14599991	200	0	0
-3.87800002	6.74919987	2.15100002	200	0	0
-3.85700011	6.75020027	2.31599998	200	0	0
-3.8670001	6.75	2.3210001	200	0	0
-3.86199999	6.75030088	2.30900002	200	0	0
-3.85899997	6.75020027	2.1400001	200	0	0
-3.86400008	6.75039959	2.15300012	200	0	0
-3.86400008	6.75030088	2.14599991	200	0	0
-3.85700011	6.74989986	2.32200003	200	0	0
-3.86199999	6.74979973	2.32200003	200	0	0
-3.86500001	6.75010014	2.31500006	200	0	0
-3.85299993	6.75039959	2.296	200	0	0
-3.85899997	6.75020027	2.30900002	200	0	0
-3.85899997	6.75	2.31500006	200	0	0
-3.85700011	6.75039959	2.16000009	200	0	0
-3.8599999	6.75020027	2.14700007	200	0	0
-3.86100006	6.75030088	2.15300012	200	0	0
-3.86899996	6.75049973	2.1730001	200	0	0
-3.875	6.74979973	2.31399989	200	0	0
-3.85500002	6.74989986	2.31500006	200	0	0
-3.87100005	6.75030088	2.15899992	200	0	0
-3.85400009	6.75030088	2.296	200	0	0
-3.86100006	6.75020027	2.15300012	200	0	0
-3.85899997	6.75	2.30800009	200	0	0
-3.85599995	6.74989986	2.30800009	200	0	0
-3.85400009	6.75039959	2.28200006	200	0	0
-3.86500001	6.75039959	2.1730001	200	0	0
-3.8599999	6.74979973	2.30800009	200	0	0
-3.85400009	6.75020027	2.296	200	0	0
-3.85299993	6.75030088	2.28900003	200	0	0
-3.86100006	6.75020027	2.16000009	200	0	0
-3.87100005	6.75039959	2.18000007	200	0	0
-3.85500002	6.75039959	2.2750001	200	0	0
-3.86199999	6.75010014	2.29500008	200	0	0
-3.8499999	6.75030088	2.28200006	200	0	0
-3.85400009	6.75020027	2.28900003	200	0	0
-3.85800004	6.75030088	2.17400002	200	0	0
-3.87299991	6.75039959	2.19300008	200	0	0
-3.85100007	6.75	2.29500008	200	0	0
-3.84800005	6.75030088	2.27600002	200	0	0
-3.86599994	6.75039959	2.26099992	200	0	0
-3.86299992	6.75030088	2.18000007	200	0	0
-3.8599999	6.75010014	2.28900003	200	0	0
-3.85700011	6.74989986	2.29500008	200	0	0
-3.85299993	6.74979973	2.29500008	200	0	0
-3.86400008	6.75039959	2.25500011	200	0	0
-3.86199999	6.75020027	2.17400002	200	0	0
-3.85100007	6.75	2.28800011	200	0	0
-3.86400008	6.75039959	2.24799991	200	0	0
-3.85599995	6.75030088	2.18799996	200	0	0
-3.85899997	6.75039959	2.20799994	200	0	0
-3.85800004	6.75010014	2.28200006	200	0	0
-3.85800004	6.75020027	2.2750001	200	0	0
-3.8670001	6.75039959	2.21399999	200	0	0
-3.8599999	6.74989986	2.28800011	200	0	0
-3.86199999	6.75039959	2.24099994	200	0	0
-3.8599999	6.74979973	2.28800011	200	0	0
-3.85700011	6.75030088	2.26200008	200	0	0
-3.85800004	6.75020027	2.18099999	200	0	0
-3.86599994	6.75039959	2.22799993	200	0	0
-3.86100006	6.75030088	2.19400001	200	0	0
-3.86299992	6.75030088	2.25500011	200	0	0
-3.8599999	6.75	2.2809999	200	0	0
-3.85800004	6.75010014	2.2750001	200	0	0
-3.85800004	6.75020027	2.18700004	200	0	0
-3.86599994	6.75030088	2.24799991	200	0	0
-3.8599999	6.74989986	2.2809999	200	0	0
-3.85400009	6.74979973	2.2809999	200	0	0
-3.85899997	6.75030088	2.20799994	200	0	0
-3.8599999	6.75020027	2.26200008	200	0	0
-3.86599994	6.75030088	2.24099994	200	0	0
-3.86100006	6.75020027	2.19400001	200	0	0
-3.85500002	6.75030088	2.21499991	200	0	0
-3.8599999	6.75	2.27399993	200	0	0
-3.85700011	6.75030088	2.22099996	200	0	0
-3.85899997	6.75030088	2.22799993	200	0	0
-3.85500002	6.75010014	2.18799996	200	0	0
-3.85800004	6.74989986	2.2750001	200	0	0
-3.85500002	6.75020027	2.25500011	200	0	0
-3.85500002	6.74979973	2.2750001	200	0	0
-3.86599994	6.75010014	2.26099992	200	0	0
-3.86100006	6.75020027	2.24799991	200	0	0
-3.86100006	6.75020027	2.20799994	200	0	0
-3.85100007	6.75010014	2.19499993	200	0	0
-3.86299992	6.75020027	2.24099994	200	0	0
-3.86100006	6.75020027	2.21399999	200	0	0
-3.86400008	6.75020027	2.22099996	200	0	0
-3.85800004	6.75010014	2.25500011	200	0	0
-3.86100006	6.75020027	2.22799993	200	0	0
-3.85899997	6.75	2.26099992	200	0	0
-3.875	6.74979973	2.25999999	200	0	0
-3.85800004	6.75010014	2.24799991	200	0	0
-3.85500002	6.74989986	2.26099992	200	0	0
-3.86500001	6.75	2.25399995	200	0	0
-3.86199999	6.75010014	2.24099994	200	0	0
-3.86199999	6.75010014	2.21399999	200	0	0
-3.86100006	6.75010014	2.22799993	200	0	0
-3.86100006	6.74989986	2.25399995	200	0	0
-3.86299992	6.75	2.24699998	200	0	0
-3.86299992	6.74979973	2.25399995	200	0	0
-3.86100006	6.75	2.24099994	200	0	0
-3.86100006	6.75	2.21399999	200	0	0
-3.85299993	6.74989986	2.24799991	200	0	0
-3.86400008	6.75	2.22000003	200	0	0
-3.86500001	6.75	2.227	200	0	0
-3.85100007	6.74989986	2.24099994	200	0	0
-3.85500002	6.74979973	2.24099994	200	0	0
-3.85100007	6.74989986	2.22099996	200	0	0
-3.85100007	6.75039959	2.01900005	200	0	0
-3.86800003	6.75099993	2.15300012	200	0	0
-3.85800004	6.74989986	2.01699996	200	0	0
-3.8599999	6.75020027	2.01699996	200	0	0
-3.86199999	6.75010014	2.01699996	200	0	0
-3.86599994	6.75099993	2.14599991	200	0	0
-3.88100004	6.75099993	2.13800001	200	0	0
-3.86899996	6.75099993	2.08500004	200	0	0
-3.85500002	6.74979973	2.02399993	200	0	0
-3.875	6.74989986	2.02200007	200	0	0
-3.85500002	6.75039959	2.0250001	200	0	0
-3.86299992	6.75099993	2.09200001	200	0	0
-3.8670001	6.75099993	2.12599993	200	0	0
-3.86500001	6.75099993	2.10599995	200	0	0
-3.86199999	6.75099993	2.11299992	200	0	0
-3.86400008	6.75020027	2.02399993	200	0	0
-3.86400008	6.75090075	2.15300012	200	0	0
-3.8599999	6.74979973	2.03699994	200	0	0
-3.875	6.74989986	2.03500009	200	0	0
-3.86500001	6.75090075	2.10599995	200	0	0
-3.86400008	6.75030088	2.03699994	200	0	0
-3.85100007	6.74979973	2.04500008	200	0	0
-3.8599999	6.75039959	2.04500008	200	0	0
-3.86999989	6.75030088	2.04399991	200	0	0
-3.86999989	6.75039959	2.04999995	200	0	0
-3.85800004	6.74979973	2.05100012	200	0	0
-3.85899997	6.75020027	2.04500008	200	0	0
-3.8499999	6.74989986	2.05200005	200	0	0
-3.8599999	6.75030088	2.05200005	200	0	0
-3.86999989	6.75039959	2.05699992	200	0	0
-3.85400009	6.74979973	2.05800009	200	0	0
-3.85800004	6.75020027	2.05200005	200	0	0
-3.85599995	6.75030088	2.05900002	200	0	0
-3.86199999	6.75020027	2.05800009	200	0	0
-3.85500002	6.74979973	2.07200003	200	0	0
-3.85700011	6.75039959	2.07200003	200	0	0
-3.86599994	6.75030088	2.0710001	200	0	0
-3.86199999	6.74989986	2.0710001	200	0	0
-3.85700011	6.75039959	2.079	200	0	0
-3.86299992	6.75039959	2.14599991	200	0	0
-3.87599993	6.74989986	2.07599998	200	0	0
-3.86599994	6.75020027	2.0710001	200	0	0
-3.85899997	6.75039959	2.08599997	200	0	0
-3.86400008	6.75039959	2.1400001	200	0	0
-3.86100006	6.75030088	2.079	200	0	0
-3.852	6.75039959	2.09299994	200	0	0
-3.86299992	6.75020027	2.07800007	200	0	0
-3.85700011	6.75030088	2.08599997	200	0	0
-3.85899997	6.75030088	2.1400001	200	0	0
-3.87100005	6.75039959	2.125	200	0	0
-3.87100005	6.75039959	2.10500002	200	0	0
-3.86800003	6.75039959	2.11199999	200	0	0
-3.86100006	6.75039959	2.11899996	200	0	0
-3.86500001	6.75030088	2.09200001	200	0	0
-3.85800004	6.75020027	2.08599997	200	0	0
-3.86599994	6.75010014	2.08500004	200	0	0
-3.85800004	6.75030088	2.12700009	200	0	0
-3.85899997	6.75020027	2.09200001	200	0	0
-3.85700011	6.75030088	2.10599995	200	0	0
-3.85800004	6.75030088	2.11999989	200	0	0
-3.86299992	6.75010014	2.09200001	200	0	0
-3.85700011	6.75030088	2.11299992	200	0	0
-3.85899997	6.75020027	2.12599993	200	0	0
-3.85400009	6.75020027	2.11999989	200	0	0
-3.86199999	6.75020027	2.10599995	200	0	0
-3.86100006	6.75020027	2.11299992	200	0	0
-3.86299992	6.75099993	2.20799994	200	0	0
-3.85800004	6.74979973	1.98300004	200	0	0
-3.86899996	6.74989986	2.00200009	200	0	0
-3.85800004	6.74989986	2.00999999	200	0	0
-3.85299993	6.74979973	2.00399995	200	0	0
-3.86199999	6.74979973	2.00999999	200	0	0
-3.8499999	6.74979973	2.01799989	200	0	0
-3.85800004	6.75020027	1.99000001	200	0	0
-3.85100007	6.74989986	1.98399997	200	0	0
-3.86400008	6.75039959	2.00999999	200	0	0
-3.86199999	6.74989986	1.98899996	200	0	0
-3.85700011	6.75020027	2.00399995	200	0	0
-3.86599994	6.75020027	2.00999999	200	0	0
-3.85899997	6.75099993	2.16100001	200	0	0
-3.8670001	6.75099993	2.21399999	200	0	0
-3.86299992	6.75099993	2.19400001	200	0	0
-3.86100006	6.75099993	2.18799996	200	0	0
-3.8670001	6.75099993	2.1730001	200	0	0
-3.86400008	6.75099993	2.18000007	200	0	0
-3.86299992	6.75099993	2.26200008	200	0	0
-3.84899998	6.75110006	2.28299999	200	0	0
-3.85400009	6.75039959	2.41000009	200	0	0
-3.84299994	6.75020027	2.41000009	200	0	0
-3.85899997	6.75030088	2.41000009	200	0	0
-3.85800004	6.75010014	2.41000009	200	0	0
-3.86299992	6.75110006	2.28900003	200	0	0
-3.86599994	6.75090075	2.25500011	200	0	0
-3.8670001	6.75110006	2.29500008	200	0	0
-3.84599996	6.75099993	2.27600002	200	0	0
-3.85299993	6.75099993	2.28299999	200	0	0
-3.85899997	6.74989986	2.39599991	200	0	0
-3.85899997	6.75099993	2.28900003	200	0	0
-3.85800004	6.75039959	2.39700007	200	0	0
-3.85599995	6.74979973	2.38899994	200	0	0
-3.86100006	6.75099993	2.296	200	0	0
-3.85500002	6.75030088	2.39700007	200	0	0
-3.86100006	6.75010014	2.39599991	200	0	0
-3.86100006	6.75099993	2.30900002	200	0	0
-3.86100006	6.75099993	2.31599998	200	0	0
-3.86100006	6.74979973	2.38199997	200	0	0
-3.8599999	6.75039959	2.3900001	200	0	0
-3.85599995	6.75030088	2.3900001	200	0	0
-3.85899997	6.75020027	2.3900001	200	0	0
-3.86299992	6.74979973	2.375	200	0	0
-3.86800003	6.75039959	2.3829999	200	0	0
-3.86299992	6.75	2.38199997	200	0	0
-3.86500001	6.75030088	2.3829999	200	0	0
-3.86400008	6.75020027	2.3829999	200	0	0
-3.87299991	6.75039959	2.37599993	200	0	0
-3.87400007	6.75030088	2.37599993	200	0	0
-3.86500001	6.75	2.375	200	0	0
-3.85899997	6.74979973	2.36199999	200	0	0
-3.86599994	6.75020027	2.37599993	200	0	0
-3.8599999	6.74979973	2.35500002	200	0	0
-3.86800003	6.74979973	2.34800005	200	0	0
-3.87100005	6.75	2.36199999	200	0	0
-3.86599994	6.74989986	2.35500002	200	0	0
-3.86500001	6.75030088	2.36299992	200	0	0
-3.86400008	6.74979973	2.34200001	200	0	0
-3.86100006	6.75010014	2.36299992	200	0	0
-3.85500002	6.75039959	2.35599995	200	0	0
-3.85899997	6.74989986	2.34899998	200	0	0
-3.86100006	6.75	2.35500002	200	0	0
-3.85899997	6.74979973	2.32800007	200	0	0
-3.86400008	6.75030088	2.35599995	200	0	0
-3.87299991	6.75039959	2.34899998	200	0	0
-3.87400007	6.75	2.34800005	200	0	0
-3.85899997	6.75049973	2.34299994	200	0	0
-3.8599999	6.75020027	2.35599995	200	0	0
-3.8599999	6.74989986	2.34200001	200	0	0
-3.87100005	6.75	2.34100008	200	0	0
-3.85700011	6.75030088	2.34899998	200	0	0
-3.86299992	6.75039959	2.34299994	200	0	0
-3.86299992	6.75020027	2.34899998	200	0	0
-3.85899997	6.75030088	2.34299994	200	0	0
-3.86400008	6.75010014	2.34200001	200	0	0
-3.87299991	6.75039959	2.31500006	200	0	0
-3.85899997	6.75039959	2.329	200	0	0
-3.86199999	6.75039959	2.30900002	200	0	0
-3.86299992	6.75039959	2.32200003	200	0	0
-3.85899997	6.75030088	2.329	200	0	0
-3.86400008	6.75010014	2.32200003	200	0	0
-3.85800004	6.75020027	2.329	200	0	0
-3.85899997	6.75030088	2.32200003	200	0	0
-3.86100006	6.75030088	2.31599998	200	0	0
-3.86100006	6.75020027	2.32200003	200	0	0
-3.84500003	6.74979973	2.41599989	200	0	0
-3.86400008	6.75020027	2.41700006	200	0	0
-3.85500002	6.75010014	2.41700006	200	0	0
-3.8499999	6.75	2.41599989	200	0	0
-3.86299992	6.74989986	2.41599989	200	0	0
-3.85599995	6.74979973	2.40899992	200	0	0
-3.86500001	6.75129986	2.30900002	200	0	0
-3.8670001	6.75099993	2.24099994	200	0	0
-3.86599994	6.75110006	2.25500011	200	0	0
-3.85500002	6.75119972	2.28200006	200	0	0
-3.86599994	6.75099993	2.24799991	200	0	0
-3.8599999	6.75110006	2.26200008	200	0	0
-3.86100006	6.75119972	2.28900003	200	0	0
-3.86199999	6.75119972	2.296	200	0	0
-3.86299992	6.75119972	2.30900002	200	0	0
-3.86199999	6.75099993	2.25500011	200	0	0
-3.86199999	6.75110006	2.18099999	200	0	0
-3.8670001	6.75110006	2.10599995	200	0	0
-3.86199999	6.75110006	2.17400002	200	0	0
-3.8670001	6.75110006	2.11199999	200	0	0
-3.86800003	6.75110006	2.16000009	200	0	0
-3.86299992	6.75110006	2.11999989	200	0	0
-3.8670001	6.75110006	2.12599993	200	0	0
-3.86400008	6.75110006	2.14700007	200	0	0
-3.8670001	6.75110006	2.1400001	200	0	0
-3.86899996	6.75129986	2.11199999	200	0	0
-3.86599994	6.75129986	2.19400001	200	0	0
-3.87100005	6.75110006	2.08500004	200	0	0
-3.86299992	6.75110006	2.22099996	200	0	0
-3.86599994	6.75119972	2.20700002	200	0	0
-3.86999989	6.75129986	2.11899996	200	0	0
-3.86999989	6.75129986	2.18700004	200	0	0
-3.87100005	6.75099993	2.227	200	0	0
-3.86199999	6.75129986	2.18099999	200	0	0
-3.86500001	6.75129986	2.12599993	200	0	0
-3.87100005	6.75110006	2.09200001	200	0	0
-3.8670001	6.75110006	2.21399999	200	0	0
-3.86599994	6.75119972	2.10599995	200	0	0
-3.86199999	6.75129986	2.17400002	200	0	0
-3.86899996	6.75129986	2.13899994	200	0	0
-3.86100006	6.75099993	2.22099996	200	0	0
-3.86899996	6.75129986	2.14599991	200	0	0
-3.86899996	6.75129986	2.16000009	200	0	0
-3.86800003	6.75129986	2.15300012	200	0	0
-3.8670001	6.75119972	2.11199999	200	0	0
-3.86500001	6.75119972	2.19400001	200	0	0
-3.85899997	6.75110006	2.20799994	200	0	0
-3.8670001	6.75119972	2.11899996	200	0	0
-3.86500001	6.75119972	2.18700004	200	0	0
-3.87800002	6.75119972	2.125	200	0	0
-3.86400008	6.75119972	2.18099999	200	0	0
-3.86599994	6.75119972	2.17400002	200	0	0
-3.86400008	6.75110006	2.19400001	200	0	0
-3.8670001	6.75119972	2.1400001	200	0	0
-3.86899996	6.75119972	2.16000009	200	0	0
-3.8670001	6.75119972	2.14599991	200	0	0
-3.86800003	6.75119972	2.15300012	200	0	0
-3.86500001	6.75110006	2.18700004	200	0	0
-3.86400008	6.75129986	2.25500011	200	0	0
-3.87199998	6.75119972	2.24099994	200	0	0
-3.86500001	6.75110006	2.22799993	200	0	0
-3.86599994	6.75129986	2.26200008	200	0	0
-3.86599994	6.75119972	2.24799991	200	0	0
-3.86800003	6.75129986	2.2750001	200	0	0
-3.86800003	6.75129986	2.31599998	200	0	0
-3.86299992	6.75129986	2.28200006	200	0	0
-3.86800003	6.75129986	2.28900003	200	0	0
-3.86800003	6.75129986	2.29500008	200	0	0
-3.8670001	6.75110006	2.24099994	200	0	0
-3.85700011	6.75119972	2.25500011	200	0	0
-3.86800003	6.75119972	2.26099992	200	0	0
-3.86199999	6.75110006	2.24799991	200	0	0
-3.86299992	6.75119972	2.21399999	200	0	0
-3.86899996	6.75139999	2.21399999	200	0	0
-3.8829999	6.75139999	2.13800001	200	0	0
-3.86899996	6.75129986	2.22799993	200	0	0
-3.86899996	6.75139999	2.20700002	200	0	0
-3.88700008	6.75139999	2.15199995	200	0	0
-3.86599994	6.75129986	2.22099996	200	0	0
-3.8670001	6.75139999	2.19400001	200	0	0
-3.86599994	6.75139999	2.18700004	200	0	0
-3.86599994	6.75139999	2.16000009	200	0	0
-3.86800003	6.75139999	2.18000007	200	0	0
-3.86400008	6.75129986	2.21399999	200	0	0
-3.86199999	6.75119972	2.22799993	200	0	0
-3.86199999	6.75129986	2.20799994	200	0	0
-3.86400008	6.75119972	2.22099996	200	0	0
-3.85899997	6.75129986	2.2420001	200	0	0
-3.86299992	6.75129986	2.24799991	200	0	0
-3.86599994	6.75099993	1.94200003	200	0	0
-3.85500002	6.75110006	1.95000005	200	0	0
-3.84699988	6.75020027	1.92299998	200	0	0
-3.86500001	6.75129986	1.98300004	200	0	0
-3.85500002	6.74989986	1.93499994	200	0	0
-3.84500003	6.74979973	1.94299996	200	0	0
-3.86899996	6.75129986	1.98899996	200	0	0
-3.86599994	6.75110006	1.95500004	200	0	0
-3.8670001	6.74989986	1.94000006	200	0	0
-3.86299992	6.75119972	1.97000003	200	0	0
-3.87100005	6.75129986	2.03699994	200	0	0
-3.8599999	6.74979973	1.94799995	200	0	0
-3.86800003	6.75129986	2.00300002	200	0	0
-3.86199999	6.75099993	1.949	200	0	0
-3.87100005	6.75129986	2.023	200	0	0
-3.86999989	6.75129986	2.01699996	200	0	0
-3.86299992	6.75119972	1.97599995	200	0	0
-3.86400008	6.75129986	2.00999999	200	0	0
-3.86500001	6.75099993	1.95500004	200	0	0
-3.86299992	6.75119972	1.98300004	200	0	0
-3.86100006	6.74979973	1.95500004	200	0	0
-3.86100006	6.74989986	1.94799995	200	0	0
-3.86500001	6.75110006	1.96899998	200	0	0
-3.86500001	6.75119972	1.99000001	200	0	0
-3.85500002	6.75020027	1.93599999	200	0	0
-3.87400007	6.75020027	1.94000006	200	0	0
-3.87199998	6.75119972	2.03699994	200	0	0
-3.86899996	6.75119972	2.00300002	200	0	0
-3.8670001	6.74989986	1.954	200	0	0
-3.86500001	6.75110006	1.97599995	200	0	0
-3.85800004	6.75010014	1.94200003	200	0	0
-3.875	6.75099993	1.96800005	200	0	0
-3.8670001	6.75119972	2.00999999	200	0	0
-3.86800003	6.75119972	2.02399993	200	0	0
-3.86599994	6.75119972	2.01699996	200	0	0
-3.86400008	6.75110006	1.98300004	200	0	0
-3.85800004	6.74979973	1.96899998	200	0	0
-3.86299992	6.75110006	1.99000001	200	0	0
-3.8599999	6.74979973	1.97599995	200	0	0
-3.86100006	6.75099993	1.977	200	0	0
-3.86999989	6.74989986	1.96800005	200	0	0
-3.86800003	6.75110006	2.00999999	200	0	0
-3.86199999	6.75110006	2.00399995	200	0	0
-3.86899996	6.75110006	2.01699996	200	0	0
-3.85100007	6.75020027	1.95000005	200	0	0
-3.86199999	6.75110006	2.02399993	200	0	0
-3.85899997	6.75099993	1.98399997	200	0	0
-3.85299993	6.75039959	1.95000005	200	0	0
-3.86299992	6.75099993	1.99000001	200	0	0
-3.86100006	6.75020027	1.95599997	200	0	0
-3.86599994	6.75099993	2.00300002	200	0	0
-3.86800003	6.75099993	2.00999999	200	0	0
-3.86599994	6.75099993	2.02399993	200	0	0
-3.86299992	6.75099993	2.01699996	200	0	0
-3.85700011	6.75020027	1.97000003	200	0	0
-3.85299993	6.75030088	1.97099996	200	0	0
-3.85700011	6.75020027	1.977	200	0	0
-3.85800004	6.75020027	1.98300004	200	0	0
-3.85899997	6.75030088	1.99000001	200	0	0
-3.86500001	6.75139999	2.24099994	200	0	0
-3.8599999	6.75139999	2.22799993	200	0	0
-3.86599994	6.75139999	2.22099996	200	0	0
-3.87299991	6.75119972	2.08500004	200	0	0
-3.86400008	6.75129986	2.09200001	200	0	0
-3.88899994	6.75139999	2.10400009	200	0	0
-3.86899996	6.75119972	2.09200001	200	0	0
-3.86999989	6.75129986	2.10500002	200	0	0
-3.88800001	6.75139999	2.12400007	200	0	0
-3.85700011	6.74979973	1.921	200	0	0
-3.85899997	6.74989986	1.921	200	0	0
-3.85700011	6.74979973	1.93499994	200	0	0
-3.86800003	6.75139999	2.00300002	200	0	0
-3.86999989	6.75139999	2.00999999	200	0	0
-3.87299991	6.75139999	2.01600003	200	0	0
-3.87400007	6.75139999	2.023	200	0	0
-3.86899996	6.75139999	2.29500008	200	0	0
-3.86400008	6.75139999	2.28900003	200	0	0
-3.87400007	6.75139999	2.28200006	200	0	0
-3.86500001	6.75139999	2.26200008	200	0	0
-3.87299991	6.75139999	2.25399995	200	0	0
-3.85299993	6.74979973	1.88699996	200	0	0
-3.852	6.74989986	1.88800001	200	0	0
-3.85100007	6.75020027	1.90199995	200	0	0
-3.85500002	6.75020027	1.90900004	200	0	0
-3.85400009	6.74989986	1.90100002	200	0	0
-3.85599995	6.74979973	1.90100002	200	0	0
-3.86500001	6.74989986	1.90600002	200	0	0
-3.85700011	6.74979973	1.91400003	200	0	0
-3.85299993	6.74989986	1.91499996	200	0	0
-3.86800003	6.75099993	1.93499994	200	0	0
-3.8599999	6.75010014	1.88699996	200	0	0
-3.86599994	6.75129986	1.96899998	200	0	0
-3.87299991	6.75110006	1.94099998	200	0	0
-3.86400008	6.75119972	1.95599997	200	0	0
-3.86400008	6.75129986	1.97599995	200	0	0
-3.86599994	6.75110006	2.477	200	0	0
-3.87299991	6.75099993	2.48399997	200	0	0
-3.86400008	6.75119972	2.46399999	200	0	0
-3.86999989	6.75090075	2.49099994	200	0	0
-3.86100006	6.75129986	2.44400001	200	0	0
-3.85500002	6.74979973	2.48300004	200	0	0
-3.86599994	6.75119972	2.45700002	200	0	0
-3.86400008	6.75099993	2.477	200	0	0
-3.86199999	6.75	2.49000001	200	0	0
-3.84899998	6.74979973	2.47600007	200	0	0
-3.85899997	6.74989986	2.48300004	200	0	0
-3.87299991	6.75010014	2.49099994	200	0	0
-3.85400009	6.75110006	2.46399999	200	0	0
-3.85899997	6.75119972	2.44400001	200	0	0
-3.86800003	6.75020027	2.49099994	200	0	0
-3.85400009	6.75110006	2.45700002	200	0	0
-3.85800004	6.75	2.48300004	200	0	0
-3.86599994	6.75030088	2.49099994	200	0	0
-3.85500002	6.75049973	2.49099994	200	0	0
-3.85800004	6.75119972	2.42400002	200	0	0
-3.86100006	6.75099993	2.46399999	200	0	0
-3.85800004	6.74979973	2.46300006	200	0	0
-3.8599999	6.75010014	2.48399997	200	0	0
-3.85100007	6.75110006	2.44400001	200	0	0
-3.86299992	6.75	2.47600007	200	0	0
-3.85800004	6.75020027	2.48399997	200	0	0
-3.85400009	6.75099993	2.45700002	200	0	0
-3.85299993	6.74979973	2.45600009	200	0	0
-3.86199999	6.75049973	2.48399997	200	0	0
-3.85500002	6.75030088	2.48399997	200	0	0
-3.85700011	6.75039959	2.48399997	200	0	0
-3.85800004	6.75010014	2.477	200	0	0
-3.86100006	6.74989986	2.46300006	200	0	0
-3.85299993	6.74979973	2.45000005	200	0	0
-3.84800005	6.75020027	2.477	200	0	0
-3.85800004	6.75099993	2.44400001	200	0	0
-3.85299993	6.74979973	2.44300008	200	0	0
-3.85599995	6.75030088	2.477	200	0	0
-3.8599999	6.75	2.46300006	200	0	0
-3.85899997	6.74989986	2.45000005	200	0	0
-3.84800005	6.74979973	2.43000007	200	0	0
-3.86299992	6.75010014	2.46399999	200	0	0
-3.84800005	6.75	2.45600009	200	0	0
-3.85899997	6.74989986	2.44300008	200	0	0
-3.86100006	6.75020027	2.46399999	200	0	0
-3.85100007	6.75	2.45000005	200	0	0
-3.85100007	6.75010014	2.45700002	200	0	0
-3.852	6.75030088	2.46399999	200	0	0
-3.86199999	6.74989986	2.4289999	200	0	0
-3.85299993	6.75039959	2.46399999	200	0	0
-3.8440001	6.75020027	2.45700002	200	0	0
-3.85100007	6.75	2.44300008	200	0	0
-3.85899997	6.74989986	2.4230001	200	0	0
-3.85400009	6.75010014	2.45000005	200	0	0
-3.84800005	6.75030088	2.45700002	200	0	0
-3.85899997	6.75039959	2.45700002	200	0	0
-3.8440001	6.75020027	2.45000005	200	0	0
-3.85400009	6.75010014	2.44400001	200	0	0
-3.84899998	6.75	2.43000007	200	0	0
-3.84899998	6.75	2.4230001	200	0	0
-3.85100007	6.75030088	2.45000005	200	0	0
-3.8440001	6.75020027	2.44400001	200	0	0
-3.85899997	6.75039959	2.45000005	200	0	0
-3.84899998	6.75010014	2.43000007	200	0	0
-3.85899997	6.75030088	2.44400001	200	0	0
-3.852	6.75039959	2.44400001	200	0	0
-3.85599995	6.75010014	2.4230001	200	0	0
-3.84899998	6.75020027	2.43000007	200	0	0
-3.84800005	6.75030088	2.43000007	200	0	0
-3.85299993	6.75039959	2.43000007	200	0	0
-3.85299993	6.75030088	2.42400002	200	0	0
-3.852	6.75039959	2.42400002	200	0	0
-3.85800004	6.75030088	2.41700006	200	0	0
-3.85500002	6.75039959	2.41700006	200	0	0
-3.88000011	6.74979973	2.49000001	200	0	0
-3.86299992	6.75139999	1.99000001	200	0	0
-3.86500001	6.75119972	1.84500003	200	0	0
-3.86599994	6.75139999	1.852	200	0	0
-3.85400009	6.75020027	1.88800001	200	0	0
-3.8599999	6.75110006	1.84599996	200	0	0
-3.85700011	6.75099993	1.847	200	0	0
-3.86500001	6.75129986	1.852	200	0	0
-3.86500001	6.75119972	1.852	200	0	0
-3.86500001	6.75099993	1.852	200	0	0
-3.85899997	6.75110006	1.85300004	200	0	0
-3.86800003	6.75139999	1.86600006	200	0	0
-3.85899997	6.75129986	1.86699998	200	0	0
-3.8670001	6.75139999	1.87300003	200	0	0
-3.85800004	6.75119972	1.86699998	200	0	0
-3.86500001	6.75110006	1.86600006	200	0	0
-3.86299992	6.75099993	1.86600006	200	0	0
-3.86400008	6.75129986	1.87300003	200	0	0
-3.86999989	6.75139999	1.87899995	200	0	0
-3.86400008	6.75119972	1.87300003	200	0	0
-3.86500001	6.75110006	1.87300003	200	0	0
-3.86400008	6.75099993	1.87300003	200	0	0
-3.86100006	6.75129986	1.88100004	200	0	0
-3.86400008	6.75139999	1.88699996	200	0	0
-3.85899997	6.75119972	1.88100004	200	0	0
-3.86599994	6.75129986	1.88699996	200	0	0
-3.8599999	6.75110006	1.88100004	200	0	0
-3.88199997	6.75150108	1.97399998	200	0	0
-3.8599999	6.75099993	1.88100004	200	0	0
-3.85800004	6.75119972	1.88800001	200	0	0
-3.86899996	6.75139999	1.89999998	200	0	0
-3.86500001	6.75139999	1.98300004	200	0	0
-3.86599994	6.75110006	1.88699996	200	0	0
-3.86400008	6.75099993	1.88699996	200	0	0
-3.87100005	6.75139999	1.90699995	200	0	0
-3.86299992	6.75139999	1.97599995	200	0	0
-3.86500001	6.75129986	1.90100002	200	0	0
-3.86400008	6.75139999	1.91499996	200	0	0
-3.8670001	6.75139999	1.96899998	200	0	0
-3.86500001	6.75119972	1.90100002	200	0	0
-3.86400008	6.75129986	1.90799999	200	0	0
-3.86899996	6.75110006	1.89999998	200	0	0
-3.86800003	6.75139999	1.95500004	200	0	0
-3.86400008	6.75099993	1.90100002	200	0	0
-3.86899996	6.75139999	1.93400002	200	0	0
-3.86199999	6.75139999	1.949	200	0	0
-3.87100005	6.75119972	1.90699995	200	0	0
-3.86199999	6.75129986	1.91499996	200	0	0
-3.86999989	6.75139999	1.94099998	200	0	0
-3.8599999	6.75129986	1.92200005	200	0	0
-3.86299992	6.75110006	1.90799999	200	0	0
-3.86999989	6.75119972	1.91400003	200	0	0
-3.86199999	6.75099993	1.90799999	200	0	0
-3.86400008	6.75129986	1.95599997	200	0	0
-3.86100006	6.75129986	1.949	200	0	0
-3.86599994	6.75129986	1.93499994	200	0	0
-3.86199999	6.75129986	1.94200003	200	0	0
-3.86199999	6.75110006	1.91499996	200	0	0
-3.86199999	6.75119972	1.92200005	200	0	0
-3.86199999	6.75099993	1.91499996	200	0	0
-3.86500001	6.75110006	1.921	200	0	0
-3.86299992	6.75119972	1.93499994	200	0	0
-3.86299992	6.75119972	1.949	200	0	0
-3.86400008	6.75099993	1.921	200	0	0
-3.8599999	6.75119972	1.94299996	200	0	0
-3.86199999	6.75110006	1.93499994	200	0	0
-3.8599999	6.75200033	1.94299996	200	0	0
-3.85700011	6.74989986	1.83200002	200	0	0
-3.86299992	6.75020027	1.83099997	200	0	0
-3.85700011	6.75010014	1.83200002	200	0	0
-3.84200001	6.74979973	1.84099996	200	0	0
-3.8440001	6.74989986	1.84099996	200	0	0
-3.85500002	6.74979973	1.84599996	200	0	0
-3.86100006	6.74989986	1.84500003	200	0	0
-3.852	6.75020027	1.84000003	200	0	0
-3.84800005	6.74979973	1.85399997	200	0	0
-3.85700011	6.74989986	1.852	200	0	0
-3.85500002	6.75010014	1.847	200	0	0
-3.84699988	6.75020027	1.84800005	200	0	0
-3.86199999	6.75010014	1.852	200	0	0
-3.85299993	6.75020027	1.85399997	200	0	0
-3.8440001	6.74979973	1.86800003	200	0	0
-3.85700011	6.74989986	1.86600006	200	0	0
-3.84699988	6.74979973	1.875	200	0	0
-3.86500001	6.74989986	1.87199998	200	0	0
-3.86299992	6.74979973	1.87899995	200	0	0
-3.8670001	6.75020027	1.86500001	200	0	0
-3.85299993	6.75010014	1.86800003	200	0	0
-3.85899997	6.74989986	1.88	200	0	0
-3.8599999	6.75020027	1.87300003	200	0	0
-3.852	6.75010014	1.875	200	0	0
-3.85400009	6.75010014	1.88100004	200	0	0
-3.85500002	6.75020027	1.88100004	200	0	0
-3.85800004	6.74979973	1.83099997	200	0	0
-3.852	6.75020027	1.79900002	200	0	0
-3.8499999	6.75020027	1.80599999	200	0	0
-3.852	6.74979973	1.79799998	200	0	0
-3.85100007	6.75020027	1.81299996	200	0	0
-3.85500002	6.74979973	1.80400002	200	0	0
-3.84800005	6.75020027	1.82000005	200	0	0
-3.85899997	6.75010014	1.81799996	200	0	0
-3.84800005	6.74989986	1.81900001	200	0	0
-3.85299993	6.74979973	1.81900001	200	0	0
-3.87199998	6.75139999	1.84399998	200	0	0
-3.8599999	6.75119972	1.83899999	200	0	0
-3.86500001	6.75110006	1.83800006	200	0	0
-3.8670001	6.75099993	1.83800006	200	0	0
-3.86199999	6.75129986	1.84599996	200	0	0
-3.87199998	6.75020027	2.51799989	200	0	0
-3.86500001	6.75039959	2.54500008	200	0	0
-3.87100005	6.75030088	2.5309999	200	0	0
-3.88199997	6.75139999	2.56500006	200	0	0
-3.86999989	6.75030088	2.52399993	200	0	0
-3.875	6.75030088	2.51799989	200	0	0
-3.8829999	6.75139999	2.55900002	200	0	0
-3.87199998	6.75119972	2.56500006	200	0	0
-3.86899996	6.75099993	2.56500006	200	0	0
-3.86199999	6.75039959	2.5309999	200	0	0
-3.86400008	6.75110006	2.56500006	200	0	0
-3.86500001	6.75039959	2.52399993	200	0	0
-3.87100005	6.75129986	2.55800009	200	0	0
-3.88700008	6.75139999	2.55200005	200	0	0
-3.86299992	6.75090075	2.55800009	200	0	0
-3.87700009	6.75119972	2.55900002	200	0	0
-3.87599993	6.75039959	2.51799989	200	0	0
-3.86899996	6.75099993	2.55800009	200	0	0
-3.86899996	6.75110006	2.55800009	200	0	0
-3.87599993	6.75129986	2.55200005	200	0	0
-3.88599992	6.75139999	2.54500008	200	0	0
-3.87700009	6.75119972	2.55200005	200	0	0
-3.86199999	6.75099993	2.55200005	200	0	0
-3.86800003	6.75110006	2.55200005	200	0	0
-3.87800002	6.75129986	2.54500008	200	0	0
-3.86299992	6.75099993	2.54500008	200	0	0
-3.86599994	6.75110006	2.54500008	200	0	0
-3.88599992	6.75139999	2.53200006	200	0	0
-3.89400005	6.75139999	2.5250001	200	0	0
-3.87400007	6.75129986	2.5309999	200	0	0
-3.89199996	6.75139999	2.51799989	200	0	0
-3.87400007	6.75119972	2.5309999	200	0	0
-3.86400008	6.75099993	2.5309999	200	0	0
-3.87299991	6.75110006	2.5309999	200	0	0
-3.87400007	6.75129986	2.5250001	200	0	0
-3.87599993	6.75119972	2.5250001	200	0	0
-3.88599992	6.75129986	2.51799989	200	0	0
-3.86400008	6.75099993	2.5250001	200	0	0
-3.86800003	6.75110006	2.5250001	200	0	0
-3.87400007	6.75090075	2.51799989	200	0	0
-3.86100006	6.75139999	2.44400001	200	0	0
-3.87899995	6.75110006	2.51799989	200	0	0
-3.87100005	6.75099993	2.51799989	200	0	0
-3.86999989	6.75139999	2.45700002	200	0	0
-3.87199998	6.75139999	2.46399999	200	0	0
-3.86500001	6.75129986	2.45700002	200	0	0
-3.875	6.75129986	2.46399999	200	0	0
-3.87800002	6.75129986	2.48399997	200	0	0
-3.875	6.75129986	2.477	200	0	0
-3.86999989	6.75099993	2.49099994	200	0	0
-3.86999989	6.75119972	2.477	200	0	0
-3.86999989	6.75110006	2.48399997	200	0	0
-3.87299991	6.75129986	2.579	200	0	0
-3.86800003	6.75010014	2.52399993	200	0	0
-3.86299992	6.75030088	2.55100012	200	0	0
-3.86999989	6.75119972	2.579	200	0	0
-3.86500001	6.75039959	2.55800009	200	0	0
-3.875	6.75110006	2.579	200	0	0
-3.86899996	6.75099993	2.579	200	0	0
-3.86400008	6.75020027	2.5309999	200	0	0
-3.86599994	6.75030088	2.54500008	200	0	0
-3.86199999	6.75039959	2.55100012	200	0	0
-3.85899997	6.75020027	2.52399993	200	0	0
-3.86999989	6.75119972	2.58500004	200	0	0
-3.87100005	6.75	2.52999997	200	0	0
-3.86999989	6.75020027	2.55800009	200	0	0
-3.87100005	6.75010014	2.54500008	200	0	0
-3.86400008	6.75	2.52399993	200	0	0
-3.87100005	6.75110006	2.58500004	200	0	0
-3.87400007	6.75030088	2.56500006	200	0	0
-3.86299992	6.75099993	2.58500004	200	0	0
-3.86899996	6.75020027	2.55100012	200	0	0
-3.86199999	6.75030088	2.55800009	200	0	0
-3.86400008	6.75039959	2.56500006	200	0	0
-3.87199998	6.75010014	2.5309999	200	0	0
-3.87700009	6.75020027	2.54500008	200	0	0
-3.86800003	6.75	2.57800007	200	0	0
-3.85899997	6.74989986	2.5769999	200	0	0
-3.87400007	6.75020027	2.56500006	200	0	0
-3.86800003	6.75010014	2.56500006	200	0	0
-3.86599994	6.75	2.56399989	200	0	0
-3.87700009	6.74979973	2.56399989	200	0	0
-3.85700011	6.74989986	2.56399989	200	0	0
-3.86199999	6.75010014	2.55800009	200	0	0
-3.87800002	6.75	2.55800009	200	0	0
-3.87700009	6.74979973	2.55800009	200	0	0
-3.86800003	6.75010014	2.55100012	200	0	0
-3.86199999	6.74989986	2.55699992	200	0	0
-3.86599994	6.75	2.55100012	200	0	0
-3.875	6.74979973	2.55100012	200	0	0
-3.86100006	6.74989986	2.55100012	200	0	0
-3.86999989	6.75	2.54399991	200	0	0
-3.87800002	6.74979973	2.54399991	200	0	0
-3.86500001	6.74989986	2.54399991	200	0	0
-3.86299992	6.74989986	2.52999997	200	0	0
-3.86199999	6.74979973	2.52999997	200	0	0
-3.86899996	6.74989986	2.52399993	200	0	0
-3.86500001	6.74979973	2.52399993	200	0	0
-3.85800004	6.74979973	2.51699996	200	0	0
-3.86199999	6.75030088	2.58500004	200	0	0
-3.87899995	6.74979973	2.58500004	200	0	0
-3.86599994	6.75020027	2.58500004	200	0	0
-3.86199999	6.75039959	2.57800007	200	0	0
-3.8599999	6.75010014	2.58500004	200	0	0
-3.86100006	6.74989986	2.58400011	200	0	0
-3.86899996	6.75	2.58400011	200	0	0
-3.86100006	6.75030088	2.57800007	200	0	0
-3.86500001	6.75020027	2.57800007	200	0	0
-3.86599994	6.75039959	2.58500004	200	0	0
-3.86100006	6.75139999	1.74899995	200	0	0
-3.86400008	6.75129986	1.74800003	200	0	0
-3.86599994	6.75110006	1.74800003	200	0	0
-3.85599995	6.75099993	1.75	200	0	0
-3.86400008	6.75119972	1.74800003	200	0	0
-3.85500002	6.75099993	1.76400006	200	0	0
-3.86500001	6.75129986	1.76199996	200	0	0
-3.86500001	6.75119972	1.76199996	200	0	0
-3.85400009	6.75110006	1.76400006	200	0	0
-3.85700011	6.75099993	1.76999998	200	0	0
-3.86199999	6.75139999	1.76999998	200	0	0
-3.86400008	6.75129986	1.76900005	200	0	0
-3.86500001	6.75119972	1.76900005	200	0	0
-3.85899997	6.75110006	1.76999998	200	0	0
-3.86599994	6.75139999	1.77600002	200	0	0
-3.86500001	6.75099993	1.77600002	200	0	0
-3.87199998	6.75129986	1.77499998	200	0	0
-3.85500002	6.75110006	1.778	200	0	0
-3.8599999	6.75119972	1.77699995	200	0	0
-3.8670001	6.75139999	1.78299999	200	0	0
-3.85899997	6.75099993	1.78400004	200	0	0
-3.86299992	6.75129986	1.78299999	200	0	0
-3.85500002	6.75110006	1.78499997	200	0	0
-3.86100006	6.75119972	1.78400004	200	0	0
-3.8599999	6.75139999	1.79799998	200	0	0
-3.85599995	6.75110006	1.79799998	200	0	0
-3.86100006	6.75129986	1.79799998	200	0	0
-3.86400008	6.75119972	1.79700005	200	0	0
-3.87199998	6.75139999	1.80299997	200	0	0
-3.852	6.75099993	1.80599999	200	0	0
-3.86199999	6.75110006	1.80400002	200	0	0
-3.85899997	6.75129986	1.80499995	200	0	0
-3.85899997	6.75119972	1.80499995	200	0	0
-3.85700011	6.75099993	1.81200004	200	0	0
-3.86199999	6.75110006	1.81099999	200	0	0
-3.8599999	6.75129986	1.81200004	200	0	0
-3.8599999	6.75099993	1.81799996	200	0	0
-3.85700011	6.75139999	1.81900001	200	0	0
-3.85800004	6.75119972	1.81200004	200	0	0
-3.86400008	6.75110006	1.81799996	200	0	0
-3.85800004	6.75129986	1.81900001	200	0	0
-3.86500001	6.75119972	1.81799996	200	0	0
-3.8599999	6.75099993	1.83200002	200	0	0
-3.86500001	6.75139999	1.83200002	200	0	0
-3.86999989	6.75139999	1.83800006	200	0	0
-3.85800004	6.75129986	1.83299994	200	0	0
-3.86199999	6.75110006	1.83200002	200	0	0
-3.86500001	6.75119972	1.83099997	200	0	0
-3.86500001	6.75129986	1.83899999	200	0	0
-3.85500002	6.75020027	1.74300003	200	0	0
-3.86199999	6.74979973	1.74699998	200	0	0
-3.8599999	6.75020027	1.76300001	200	0	0
-3.85800004	6.74979973	1.76199996	200	0	0
-3.85899997	6.75020027	1.76999998	200	0	0
-3.85899997	6.74979973	1.76900005	200	0	0
-3.84800005	6.75020027	1.77900004	200	0	0
-3.8440001	6.75020027	1.78600001	200	0	0
-3.85500002	6.74979973	1.77699995	200	0	0
-3.84800005	6.74979973	1.78499997	200	0	0
-3.86599994	6.75020027	1.73399997	200	0	0
-3.86400008	6.75099993	1.74100006	200	0	0
-3.85599995	6.74979973	1.71399999	200	0	0
-3.85500002	6.75020027	1.70799994	200	0	0
-3.84599996	6.75020027	1.71599996	200	0	0
-3.86800003	6.75020027	1.72599995	200	0	0
-3.85800004	6.74979973	1.70599997	200	0	0
-3.86199999	6.75139999	1.74199998	200	0	0
-3.86599994	6.75129986	1.74100006	200	0	0
-3.852	6.75110006	1.74300003	200	0	0
-3.85500002	6.75119972	1.74300003	200	0	0
-3.87899995	6.74989986	2.61199999	200	0	0
-3.86199999	6.75039959	2.61199999	200	0	0
-3.8599999	6.75010014	2.61199999	200	0	0
-3.86899996	6.75	2.61100006	200	0	0
-3.86500001	6.75030088	2.61199999	200	0	0
-3.86999989	6.75020027	2.61199999	200	0	0
-3.85700011	6.74989986	2.59800005	200	0	0
-3.87700009	6.74979973	2.59100008	200	0	0
-3.8599999	6.75039959	2.59800005	200	0	0
-3.86899996	6.75	2.59800005	200	0	0
-3.86100006	6.75030088	2.59800005	200	0	0
-3.86999989	6.75020027	2.59899998	200	0	0
-3.86500001	6.75039959	2.59200001	200	0	0
-3.86100006	6.75030088	2.59200001	200	0	0
-3.86500001	6.75010014	2.59200001	200	0	0
-3.8670001	6.75020027	2.59200001	200	0	0
-3.87400007	6.75110006	2.61299992	200	0	0
-3.87599993	6.75119972	2.59899998	200	0	0
-3.86400008	6.75	2.63199997	200	0	0
-3.86400008	6.75099993	2.61899996	200	0	0
-3.86400008	6.74989986	2.625	200	0	0
-3.87400007	6.75119972	2.59200001	200	0	0
-3.86400008	6.75010014	2.63199997	200	0	0
-3.87299991	6.74979973	2.61199999	200	0	0
-3.86999989	6.75099993	2.61199999	200	0	0
-3.86400008	6.75	2.625	200	0	0
-3.87100005	6.75110006	2.59899998	200	0	0
-3.86400008	6.74989986	2.61800003	200	0	0
-3.86599994	6.75030088	2.63199997	200	0	0
-3.86500001	6.75039959	2.63199997	200	0	0
-3.86500001	6.75010014	2.62599993	200	0	0
-3.87199998	6.75110006	2.59200001	200	0	0
-3.8670001	6.75	2.61800003	200	0	0
-3.86599994	6.75039959	2.62599993	200	0	0
-3.87100005	6.75099993	2.59899998	200	0	0
-3.86400008	6.75010014	2.61899996	200	0	0
-3.85800004	6.75020027	2.61899996	200	0	0
-3.86800003	6.75099993	2.59200001	200	0	0
-3.86299992	6.75030088	2.61899996	200	0	0
-3.8670001	6.75039959	2.61899996	200	0	0
-3.86599994	6.75099993	2.65300012	200	0	0
-3.87599993	6.75119972	2.66000009	200	0	0
-3.87800002	6.75129986	2.66000009	200	0	0
-3.88599992	6.75139999	2.66000009	200	0	0
-3.86899996	6.75110006	2.65300012	200	0	0
-3.86599994	6.75099993	2.64599991	200	0	0
-3.87400007	6.75119972	2.65300012	200	0	0
-3.87599993	6.75129986	2.65300012	200	0	0
-3.88199997	6.75139999	2.65300012	200	0	0
-3.8670001	6.75110006	2.64599991	200	0	0
-3.87400007	6.75119972	2.64599991	200	0	0
-3.87299991	6.75129986	2.64599991	200	0	0
-3.88199997	6.75139999	2.64700007	200	0	0
-3.86899996	6.75099993	2.6329999	200	0	0
-3.87400007	6.75110006	2.6329999	200	0	0
-3.86599994	6.75099993	2.62599993	200	0	0
-3.87400007	6.75119972	2.6329999	200	0	0
-3.86899996	6.75110006	2.62599993	200	0	0
-3.88199997	6.75129986	2.6329999	200	0	0
-3.88899994	6.75139999	2.6329999	200	0	0
-3.87199998	6.75119972	2.62599993	200	0	0
-3.86800003	6.75110006	2.61899996	200	0	0
-3.88000011	6.75129986	2.62599993	200	0	0
-3.87299991	6.75119972	2.61899996	200	0	0
-3.87400007	6.75129986	2.61899996	200	0	0
-3.88700008	6.75139999	2.61999989	200	0	0
-3.87199998	6.75119972	2.61199999	200	0	0
-3.87899995	6.75129986	2.61299992	200	0	0
-3.88199997	6.75139999	2.61299992	200	0	0
-3.87700009	6.75129986	2.59899998	200	0	0
-3.88100004	6.75139999	2.59899998	200	0	0
-3.875	6.75129986	2.59200001	200	0	0
-3.88499999	6.75139999	2.59299994	200	0	0
-3.88100004	6.75129986	2.58599997	200	0	0
-3.88499999	6.75139999	2.579	200	0	0
-3.87299991	6.75099993	2.66000009	200	0	0
-3.87199998	6.75110006	2.66000009	200	0	0
-3.86400008	6.75049973	2.64599991	200	0	0
-3.86999989	6.75099993	2.66599989	200	0	0
-3.86899996	6.75110006	2.66599989	200	0	0
-3.88599992	6.75129986	2.66700006	200	0	0
-3.87599993	6.75119972	2.66700006	200	0	0
-3.86500001	6.75	2.64499998	200	0	0
-3.85800004	6.75010014	2.64599991	200	0	0
-3.87700009	6.74979973	2.63199997	200	0	0
-3.87100005	6.75039959	2.64599991	200	0	0
-3.86800003	6.75020027	2.64599991	200	0	0
-3.8599999	6.75030088	2.64599991	200	0	0
-3.87899995	6.74979973	2.625	200	0	0
-3.86100006	6.75010014	2.65199995	200	0	0
-3.86999989	6.75020027	2.65300012	200	0	0
-3.85899997	6.75030088	2.65199995	200	0	0
-3.86299992	6.75039959	2.65199995	200	0	0
-3.88400006	6.75139999	2.68099999	200	0	0
-3.86999989	6.75099993	2.68000007	200	0	0
-3.87899995	6.75129986	2.68000007	200	0	0
-3.8670001	6.75110006	2.68000007	200	0	0
-3.87299991	6.75119972	2.68000007	200	0	0
-3.88100004	6.74979973	2.64599991	200	0	0
-3.86500001	6.75	2.65199995	200	0	0
-3.85800004	6.74989986	2.64499998	200	0	0
-3.86400008	6.75	2.65799999	200	0	0
-3.87199998	6.75010014	2.66000009	200	0	0
-3.86999989	6.75020027	2.66000009	200	0	0
-3.86100006	6.75030088	2.65899992	200	0	0
-3.86599994	6.75039959	2.65899992	200	0	0
-3.86400008	6.75039959	2.66599989	200	0	0
-3.86400008	6.75030088	2.66599989	200	0	0
-3.8829999	6.74979973	2.66599989	200	0	0
-3.86899996	6.75020027	2.66599989	200	0	0
-3.86199999	6.75010014	2.66599989	200	0	0
-3.8829999	6.74979973	2.65300012	200	0	0
-3.86800003	6.75	2.6789999	200	0	0
-3.86299992	6.75010014	2.6789999	200	0	0
-3.86800003	6.75020027	2.68000007	200	0	0
-3.86100006	6.75039959	2.6789999	200	0	0
-3.86100006	6.75030088	2.6789999	200	0	0
-3.86599994	6.74989986	2.6789999	200	0	0
-3.87899995	6.74979973	2.68000007	200	0	0
-3.86100006	6.75099993	1.65799999	200	0	0
-3.8599999	6.75110006	1.65799999	200	0	0
-3.86500001	6.75119972	1.65699995	200	0	0
-3.86500001	6.75099993	1.66400003	200	0	0
-3.86100006	6.75129986	1.65799999	200	0	0
-3.85700011	6.75110006	1.66600001	200	0	0
-3.86500001	6.75099993	1.671	200	0	0
-3.86100006	6.75119972	1.66499996	200	0	0
-3.86500001	6.75139999	1.66400003	200	0	0
-3.86999989	6.75110006	1.66999996	200	0	0
-3.86100006	6.75129986	1.66499996	200	0	0
-3.86400008	6.75099993	1.67799997	200	0	0
-3.86999989	6.75129986	1.66999996	200	0	0
-3.86199999	6.75119972	1.67200005	200	0	0
-3.86800003	6.75110006	1.67700005	200	0	0
-3.86599994	6.75119972	1.67799997	200	0	0
-3.86299992	6.75129986	1.67799997	200	0	0
-3.86400008	6.75099993	1.69200003	200	0	0
-3.87299991	6.75110006	1.69099998	200	0	0
-3.8670001	6.75099993	1.699	200	0	0
-3.86500001	6.75119972	1.69200003	200	0	0
-3.86800003	6.75099993	1.70500004	200	0	0
-3.87199998	6.75129986	1.69099998	200	0	0
-3.87100005	6.75139999	1.69099998	200	0	0
-3.8670001	6.75110006	1.699	200	0	0
-3.86899996	6.75119972	1.69799995	200	0	0
-3.86899996	6.75099993	1.71200001	200	0	0
-3.86400008	6.75110006	1.70599997	200	0	0
-3.86500001	6.75129986	1.699	200	0	0
-3.86400008	6.75119972	1.70599997	200	0	0
-3.86199999	6.75110006	1.71399999	200	0	0
-3.86999989	6.75129986	1.70500004	200	0	0
-3.86500001	6.75099993	1.727	200	0	0
-3.86899996	6.75139999	1.70500004	200	0	0
-3.85800004	6.75099993	1.73500001	200	0	0
-3.86299992	6.75119972	1.71399999	200	0	0
-3.85899997	6.75110006	1.72800004	200	0	0
-3.8670001	6.75139999	1.71300006	200	0	0
-3.86299992	6.75129986	1.71399999	200	0	0
-3.85700011	6.75110006	1.73599994	200	0	0
-3.86199999	6.75119972	1.72800004	200	0	0
-3.86899996	6.75119972	1.73300004	200	0	0
-3.86400008	6.75129986	1.727	200	0	0
-3.86299992	6.75139999	1.72800004	200	0	0
-3.86400008	6.75129986	1.73399997	200	0	0
-3.86599994	6.75139999	1.73399997	200	0	0
-3.86100006	6.75020027	1.699	200	0	0
-3.8599999	6.74979973	1.65699995	200	0	0
-3.88000011	6.74979973	1.67400002	200	0	0
-3.85700011	6.74979973	1.671	200	0	0
-3.84699988	6.75020027	1.68099999	200	0	0
-3.85899997	6.74979973	1.64300001	200	0	0
-3.86299992	6.75099993	1.64300001	200	0	0
-3.8599999	6.75110006	1.64400005	200	0	0
-3.84899998	6.74979973	1.62399995	200	0	0
-3.85299993	6.74979973	1.63	200	0	0
-3.85400009	6.74979973	1.63699996	200	0	0
-3.84800005	6.74979973	1.61000001	200	0	0
-3.86400008	6.75129986	1.64300001	200	0	0
-3.86400008	6.75139999	1.64300001	200	0	0
-3.86400008	6.75119972	1.64300001	200	0	0
-3.86299992	6.75030088	2.70000005	200	0	0
-3.87299991	6.75039959	2.69400001	200	0	0
-3.875	6.75020027	2.70000005	200	0	0
-3.86199999	6.75030088	2.69300008	200	0	0
-3.86500001	6.75039959	2.68600011	200	0	0
-3.85800004	6.75020027	2.69300008	200	0	0
-3.86100006	6.74989986	2.69899988	200	0	0
-3.88000011	6.74979973	2.70000005	200	0	0
-3.87299991	6.75030088	2.68700004	200	0	0
-3.86400008	6.75010014	2.69300008	200	0	0
-3.86599994	6.75	2.69199991	200	0	0
-3.8670001	6.74979973	2.69199991	200	0	0
-3.87100005	6.75020027	2.68700004	200	0	0
-3.86800003	6.75010014	2.68700004	200	0	0
-3.86500001	6.75	2.68600011	200	0	0
-3.87100005	6.74979973	2.68600011	200	0	0
-3.86899996	6.75099993	2.68700004	200	0	0
-3.87400007	6.75039959	2.70000005	200	0	0
-3.88700008	6.75139999	2.70099998	200	0	0
-3.88199997	6.75129986	2.70099998	200	0	0
-3.87800002	6.75119972	2.70099998	200	0	0
-3.86599994	6.75099993	2.70000005	200	0	0
-3.87199998	6.75110006	2.70000005	200	0	0
-3.87800002	6.75129986	2.69400001	200	0	0
-3.87199998	6.75119972	2.69400001	200	0	0
-3.86400008	6.75099993	2.69300008	200	0	0
-3.87199998	6.75110006	2.69400001	200	0	0
-3.87899995	6.75139999	2.68700004	200	0	0
-3.88199997	6.75129986	2.68700004	200	0	0
-3.875	6.75119972	2.68700004	200	0	0
-3.86999989	6.75110006	2.68700004	200	0	0
-3.87899995	6.74979973	2.727	200	0	0
-3.86599994	6.75020027	2.727	200	0	0
-3.8670001	6.75039959	2.72000003	200	0	0
-3.86199999	6.75010014	2.727	200	0	0
-3.86800003	6.75	2.72600007	200	0	0
-3.8599999	6.75030088	2.72000003	200	0	0
-3.86400008	6.75039959	2.71300006	200	0	0
-3.86299992	6.74989986	2.7190001	200	0	0
-3.86100006	6.75	2.7190001	200	0	0
-3.86199999	6.75030088	2.71300006	200	0	0
-3.875	6.74979973	2.71300006	200	0	0
-3.86500001	6.75020027	2.71300006	200	0	0
-3.86400008	6.75010014	2.71300006	200	0	0
-3.86400008	6.75	2.71300006	200	0	0
-3.87400007	6.75119972	2.71399999	200	0	0
-3.87100005	6.75110006	2.71399999	200	0	0
-3.86500001	6.75099993	2.71399999	200	0	0
-3.86299992	6.75039959	2.727	200	0	0
-3.87100005	6.75110006	2.74799991	200	0	0
-3.86899996	6.75099993	2.74799991	200	0	0
-3.88899994	6.75139999	2.7349999	200	0	0
-3.88000011	6.75129986	2.7349999	200	0	0
-3.88499999	6.75139999	2.72799993	200	0	0
-3.87299991	6.75119972	2.73399997	200	0	0
-3.88800001	6.75129986	2.72799993	200	0	0
-3.88899994	6.75139999	2.72199988	200	0	0
-3.86899996	6.75110006	2.73399997	200	0	0
-3.87199998	6.75099993	2.73399997	200	0	0
-3.89299989	6.75139999	2.71499991	200	0	0
-3.87100005	6.75119972	2.727	200	0	0
-3.875	6.75129986	2.72099996	200	0	0
-3.86899996	6.75110006	2.727	200	0	0
-3.86400008	6.75099993	2.727	200	0	0
-3.87700009	6.75119972	2.72099996	200	0	0
-3.86999989	6.75110006	2.72099996	200	0	0
-3.86999989	6.75090075	2.72099996	200	0	0
-3.875	6.75129986	2.71399999	200	0	0
-3.87199998	6.75099993	2.72099996	200	0	0
-3.88599992	6.75139999	2.74900007	200	0	0
-3.87800002	6.75039959	2.7349999	200	0	0
-3.86599994	6.75010014	2.73399997	200	0	0
-3.86800003	6.75020027	2.73399997	200	0	0
-3.86999989	6.75030088	2.73399997	200	0	0
-3.88499999	6.74979973	2.73399997	200	0	0
-3.86299992	6.74989986	2.73300004	200	0	0
-3.86500001	6.75	2.73300004	200	0	0
-3.86899996	6.75039959	2.74699998	200	0	0
-3.87299991	6.75020027	2.74799991	200	0	0
-3.85599995	6.75030088	2.74699998	200	0	0
-3.8599999	6.75010014	2.74699998	200	0	0
-3.86500001	6.75	2.74600005	200	0	0
-3.86800003	6.75039959	2.75399995	200	0	0
-3.88100004	6.74979973	2.74799991	200	0	0
-3.875	6.74979973	2.75399995	200	0	0
-3.86899996	6.75020027	2.75399995	200	0	0
-3.86299992	6.75	2.75300002	200	0	0
-3.86299992	6.75030088	2.75399995	200	0	0
-3.86500001	6.75010014	2.76099992	200	0	0
-3.8670001	6.75020027	2.76099992	200	0	0
-3.8670001	6.75039959	2.76099992	200	0	0
-3.86199999	6.75	2.75999999	200	0	0
-3.87599993	6.74979973	2.76099992	200	0	0
-3.86999989	6.75039959	2.76799989	200	0	0
-3.86400008	6.75030088	2.76699996	200	0	0
-3.87199998	6.75020027	2.76799989	200	0	0
-3.86999989	6.75010014	2.76799989	200	0	0
-3.8599999	6.75110006	1.55900002	200	0	0
-3.85299993	6.75139999	1.56799996	200	0	0
-3.85599995	6.75099993	1.55999994	200	0	0
-3.86400008	6.75129986	1.56500006	200	0	0
-3.85299993	6.75119972	1.56799996	200	0	0
-3.85500002	6.75110006	1.56700003	200	0	0
-3.852	6.75099993	1.56799996	200	0	0
-3.86100006	6.75129986	1.57299995	200	0	0
-3.85700011	6.75119972	1.574	200	0	0
-3.8599999	6.75110006	1.57299995	200	0	0
-3.8499999	6.75099993	1.57500005	200	0	0
-3.86100006	6.75139999	1.58700001	200	0	0
-3.8599999	6.75129986	1.58800006	200	0	0
-3.85400009	6.75110006	1.58899999	200	0	0
-3.84699988	6.75099993	1.59000003	200	0	0
-3.85400009	6.75129986	1.59599996	200	0	0
-3.852	6.75139999	1.60300004	200	0	0
-3.85599995	6.75119972	1.59500003	200	0	0
-3.85899997	6.75110006	1.59500003	200	0	0
-3.85899997	6.75129986	1.602	200	0	0
-3.85899997	6.75139999	1.60899997	200	0	0
-3.85899997	6.75099993	1.59500003	200	0	0
-3.8670001	6.75129986	1.60699999	200	0	0
-3.86500001	6.75110006	1.60000002	200	0	0
-3.85599995	6.75119972	1.60300004	200	0	0
-3.852	6.75099993	1.60300004	200	0	0
-3.85899997	6.75139999	1.62300003	200	0	0
-3.8599999	6.75119972	1.60899997	200	0	0
-3.8599999	6.75110006	1.60899997	200	0	0
-3.86199999	6.75099993	1.60800004	200	0	0
-3.85899997	6.75139999	1.63	200	0	0
-3.86800003	6.75139999	1.63499999	200	0	0
-3.8599999	6.75129986	1.62300003	200	0	0
-3.85500002	6.75129986	1.63100004	200	0	0
-3.86100006	6.75119972	1.62300003	200	0	0
-3.86100006	6.75129986	1.63699996	200	0	0
-3.85899997	6.75110006	1.62300003	200	0	0
-3.86299992	6.75119972	1.62899995	200	0	0
-3.852	6.75099993	1.62399995	200	0	0
-3.86100006	6.75110006	1.63	200	0	0
-3.86100006	6.75099993	1.62899995	200	0	0
-3.86800003	6.75099993	1.63499999	200	0	0
-3.8599999	6.75110006	1.63699996	200	0	0
-3.85800004	6.75119972	1.55999994	200	0	0
-3.8599999	6.75139999	1.55900002	200	0	0
-3.85500002	6.75020027	1.574	200	0	0
-3.84699988	6.74979973	1.58899999	200	0	0
-3.84500003	6.74979973	1.597	200	0	0
-3.84699988	6.74979973	1.60300004	200	0	0
-3.88000011	6.75030088	2.796	200	0	0
-3.87199998	6.75020027	2.79500008	200	0	0
-3.86800003	6.75039959	2.79500008	200	0	0
-3.86299992	6.75	2.78699994	200	0	0
-3.875	6.75020027	2.78900003	200	0	0
