-0.72299999	6.86919975	-0.0289999992	200	0	0
-0.722000003	6.86909962	-0.0260000005	200	0	0
-0.72299999	6.86900091	-0.0299999993	200	0	0
-0.718999982	6.8689003	-0.0340000018	200	0	0
-0.725000024	6.8689003	-0.0199999996	200	0	0
-0.722000003	6.8689003	-0.0280000009	200	0	0
-0.721000016	6.86969948	-0.0250000004	200	0	0
-0.721000016	6.8696003	-0.0240000002	200	0	0
-0.748000026	6.86929989	-0.0869999975	200	0	0
-0.68599999	6.86880016	-0.164000005	200	0	0
-0.72299999	6.87010002	-0.0289999992	200	0	0
-0.728999972	6.86999989	-0.0189999994	200	0	0
-0.722000003	6.86999989	-0.0270000007	200	0	0
-0.721000016	6.86979961	-0.0240000002	200	0	0
-0.721000016	6.87059975	-0.0250000004	200	0	0
-0.721000016	6.87039995	-0.023	200	0	0
-0.723999977	6.87030077	-0.0329999998	200	0	0
-0.722000003	6.87099981	-0.0280000009	200	0	0
-0.722000003	6.87090111	-0.0280000009	200	0	0
-0.722000003	6.87080002	-0.0289999992	200	0	0
-0.721000016	6.87069988	-0.0250000004	200	0	0
-0.721000016	6.87159967	-0.023	200	0	0
-0.730000019	6.87109995	-0.109999999	200	0	0
-0.721000016	6.87150097	-0.0240000002	200	0	0
-0.72299999	6.87140036	-0.0299999993	200	0	0
-0.722000003	6.87130022	-0.0289999992	200	0	0
-0.72299999	6.87120008	-0.0320000015	200	0	0
-0.722000003	6.87190008	-0.0270000007	200	0	0
-0.722000003	6.87179995	-0.0270000007	200	0	0
-0.720000029	6.87190008	-0.108999997	200	0	0
-0.722000003	6.87249994	-0.0289999992	200	0	0
-0.72299999	6.87239981	-0.0299999993	200	0	0
-0.723999977	6.87229967	-0.0359999985	200	0	0
-0.721000016	6.87219954	-0.023	200	0	0
-0.722000003	6.87210035	-0.0280000009	200	0	0
-0.72299999	6.87200022	-0.0309999995	200	0	0
-0.723999977	6.87200022	-0.0189999994	200	0	0
-0.694999993	6.87179995	-0.160999998	200	0	0
-0.68900001	6.87169981	-0.159999996	200	0	0
-0.686999977	6.87120008	-0.169	200	0	0
-0.722000003	6.87280083	-0.0299999993	200	0	0
-0.723999977	6.87270021	-0.0379999988	200	0	0
-0.722000003	6.87260008	-0.0299999993	200	0	0
-0.686999977	6.87219954	-0.170000002	200	0	0
-0.722000003	6.87340069	-0.0289999992	200	0	0
-0.723999977	6.87330008	-0.0209999997	200	0	0
-0.722000003	6.87330008	-0.0289999992	200	0	0
-0.722000003	6.8730998	-0.0299999993	200	0	0
-0.72299999	6.87299967	-0.0320000015	200	0	0
-0.726000011	6.87290001	-0.0439999998	200	0	0
-0.721000016	6.87380028	-0.0260000005	200	0	0
-0.72299999	6.87370014	-0.0320000015	200	0	0
-0.730000019	6.87360001	-0.0240000002	200	0	0
-0.721000016	6.87360001	-0.0260000005	200	0	0
-0.726000011	6.87349987	-0.0430000015	200	0	0
-0.675000012	6.8730998	-0.182999998	200	0	0
-0.68900001	6.87280083	-0.159999996	200	0	0
-0.722000003	6.8743	-0.0299999993	200	0	0
-0.72299999	6.87419987	-0.0329999998	200	0	0
-0.721000016	6.87409973	-0.0270000007	200	0	0
-0.721000016	6.87400103	-0.0270000007	200	0	0
-0.720000029	6.87460041	-0.0240000002	200	0	0
-0.721000016	6.87450027	-0.0260000005	200	0	0
-0.720000029	6.87440014	-0.0219999999	200	0	0
-0.685000002	6.87400103	-0.165000007	200	0	0
-0.683000028	6.87380028	-0.157000005	200	0	0
-0.685000002	6.87360001	-0.166999996	200	0	0
-0.684000015	6.87340069	-0.180000007	200	0	0
-0.722000003	6.87520027	-0.0289999992	200	0	0
-0.721000016	6.87510014	-0.0260000005	200	0	0
-0.720000029	6.875	-0.0240000002	200	0	0
-0.721000016	6.87489986	-0.0270000007	200	0	0
-0.722000003	6.87479973	-0.0280000009	200	0	0
-0.685000002	6.87409973	-0.164000005	200	0	0
-0.722000003	6.87619972	-0.0299999993	200	0	0
-0.722000003	6.87610006	-0.0289999992	200	0	0
-0.722000003	6.87590075	-0.0309999995	200	0	0
-0.722000003	6.87559986	-0.0289999992	200	0	0
-0.722000003	6.87719965	-0.0309999995	200	0	0
-0.721000016	6.87700033	-0.0280000009	200	0	0
-0.720000029	6.8769002	-0.023	200	0	0
-0.721000016	6.87680006	-0.0270000007	200	0	0
-0.721000016	6.87669992	-0.0289999992	200	0	0
-0.721000016	6.87659979	-0.0270000007	200	0	0
-0.742999971	6.87650108	-0.0370000005	200	0	0
-0.721000016	6.87650108	-0.0260000005	200	0	0
-0.720000029	6.87639999	-0.0240000002	200	0	0
-0.72299999	6.87629986	-0.0179999992	200	0	0
-0.72299999	6.87629986	-0.0320000015	200	0	0
-0.721000016	6.87799978	-0.0289999992	200	0	0
-0.721000016	6.87789965	-0.0260000005	200	0	0
-0.72299999	6.87770033	-0.0340000018	200	0	0
-0.722000003	6.87760019	-0.0289999992	200	0	0
-0.721000016	6.87750006	-0.0270000007	200	0	0
-0.721000016	6.87739992	-0.0280000009	200	0	0
-0.721000016	6.87729979	-0.0260000005	200	0	0
-0.721000016	6.87890005	-0.0270000007	200	0	0
-0.721000016	6.87869978	-0.0280000009	200	0	0
-0.722000003	6.87859964	-0.0289999992	200	0	0
-0.720000029	6.87849998	-0.0250000004	200	0	0
-0.721000016	6.8784008	-0.0260000005	200	0	0
-0.721000016	6.87830019	-0.0260000005	200	0	0
-0.722000003	6.87820005	-0.0289999992	200	0	0
-0.721000016	6.87979984	-0.0260000005	200	0	0
-0.727999985	6.87969971	-0.0179999992	200	0	0
-0.720000029	6.87969971	-0.023	200	0	0
-0.721000016	6.87960005	-0.0260000005	200	0	0
-0.72299999	6.87930012	-0.0189999994	200	0	0
-0.72299999	6.87930012	-0.0329999998	200	0	0
-0.721000016	6.87919998	-0.0260000005	200	0	0
-0.721000016	6.87900066	-0.0270000007	200	0	0
-0.748000026	6.88049984	-0.0879999995	200	0	0
-0.717999995	6.88070011	-0.0289999992	200	0	0
-0.718999982	6.88059998	-0.0359999985	200	0	0
-0.720000029	6.88049984	-0.0209999997	200	0	0
-0.721000016	6.880301	-0.023	200	0	0
-0.720000029	6.88000011	-0.023	200	0	0
-0.685000002	6.88070011	-0.162	200	0	0
-0.799000025	6.88080025	-0.0309999995	200	0	0
-0.805999994	6.88070011	-0.0399999991	200	0	0
-0.720000029	6.88080025	-0.0219999999	200	0	0
-0.723999977	6.88090086	-0.0340000018	200	0	0
-0.717999995	6.88170004	-0.0289999992	200	0	0
-0.721000016	6.8815999	-0.0240000002	200	0	0
-0.717999995	6.8815999	-0.0289999992	200	0	0
-0.718999982	6.88150072	-0.0320000015	200	0	0
-0.721000016	6.88140011	-0.0219999999	200	0	0
-0.718999982	6.88129997	-0.0340000018	200	0	0
-0.722000003	6.88129997	-0.0289999992	200	0	0
-0.68599999	6.88080025	-0.167999998	200	0	0
-0.856000006	6.88049984	-0.122000001	200	0	0
-0.720000029	6.8817997	-0.0199999996	200	0	0
-0.718999982	6.8817997	-0.0340000018	200	0	0
-0.717000008	6.88240004	-0.0280000009	200	0	0
-0.720000029	6.8822999	-0.0370000005	200	0	0
-0.720000029	6.88219976	-0.0199999996	200	0	0
-0.720000029	6.88219976	-0.0370000005	200	0	0
-0.718999982	6.88210011	-0.0329999998	200	0	0
-0.721000016	6.88199997	-0.023	200	0	0
-0.718999982	6.88199997	-0.0340000018	200	0	0
-0.721000016	6.88189983	-0.023	200	0	0
-0.866999984	6.88000011	-0.108999997	200	0	0
-0.852999985	6.88000011	-0.111000001	200	0	0
-0.720000029	6.88269997	-0.0350000001	200	0	0
-0.721000016	6.88269997	-0.0209999997	200	0	0
-0.704999983	6.8829999	-0.104999997	200	0	0
-0.718999982	6.8833003	-0.0329999998	200	0	0
-0.802999973	6.88250017	-0.0430000015	200	0	0
-0.717999995	6.88320017	-0.0309999995	200	0	0
-0.721000016	6.8829999	-0.0240000002	200	0	0
-0.720000029	6.88289976	-0.0359999985	200	0	0
-0.717999995	6.88280106	-0.0309999995	200	0	0
-0.869000018	6.87930012	-0.0869999975	200	0	0
-0.884000003	6.87930012	-0.101999998	200	0	0
-0.720000029	6.88369989	-0.0370000005	200	0	0
-0.717999995	6.88359976	-0.0280000009	200	0	0
-0.722000003	6.88349962	-0.0419999994	200	0	0
-0.722000003	6.88340092	-0.0280000009	200	0	0
-0.68599999	6.88240004	-0.165000007	200	0	0
-0.683000028	6.8829999	-0.172000006	200	0	0
-0.68599999	6.88269997	-0.164000005	200	0	0
-0.689999998	6.8833003	-0.160999998	200	0	0
-0.685000002	6.88280106	-0.163000003	200	0	0
-0.68900001	6.88269997	-0.158999994	200	0	0
-0.685000002	6.88310003	-0.162	200	0	0
-0.718999982	6.88419962	-0.0320000015	200	0	0
-0.720000029	6.88409996	-0.0199999996	200	0	0
-0.721000016	6.88409996	-0.0419999994	200	0	0
-0.720000029	6.88400078	-0.0189999994	200	0	0
-0.720000029	6.88400078	-0.0359999985	200	0	0
-0.717000008	6.88390017	-0.0270000007	200	0	0
-0.722000003	6.88380003	-0.0270000007	200	0	0
-0.717000008	6.88380003	-0.0270000007	200	0	0
-0.853999972	6.88289976	-0.114	200	0	0
-0.861999989	6.8822999	-0.108999997	200	0	0
-0.851000011	6.88280106	-0.104000002	200	0	0
-0.839999974	6.87869978	-0.0879999995	200	0	0
-0.718999982	6.88460016	-0.0320000015	200	0	0
-0.720000029	6.88439989	-0.0199999996	200	0	0
-0.721000016	6.88429976	-0.0240000002	200	0	0
-0.717999995	6.88429976	-0.0280000009	200	0	0
-0.68599999	6.88199997	-0.165000007	200	0	0
-0.685000002	6.88210011	-0.162	200	0	0
-0.685000002	6.88390017	-0.160999998	200	0	0
-0.720000029	6.88509989	-0.0350000001	200	0	0
-0.717999995	6.88500023	-0.0299999993	200	0	0
-0.717000008	6.88490009	-0.0270000007	200	0	0
-0.721000016	6.88469982	-0.0219999999	200	0	0
-0.861999989	6.88349962	-0.0930000022	200	0	0
-0.850000024	6.88349962	-0.115000002	200	0	0
-0.720000029	6.88549995	-0.0199999996	200	0	0
-0.721000016	6.88530111	-0.0240000002	200	0	0
-0.68599999	6.88450003	-0.165000007	200	0	0
-0.717999995	6.88580036	-0.0320000015	200	0	0
-0.721000016	6.88560009	-0.023	200	0	0
-0.720000029	6.88560009	-0.0359999985	200	0	0
-0.721000016	6.88640022	-0.0240000002	200	0	0
-0.717999995	6.88630009	-0.0289999992	200	0	0
-0.721000016	6.88619995	-0.0240000002	200	0	0
-0.721000016	6.88609982	-0.0250000004	200	0	0
-0.720000029	6.88669968	-0.0209999997	200	0	0
-0.722000003	6.88659954	-0.0270000007	200	0	0
-0.720000029	6.88730001	-0.0199999996	200	0	0
-0.721000016	6.88719988	-0.0240000002	200	0	0
-0.721000016	6.88710022	-0.0250000004	200	0	0
-0.720000029	6.88700008	-0.0209999997	200	0	0
-0.717000008	6.88689995	-0.0260000005	200	0	0
-0.716000021	6.88679981	-0.0240000002	200	0	0
-0.720000029	6.88679981	-0.0199999996	200	0	0
-0.720000029	6.88739967	-0.0199999996	200	0	0
-0.721000016	6.88820028	-0.023	200	0	0
-0.704999983	6.88749981	-0.105999999	200	0	0
-0.717999995	6.88780069	-0.0309999995	200	0	0
-0.718999982	6.88770008	-0.0329999998	200	0	0
-0.721000016	6.88770008	-0.0240000002	200	0	0
-0.720000029	6.88829994	-0.0189999994	200	0	0
-0.720000029	6.88900089	-0.023	200	0	0
-0.722000003	6.88890028	-0.0270000007	200	0	0
-0.720000029	6.88870001	-0.023	200	0	0
-0.722000003	6.88859987	-0.0289999992	200	0	0
-0.684000015	6.88749981	-0.158999994	200	0	0
-0.686999977	6.88759995	-0.150999993	200	0	0
-0.721000016	6.88919973	-0.0260000005	200	0	0
-0.722000003	6.88989973	-0.0309999995	200	0	0
-0.721000016	6.88969994	-0.0240000002	200	0	0
-0.720000029	6.88960028	-0.023	200	0	0
-0.721000016	6.88950014	-0.0250000004	200	0	0
-0.721000016	6.88940001	-0.0250000004	200	0	0
-0.720000029	6.88929987	-0.0219999999	200	0	0
-0.68599999	6.88849974	-0.165999994	200	0	0
-0.725000024	6.8901	-0.023	200	0	0
-0.721000016	6.8901	-0.0250000004	200	0	0
-0.720000029	6.8908	-0.023	200	0	0
-0.717999995	6.89069986	-0.0340000018	200	0	0
-0.722000003	6.89069986	-0.0280000009	200	0	0
-0.721000016	6.89050007	-0.0240000002	200	0	0
-0.685000002	6.88859987	-0.164000005	200	0	0
-0.717999995	6.89099979	-0.0329999998	200	0	0
-0.720000029	6.89099979	-0.0219999999	200	0	0
-0.722000003	6.89090109	-0.0280000009	200	0	0
-0.721000016	6.89109993	-0.0270000007	200	0	0
-0.721000016	6.89169979	-0.0250000004	200	0	0
-0.722000003	6.89159966	-0.0299999993	200	0	0
-0.721000016	6.89150095	-0.0270000007	200	0	0
-0.721000016	6.89140034	-0.0250000004	200	0	0
-0.722000003	6.8913002	-0.0280000009	200	0	0
-0.72299999	6.89190006	-0.0320000015	200	0	0
-0.722000003	6.89260006	-0.0289999992	200	0	0
-0.720000029	6.89249992	-0.0240000002	200	0	0
-0.725000024	6.89239979	-0.0219999999	200	0	0
-0.722000003	6.89229965	-0.0280000009	200	0	0
-0.722000003	6.89210033	-0.0309999995	200	0	0
-0.721000016	6.89280081	-0.0280000009	200	0	0
-0.720000029	6.8927002	-0.0240000002	200	0	0
-0.721000016	6.89359999	-0.0280000009	200	0	0
-0.723999977	6.89349985	-0.0209999997	200	0	0
-0.722000003	6.89349985	-0.0299999993	200	0	0
-0.72299999	6.89340067	-0.0340000018	200	0	0
-0.720000029	6.89319992	-0.0260000005	200	0	0
-0.720000029	6.89309978	-0.0260000005	200	0	0
-0.722000003	6.89299965	-0.0309999995	200	0	0
-0.721000016	6.89370012	-0.0280000009	200	0	0
-0.723999977	6.89359999	-0.0209999997	200	0	0
-0.739000022	6.89450026	-0.0250000004	200	0	0
-0.721000016	6.89450026	-0.0280000009	200	0	0
-0.722000003	6.89440012	-0.0320000015	200	0	0
-0.720000029	6.89429998	-0.0240000002	200	0	0
-0.721000016	6.89419985	-0.0280000009	200	0	0
-0.721000016	6.89409971	-0.0280000009	200	0	0
-0.721000016	6.89400101	-0.0280000009	200	0	0
-0.72299999	6.89389992	-0.0350000001	200	0	0
-0.72299999	6.89380026	-0.0340000018	200	0	0
-0.72299999	6.89460039	-0.0350000001	200	0	0
-0.721000016	6.89539957	-0.0280000009	200	0	0
-0.721000016	6.89530087	-0.0299999993	200	0	0
-0.72299999	6.89530087	-0.0199999996	200	0	0
-0.721000016	6.89520025	-0.0280000009	200	0	0
-0.72299999	6.89520025	-0.0209999997	200	0	0
-0.720000029	6.89510012	-0.0260000005	200	0	0
-0.723999977	6.89510012	-0.0219999999	200	0	0
-0.72299999	6.89499998	-0.0209999997	200	0	0
-0.721000016	6.89489985	-0.0280000009	200	0	0
-0.72299999	6.89489985	-0.0199999996	200	0	0
-0.721000016	6.89479971	-0.0280000009	200	0	0
-0.72299999	6.89479971	-0.0189999994	200	0	0
-0.72299999	6.89469957	-0.0350000001	200	0	0
-0.723999977	6.89469957	-0.0219999999	200	0	0
-0.720000029	6.89549971	-0.0260000005	200	0	0
-0.72299999	6.89629984	-0.0390000008	200	0	0
-0.721000016	6.89620018	-0.0320000015	200	0	0
-0.723999977	6.89610004	-0.0240000002	200	0	0
-0.721000016	6.89599991	-0.0299999993	200	0	0
-0.721000016	6.89590073	-0.0309999995	200	0	0
-0.723999977	6.89580011	-0.0419999994	200	0	0
-0.726999998	6.89580011	-0.0199999996	200	0	0
-0.727999985	6.89559984	-0.0199999996	200	0	0
-0.72299999	6.89559984	-0.0379999988	200	0	0
-0.726000011	6.89559984	-0.0299999993	200	0	0
-0.721000016	6.89639997	-0.0309999995	200	0	0
-0.72299999	6.89639997	-0.0219999999	200	0	0
-0.72299999	6.89719963	-0.0209999997	200	0	0
-0.723999977	6.89719963	-0.0419999994	200	0	0
-0.72299999	6.89710045	-0.0189999994	200	0	0
-0.721000016	6.89710045	-0.0289999992	200	0	0
-0.721000016	6.89700031	-0.0299999993	200	0	0
-0.721000016	6.89650106	-0.103	200	0	0
-0.720000029	6.89690018	-0.0260000005	200	0	0
-0.72299999	6.89680004	-0.0199999996	200	0	0
-0.727999985	6.89680004	-0.0240000002	200	0	0
-0.718999982	6.89680004	-0.0250000004	200	0	0
-0.718999982	6.89669991	-0.0250000004	200	0	0
-0.720000029	6.89659977	-0.0270000007	200	0	0
-0.720000029	6.89650106	-0.0280000009	200	0	0
-0.723999977	6.89729977	-0.0240000002	200	0	0
-0.721000016	6.89729977	-0.0309999995	200	0	0
-0.723999977	6.8973999	-0.023	200	0	0
-0.722000003	6.8980999	-0.0340000018	200	0	0
-0.711000025	6.89750004	-0.0970000029	200	0	0
-0.720000029	6.89799976	-0.0260000005	200	0	0
-0.722000003	6.89789963	-0.0329999998	200	0	0
-0.721000016	6.89780092	-0.0299999993	200	0	0
-0.721000016	6.89770031	-0.0299999993	200	0	0
-0.723999977	6.89760017	-0.0219999999	200	0	0
-0.721000016	6.89750004	-0.0299999993	200	0	0
-0.720000029	6.8973999	-0.0270000007	200	0	0
-0.685000002	6.89590073	-0.169	200	0	0
-0.721000016	6.89820004	-0.0299999993	200	0	0
-0.723999977	6.89820004	-0.0219999999	200	0	0
-0.722000003	6.89830017	-0.0350000001	200	0	0
-0.722000003	6.89909983	-0.0329999998	200	0	0
-0.721000016	6.89900064	-0.0289999992	200	0	0
-0.727999985	6.89890003	-0.0219999999	200	0	0
-0.722000003	6.89890003	-0.0309999995	200	0	0
-0.722000003	6.8987999	-0.0329999998	200	0	0
-0.72299999	6.89869976	-0.0370000005	200	0	0
-0.722000003	6.89859962	-0.0329999998	200	0	0
-0.721000016	6.89849997	-0.0299999993	200	0	0
-0.721000016	6.89840078	-0.0289999992	200	0	0
-0.688000023	6.89750004	-0.159999996	200	0	0
-0.688000023	6.89760017	-0.158999994	200	0	0
-0.723999977	6.89919996	-0.0390000008	200	0	0
-0.805999994	6.89900064	-0.0439999998	200	0	0
-0.720000029	6.89989996	-0.0260000005	200	0	0
-0.725000024	6.89979982	-0.0240000002	200	0	0
-0.721000016	6.89979982	-0.0270000007	200	0	0
-0.728999972	6.89969969	-0.0209999997	200	0	0
-0.723999977	6.89969969	-0.0240000002	200	0	0
-0.722000003	6.89969969	-0.0309999995	200	0	0
-0.723999977	6.89949989	-0.0219999999	200	0	0
-0.721000016	6.89949989	-0.0280000009	200	0	0
-0.723999977	6.89940023	-0.0219999999	200	0	0
-0.722000003	6.89940023	-0.0309999995	200	0	0
-0.720000029	6.8993001	-0.0250000004	200	0	0
-0.723999977	6.90070009	-0.0359999985	200	0	0
-0.721000016	6.90059996	-0.0250000004	200	0	0
-0.722000003	6.90039968	-0.0320000015	200	0	0
-0.723999977	6.90030098	-0.0209999997	200	0	0
-0.722000003	6.90030098	-0.0320000015	200	0	0
-0.720000029	6.90020037	-0.0240000002	200	0	0
-0.721000016	6.90159988	-0.0240000002	200	0	0
-0.713999987	6.90070009	-0.108000003	200	0	0
-0.748000026	6.90109968	-0.0890000015	200	0	0
-0.72299999	6.90140009	-0.0299999993	200	0	0
-0.721000016	6.90129995	-0.0260000005	200	0	0
-0.721000016	6.90119982	-0.0260000005	200	0	0
-0.725000024	6.90109968	-0.0240000002	200	0	0
-0.722000003	6.90109968	-0.0270000007	200	0	0
-0.725000024	6.90099955	-0.0209999997	200	0	0
-0.72299999	6.90090084	-0.0320000015	200	0	0
-0.722000003	6.90250015	-0.0240000002	200	0	0
-0.722000003	6.90240002	-0.0399999991	200	0	0
-0.722000003	6.90240002	-0.0260000005	200	0	0
-0.721000016	6.90229988	-0.0219999999	200	0	0
-0.722000003	6.90210009	-0.0399999991	200	0	0
-0.725000024	6.90210009	-0.0199999996	200	0	0
-0.72299999	6.90210009	-0.0280000009	200	0	0
-0.721000016	6.90199995	-0.0379999988	200	0	0
-0.723999977	6.90170002	-0.0320000015	200	0	0
-0.68599999	6.9000001	-0.167999998	200	0	0
-0.68599999	6.90140009	-0.165999994	200	0	0
-0.68599999	6.90129995	-0.166999996	200	0	0
-0.680999994	6.90059996	-0.167999998	200	0	0
-0.685000002	6.90049982	-0.166999996	200	0	0
-0.680999994	6.90070009	-0.167999998	200	0	0
-0.68900001	6.90059996	-0.162	200	0	0
-0.688000023	6.90070009	-0.157000005	200	0	0
-0.722000003	6.9034009	-0.0399999991	200	0	0
-0.721000016	6.90330029	-0.0350000001	200	0	0
-0.720000029	6.90320015	-0.0329999998	200	0	0
-0.722000003	6.90320015	-0.0219999999	200	0	0
-0.721000016	6.90310001	-0.0209999997	200	0	0
-0.721000016	6.90289974	-0.0359999985	200	0	0
-0.722000003	6.90289974	-0.0240000002	200	0	0
-0.722000003	6.90280104	-0.0410000011	200	0	0
-0.722000003	6.90280104	-0.0250000004	200	0	0
-0.718999982	6.90270042	-0.0309999995	200	0	0
-0.722000003	6.90270042	-0.0240000002	200	0	0
-0.72299999	6.90260029	-0.0280000009	200	0	0
-0.686999977	6.90229988	-0.165999994	200	0	0
-0.726000011	6.90429974	-0.0170000009	200	0	0
-0.722000003	6.90429974	-0.0370000005	200	0	0
-0.722000003	6.9041996	-0.0199999996	200	0	0
-0.720000029	6.9041996	-0.0289999992	200	0	0
-0.721000016	6.90409994	-0.0350000001	200	0	0
-0.720000029	6.90400076	-0.0299999993	200	0	0
-0.720000029	6.90390015	-0.0299999993	200	0	0
-0.72299999	6.90380001	-0.0240000002	200	0	0
-0.720000029	6.90380001	-0.0299999993	200	0	0
-0.720000029	6.90369987	-0.0309999995	200	0	0
-0.72299999	6.90359974	-0.0250000004	200	0	0
-0.723999977	6.90359974	-0.0439999998	200	0	0
-0.722000003	6.9034996	-0.0390000008	200	0	0
-0.718999982	6.9052	-0.0260000005	200	0	0
-0.72299999	6.9052	-0.0219999999	200	0	0
-0.720000029	6.90509987	-0.0289999992	200	0	0
-0.722000003	6.90500021	-0.0379999988	200	0	0
-0.718999982	6.90490007	-0.0280000009	200	0	0
-0.718999982	6.90479994	-0.0250000004	200	0	0
-0.718999982	6.9046998	-0.0280000009	200	0	0
-0.718999982	6.90460014	-0.0280000009	200	0	0
-0.721000016	6.90450001	-0.0340000018	200	0	0
-0.720000029	6.90439987	-0.0299999993	200	0	0
-0.72299999	6.9060998	-0.023	200	0	0
-0.718999982	6.9060998	-0.023	200	0	0
-0.717999995	6.90599966	-0.0219999999	200	0	0
-0.720000029	6.90580034	-0.0289999992	200	0	0
-0.722000003	6.90549994	-0.0189999994	200	0	0
-0.721000016	6.90549994	-0.0309999995	200	0	0
-0.717999995	6.9053998	-0.0240000002	200	0	0
-0.721000016	6.90530109	-0.0309999995	200	0	0
-0.712000012	6.90700006	-0.0309999995	200	0	0
-0.721000016	6.90700006	-0.0309999995	200	0	0
-0.718999982	6.90689993	-0.023	200	0	0
-0.718999982	6.90679979	-0.0219999999	200	0	0
-0.721000016	6.90669966	-0.0309999995	200	0	0
-0.720000029	6.90659952	-0.0270000007	200	0	0
-0.721000016	6.90630007	-0.0299999993	200	0	0
-0.718999982	6.90619993	-0.0219999999	200	0	0
-0.720000029	6.90780067	-0.023	200	0	0
-0.728999972	6.90770006	-0.0240000002	200	0	0
-0.720000029	6.90770006	-0.0240000002	200	0	0
-0.713	6.90770006	-0.0320000015	200	0	0
-0.720000029	6.90749979	-0.023	200	0	0
-0.713	6.90749979	-0.0320000015	200	0	0
-0.720000029	6.9073	-0.0250000004	200	0	0
-0.718999982	6.90719986	-0.0199999996	200	0	0
-0.730000019	6.90780067	-0.114	200	0	0
-0.720000029	6.90869999	-0.0219999999	200	0	0
-0.712000012	6.90849972	-0.0299999993	200	0	0
-0.713	6.90840101	-0.0340000018	200	0	0
-0.718999982	6.90820026	-0.0199999996	200	0	0
-0.720000029	6.90810013	-0.0240000002	200	0	0
-0.68900001	6.9083004	-0.164000005	200	0	0
-0.718999982	6.90960026	-0.0189999994	200	0	0
-0.713999987	6.90950012	-0.0340000018	200	0	0
-0.722000003	6.90950012	-0.0270000007	200	0	0
-0.713	6.90939999	-0.0289999992	200	0	0
-0.721000016	6.90939999	-0.0240000002	200	0	0
-0.720000029	6.90929985	-0.0219999999	200	0	0
-0.718999982	6.90919971	-0.0199999996	200	0	0
-0.713999987	6.90909958	-0.0350000001	200	0	0
-0.716000021	6.90900087	-0.0399999991	200	0	0
-0.713999987	6.90880013	-0.0350000001	200	0	0
-0.670000017	6.90909958	-0.180999994	200	0	0
-0.714999974	6.91039991	-0.0350000001	200	0	0
-0.714999974	6.91030073	-0.0379999988	200	0	0
-0.721000016	6.91020012	-0.0260000005	200	0	0
-0.714999974	6.90969992	-0.0379999988	200	0	0
-0.721000016	6.90979958	-0.0250000004	200	0	0
-0.68900001	6.90939999	-0.158999994	200	0	0
-0.722000003	6.91130018	-0.0260000005	200	0	0
-0.713	6.91130018	-0.0270000007	200	0	0
-0.718999982	6.91120005	-0.0170000009	200	0	0
-0.716000021	6.91120005	-0.0399999991	200	0	0
-0.720000029	6.91109991	-0.0189999994	200	0	0
-0.714999974	6.91109991	-0.0329999998	200	0	0
-0.720000029	6.91099977	-0.0179999992	200	0	0
-0.713999987	6.91099977	-0.0299999993	200	0	0
-0.720000029	6.91090107	-0.0199999996	200	0	0
-0.714999974	6.91090107	-0.0359999985	200	0	0
-0.721000016	6.91079998	-0.023	200	0	0
-0.713999987	6.91079998	-0.0309999995	200	0	0
-0.713999987	6.91069984	-0.0340000018	200	0	0
-0.720000029	6.91060019	-0.0209999997	200	0	0
-0.714999974	6.9121995	-0.0329999998	200	0	0
-0.716000021	6.91210032	-0.0359999985	200	0	0
-0.717000008	6.91200018	-0.0430000015	200	0	0
-0.714999974	6.91190004	-0.0340000018	200	0	0
-0.713999987	6.91179991	-0.0320000015	200	0	0
-0.714999974	6.91159964	-0.0340000018	200	0	0
-0.713999987	6.91150093	-0.0299999993	200	0	0
-0.720000029	6.91150093	-0.0199999996	200	0	0
-0.713999987	6.91140032	-0.0320000015	200	0	0
-0.713999987	6.91300011	-0.0299999993	200	0	0
-0.714999974	6.91289997	-0.0320000015	200	0	0
-0.717999995	6.91280079	-0.0430000015	200	0	0
-0.72299999	6.91260004	-0.0260000005	200	0	0
-0.716000021	6.91260004	-0.0350000001	200	0	0
-0.713999987	6.9124999	-0.0289999992	200	0	0
-0.716000021	6.91239977	-0.0359999985	200	0	0
-0.713999987	6.91229963	-0.0299999993	200	0	0
-0.721000016	6.91390038	-0.0189999994	200	0	0
-0.714999974	6.91390038	-0.0320000015	200	0	0
-0.716000021	6.9137001	-0.0340000018	200	0	0
-0.714999974	6.91349983	-0.0320000015	200	0	0
-0.713999987	6.91330004	-0.0270000007	200	0	0
-0.725000024	6.9131999	-0.0170000009	200	0	0
-0.722000003	6.9131999	-0.023	200	0	0
-0.714999974	6.91469955	-0.0320000015	200	0	0
-0.717000008	6.91460037	-0.0370000005	200	0	0
-0.714999974	6.91450024	-0.0299999993	200	0	0
-0.713999987	6.91429996	-0.0260000005	200	0	0
-0.722000003	6.91429996	-0.0199999996	200	0	0
-0.714999974	6.91419983	-0.0320000015	200	0	0
-0.722000003	6.91419983	-0.0219999999	200	0	0
-0.714999974	6.91409969	-0.0320000015	200	0	0
-0.716000021	6.91400099	-0.0340000018	200	0	0
-0.714999974	6.91559982	-0.0299999993	200	0	0
-0.716000021	6.91539955	-0.0350000001	200	0	0
-0.714999974	6.91520023	-0.0289999992	200	0	0
-0.722000003	6.9151001	-0.0209999997	200	0	0
-0.716000021	6.91489983	-0.0350000001	200	0	0
-0.714999974	6.91659975	-0.0289999992	200	0	0
-0.722000003	6.91629982	-0.0209999997	200	0	0
-0.714999974	6.91629982	-0.0320000015	200	0	0
-0.714999974	6.91620016	-0.0289999992	200	0	0
-0.714999974	6.91610003	-0.0299999993	200	0	0
-0.713999987	6.91599989	-0.0280000009	200	0	0
-0.714999974	6.91590071	-0.0309999995	200	0	0
-0.716000021	6.91580009	-0.0350000001	200	0	0
-0.714999974	6.91569996	-0.0299999993	200	0	0
-0.722000003	6.91739988	-0.0209999997	200	0	0
-0.714999974	6.91719961	-0.0299999993	200	0	0
-0.716000021	6.91710043	-0.0340000018	200	0	0
-0.716000021	6.91700029	-0.0340000018	200	0	0
-0.714999974	6.91690016	-0.0289999992	200	0	0
-0.721000016	6.91680002	-0.0189999994	200	0	0
-0.716000021	6.91680002	-0.0329999998	200	0	0
-0.714999974	6.91669989	-0.0289999992	200	0	0
-0.809000015	6.9178009	-0.0450000018	200	0	0
-0.713	6.91830015	-0.0280000009	200	0	0
-0.713999987	6.91820002	-0.0309999995	200	0	0
-0.713999987	6.91809988	-0.0309999995	200	0	0
-0.716000021	6.91799974	-0.0379999988	200	0	0
-0.717999995	6.91789961	-0.0430000015	200	0	0
-0.721000016	6.91789961	-0.0199999996	200	0	0
-0.714999974	6.9178009	-0.0309999995	200	0	0
-0.713999987	6.91760015	-0.0260000005	200	0	0
-0.851999998	6.91710043	-0.100000001	200	0	0
-0.862999976	6.91710043	-0.0879999995	200	0	0
-0.85799998	6.91830015	-0.108000003	200	0	0
-0.852999985	6.91710043	-0.0879999995	200	0	0
-0.847000003	6.91770029	-0.118000001	200	0	0
-0.847000003	6.91770029	-0.101999998	200	0	0
-0.851000011	6.91770029	-0.0979999974	200	0	0
-0.852999985	6.91770029	-0.0900000036	200	0	0
-0.712000012	6.91930008	-0.0289999992	200	0	0
-0.716000021	6.91919994	-0.0410000011	200	0	0
-0.721000016	6.91909981	-0.0240000002	200	0	0
-0.714999974	6.91900063	-0.0359999985	200	0	0
-0.713	6.91890001	-0.0280000009	200	0	0
-0.714999974	6.91879988	-0.0359999985	200	0	0
-0.712000012	6.91869974	-0.0270000007	200	0	0
-0.713	6.91860008	-0.0299999993	200	0	0
-0.713	6.91849995	-0.0299999993	200	0	0
-0.716000021	6.91840076	-0.0390000008	200	0	0
-0.853999972	6.91639996	-0.108000003	200	0	0
-0.848999977	6.91650105	-0.123000003	200	0	0
-0.838999987	6.91890001	-0.0799999982	200	0	0
-0.867999971	6.91890001	-0.108000003	200	0	0
-0.718999982	6.92020035	-0.0240000002	200	0	0
-0.713	6.92020035	-0.0340000018	200	0	0
-0.718999982	6.92010021	-0.023	200	0	0
-0.713	6.92010021	-0.0340000018	200	0	0
-0.713	6.91989994	-0.0340000018	200	0	0
-0.713	6.91969967	-0.0340000018	200	0	0
-0.720000029	6.91960001	-0.0240000002	200	0	0
-0.713999987	6.91940022	-0.0359999985	200	0	0
-0.850000024	6.91590071	-0.125	200	0	0
-0.865999997	6.91950035	-0.105999999	200	0	0
-0.720000029	6.92109966	-0.0280000009	200	0	0
-0.72299999	6.92099953	-0.0219999999	200	0	0
-0.718999982	6.92099953	-0.0260000005	200	0	0
-0.721000016	6.92080021	-0.0320000015	200	0	0
-0.712000012	6.92070007	-0.0340000018	200	0	0
-0.722000003	6.92070007	-0.0189999994	200	0	0
-0.718999982	6.92070007	-0.0240000002	200	0	0
-0.721000016	6.92059994	-0.0299999993	200	0	0
-0.721000016	6.9204998	-0.0289999992	200	0	0
-0.720000029	6.92039967	-0.0250000004	200	0	0
-0.718999982	6.92030096	-0.0240000002	200	0	0
-0.860000014	6.91530085	-0.108999997	200	0	0
-0.852999985	6.92010021	-0.128999993	200	0	0
-0.718999982	6.9218998	-0.0280000009	200	0	0
-0.718999982	6.9217	-0.0280000009	200	0	0
-0.718999982	6.92159986	-0.0270000007	200	0	0
-0.717999995	6.92150068	-0.0260000005	200	0	0
-0.718999982	6.92140007	-0.0270000007	200	0	0
-0.717999995	6.92129993	-0.0240000002	200	0	0
-0.721000016	6.9211998	-0.0320000015	200	0	0
-0.721000016	6.92280102	-0.0379999988	200	0	0
-0.717999995	6.92270041	-0.0289999992	200	0	0
-0.717999995	6.92260027	-0.0280000009	200	0	0
-0.722000003	6.92250013	-0.023	200	0	0
-0.717999995	6.92250013	-0.0280000009	200	0	0
-0.721000016	6.9224	-0.0359999985	200	0	0
-0.720000029	6.92229986	-0.0320000015	200	0	0
-0.717999995	6.92219973	-0.0240000002	200	0	0
-0.720000029	6.92210007	-0.0309999995	200	0	0
-0.722000003	6.92369986	-0.0250000004	200	0	0
-0.718999982	6.92369986	-0.0309999995	200	0	0
-0.721000016	6.92359972	-0.0219999999	200	0	0
-0.718999982	6.92359972	-0.0309999995	200	0	0
-0.720000029	6.92349958	-0.0359999985	200	0	0
-0.720000029	6.92340088	-0.0350000001	200	0	0
-0.720000029	6.92330027	-0.0209999997	200	0	0
-0.718999982	6.92330027	-0.0309999995	200	0	0
-0.718999982	6.92320013	-0.0309999995	200	0	0
-0.721000016	6.92309999	-0.0399999991	200	0	0
-0.717999995	6.92299986	-0.0280000009	200	0	0
-0.721000016	6.92289972	-0.0390000008	200	0	0
-0.721000016	6.92469978	-0.0250000004	200	0	0
-0.717999995	6.92460012	-0.0320000015	200	0	0
-0.722000003	6.92439985	-0.0280000009	200	0	0
-0.718999982	6.92429972	-0.0329999998	200	0	0
-0.720000029	6.92420006	-0.0219999999	200	0	0
-0.717999995	6.92400074	-0.0309999995	200	0	0
-0.721000016	6.92400074	-0.023	200	0	0
-0.718999982	6.92390013	-0.0329999998	200	0	0
-0.720000029	6.92379999	-0.0209999997	200	0	0
-0.717999995	6.92530107	-0.0320000015	200	0	0
-0.722000003	6.92530107	-0.0260000005	200	0	0
-0.718999982	6.92519999	-0.0329999998	200	0	0
-0.720000029	6.92510033	-0.0199999996	200	0	0
-0.718999982	6.92500019	-0.0350000001	200	0	0
-0.722000003	6.92500019	-0.0260000005	200	0	0
-0.720000029	6.92609978	-0.0199999996	200	0	0
-0.721000016	6.92599964	-0.0260000005	200	0	0
-0.720000029	6.92590094	-0.0379999988	200	0	0
-0.722000003	6.92590094	-0.0289999992	200	0	0
-0.718999982	6.92580032	-0.0350000001	200	0	0
-0.720000029	6.92700005	-0.0370000005	200	0	0
-0.717000008	6.92689991	-0.0270000007	200	0	0
-0.721000016	6.92689991	-0.0250000004	200	0	0
-0.720000029	6.92679977	-0.0390000008	200	0	0
-0.721000016	6.92679977	-0.0260000005	200	0	0
-0.720000029	6.92669964	-0.0219999999	200	0	0
-0.718999982	6.9265995	-0.0340000018	200	0	0
-0.720000029	6.9265995	-0.0219999999	200	0	0
-0.718999982	6.9265008	-0.0350000001	200	0	0
-0.720000029	6.9265008	-0.023	200	0	0
-0.721000016	6.92640018	-0.0260000005	200	0	0
-0.721000016	6.92789984	-0.0240000002	200	0	0
-0.722000003	6.92780113	-0.0260000005	200	0	0
-0.717999995	6.92780113	-0.0320000015	200	0	0
-0.717999995	6.92770004	-0.0309999995	200	0	0
-0.722000003	6.92759991	-0.0260000005	200	0	0
-0.720000029	6.92749977	-0.023	200	0	0
-0.718999982	6.92749977	-0.0329999998	200	0	0
-0.72299999	6.92740011	-0.0309999995	200	0	0
-0.721000016	6.92729998	-0.0260000005	200	0	0
-0.721000016	6.92880011	-0.023	200	0	0
-0.720000029	6.92869997	-0.0199999996	200	0	0
-0.720000029	6.92859983	-0.0370000005	200	0	0
-0.720000029	6.92859983	-0.0219999999	200	0	0
-0.720000029	6.9284997	-0.0219999999	200	0	0
-0.722000003	6.92840099	-0.0260000005	200	0	0
-0.718999982	6.92830038	-0.0350000001	200	0	0
-0.721000016	6.92830038	-0.0240000002	200	0	0
-0.722000003	6.92820024	-0.0270000007	200	0	0
-0.721000016	6.92799997	-0.023	200	0	0
-0.721000016	6.92980003	-0.0219999999	200	0	0
-0.721000016	6.92960024	-0.0219999999	200	0	0
-0.718999982	6.92939997	-0.0350000001	200	0	0
-0.721000016	6.92939997	-0.0240000002	200	0	0
-0.728999972	6.92929983	-0.0189999994	200	0	0
-0.717000008	6.92929983	-0.0289999992	200	0	0
-0.721000016	6.92929983	-0.023	200	0	0
-0.721000016	6.9291997	-0.0250000004	200	0	0
-0.722000003	6.92900085	-0.0280000009	200	0	0
-0.717000008	6.92890024	-0.0280000009	200	0	0
-0.721000016	6.92890024	-0.023	200	0	0
-0.718999982	6.9307003	-0.0329999998	200	0	0
-0.721000016	6.9307003	-0.0219999999	200	0	0
-0.718999982	6.93060017	-0.0340000018	200	0	0
-0.717000008	6.93050003	-0.0270000007	200	0	0
-0.721000016	6.93050003	-0.0250000004	200	0	0
-0.720000029	6.9302001	-0.0199999996	200	0	0
-0.721000016	6.93009996	-0.0240000002	200	0	0
-0.720000029	6.92999983	-0.0390000008	200	0	0
-0.722000003	6.92999983	-0.0289999992	200	0	0
-0.720000029	6.92989969	-0.0209999997	200	0	0
-0.718999982	6.93169975	-0.0340000018	200	0	0
-0.721000016	6.93159962	-0.023	200	0	0
-0.717000008	6.93150091	-0.0270000007	200	0	0
-0.717999995	6.9314003	-0.0309999995	200	0	0
-0.722000003	6.93130016	-0.0270000007	200	0	0
-0.718999982	6.93130016	-0.0320000015	200	0	0
-0.720000029	6.93120003	-0.0350000001	200	0	0
-0.720000029	6.93099976	-0.0199999996	200	0	0
-0.718999982	6.93090105	-0.0340000018	200	0	0
-0.718999982	6.93079996	-0.0340000018	200	0	0
-0.720000029	6.93249989	-0.0340000018	200	0	0
-0.721000016	6.93239975	-0.0199999996	200	0	0
-0.718999982	6.93239975	-0.0289999992	200	0	0
-0.717999995	6.93229961	-0.0280000009	200	0	0
-0.720000029	6.93219948	-0.0199999996	200	0	0
-0.721000016	6.93219948	-0.0379999988	200	0	0
-0.718999982	6.9321003	-0.0329999998	200	0	0
-0.718999982	6.93179989	-0.0309999995	200	0	0
-0.721000016	6.93340111	-0.0209999997	200	0	0
-0.720000029	6.93340111	-0.0340000018	200	0	0
-0.718999982	6.93330002	-0.0309999995	200	0	0
-0.739000022	6.93260002	-0.104000002	200	0	0
-0.722000003	6.93319988	-0.0219999999	200	0	0
-0.72299999	6.93319988	-0.0439999998	200	0	0
-0.718999982	6.93309975	-0.0280000009	200	0	0
-0.722000003	6.93300009	-0.0240000002	200	0	0
-0.717999995	6.93300009	-0.0270000007	200	0	0
-0.722000003	6.93289995	-0.0219999999	200	0	0
-0.720000029	6.93289995	-0.0350000001	200	0	0
-0.720000029	6.93280077	-0.0179999992	200	0	0
-0.721000016	6.93280077	-0.0370000005	200	0	0
-0.721000016	6.93270016	-0.0209999997	200	0	0
-0.720000029	6.93270016	-0.0340000018	200	0	0
-0.721000016	6.93440008	-0.0199999996	200	0	0
-0.720000029	6.93429995	-0.0320000015	200	0	0
-0.721000016	6.93429995	-0.0189999994	200	0	0
-0.721000016	6.93419981	-0.0379999988	200	0	0
-0.717999995	6.93409967	-0.0270000007	200	0	0
-0.721000016	6.93409967	-0.0209999997	200	0	0
-0.721000016	6.93400097	-0.0359999985	200	0	0
-0.721000016	6.93390036	-0.0359999985	200	0	0
-0.717000008	6.93380022	-0.0219999999	200	0	0
-0.721000016	6.93380022	-0.0179999992	200	0	0
-0.720000029	6.93370008	-0.0340000018	200	0	0
-0.720000029	6.93359995	-0.0320000015	200	0	0
-0.720000029	6.93359995	-0.0170000009	200	0	0
-0.721000016	6.93349981	-0.0370000005	200	0	0
-0.722000003	6.93349981	-0.0219999999	200	0	0
-0.721000016	6.93440008	-0.0359999985	200	0	0
-0.825999975	6.93280077	-0.112999998	200	0	0
-0.68599999	6.93300009	-0.160999998	200	0	0
-0.721000016	6.93540001	-0.0199999996	200	0	0
-0.720000029	6.93530083	-0.0340000018	200	0	0
-0.718999982	6.93520021	-0.0309999995	200	0	0
-0.722000003	6.93510008	-0.0390000008	200	0	0
-0.718999982	6.93499994	-0.0280000009	200	0	0
-0.721000016	6.93489981	-0.0379999988	200	0	0
-0.720000029	6.93489981	-0.0170000009	200	0	0
-0.720000029	6.93479967	-0.0329999998	200	0	0
-0.720000029	6.93460035	-0.0320000015	200	0	0
-0.723999977	6.93460035	-0.0299999993	200	0	0
-0.720000029	6.93450022	-0.0340000018	200	0	0
-0.721000016	6.93450022	-0.0179999992	200	0	0
-0.865999997	6.93330002	-0.100000001	200	0	0
-0.861000001	6.93330002	-0.0989999995	200	0	0
-0.851000011	6.93330002	-0.0979999974	200	0	0
-0.848999977	6.93330002	-0.105999999	200	0	0
-0.86500001	6.93280077	-0.112000003	200	0	0
-0.853999972	6.93280077	-0.125	200	0	0
-0.853999972	6.93270016	-0.107000001	200	0	0
-0.850000024	6.93280077	-0.126000002	200	0	0
-0.837000012	6.93280077	-0.131999999	200	0	0
-0.685000002	6.93370008	-0.157000005	200	0	0
-0.720000029	6.93630028	-0.0329999998	200	0	0
-0.718999982	6.93620014	-0.0280000009	200	0	0
-0.72299999	6.93620014	-0.0260000005	200	0	0
-0.720000029	6.93610001	-0.0329999998	200	0	0
-0.720000029	6.93599987	-0.0320000015	200	0	0
-0.722000003	6.93590069	-0.0390000008	200	0	0
-0.722000003	6.93580008	-0.0410000011	200	0	0
-0.722000003	6.93580008	-0.0219999999	200	0	0
-0.720000029	6.93569994	-0.0340000018	200	0	0
-0.722000003	6.9355998	-0.0419999994	200	0	0
-0.718999982	6.93549967	-0.0309999995	200	0	0
-0.717999995	6.93540001	-0.0270000007	200	0	0
-0.934000015	6.93280077	-0.150000006	200	0	0
-0.871999979	6.93400097	-0.100000001	200	0	0
-0.681999981	6.93460035	-0.163000003	200	0	0
-0.68599999	6.93440008	-0.160999998	200	0	0
-0.686999977	6.93429995	-0.163000003	200	0	0
-0.720000029	6.93719959	-0.0350000001	200	0	0
-0.721000016	6.93710041	-0.0219999999	200	0	0
-0.717999995	6.93710041	-0.0270000007	200	0	0
-0.717999995	6.93700027	-0.0250000004	200	0	0
-0.717999995	6.93690014	-0.0250000004	200	0	0
-0.720000029	6.9368	-0.0350000001	200	0	0
-0.721000016	6.93669987	-0.0189999994	200	0	0
-0.718999982	6.93669987	-0.0309999995	200	0	0
-0.721000016	6.93659973	-0.0189999994	200	0	0
-0.720000029	6.93659973	-0.0329999998	200	0	0
-0.720000029	6.93650103	-0.0340000018	200	0	0
-0.72299999	6.93639994	-0.0250000004	200	0	0
-0.718999982	6.93639994	-0.0280000009	200	0	0
-0.850000024	6.93450022	-0.128000006	200	0	0
-0.686999977	6.93549967	-0.163000003	200	0	0
-0.677999973	6.93499994	-0.169	200	0	0
-0.67900002	6.93489981	-0.172999993	200	0	0
-0.718999982	6.93809986	-0.0299999993	200	0	0
-0.717999995	6.93799973	-0.0260000005	200	0	0
-0.722000003	6.93789959	-0.0399999991	200	0	0
-0.722000003	6.93780088	-0.0399999991	200	0	0
-0.721000016	6.93770027	-0.0189999994	200	0	0
-0.718999982	6.93770027	-0.0309999995	200	0	0
-0.721000016	6.93760014	-0.0209999997	200	0	0
-0.720000029	6.93760014	-0.0329999998	200	0	0
-0.720000029	6.93739986	-0.0350000001	200	0	0
-0.718999982	6.93729973	-0.0309999995	200	0	0
-0.860000014	6.93510008	-0.0960000008	200	0	0
-0.873000026	6.93510008	-0.104999997	200	0	0
-0.852999985	6.93510008	-0.104000002	200	0	0
-0.848999977	6.93510008	-0.122000001	200	0	0
-0.686999977	6.9355998	-0.163000003	200	0	0
-0.717000008	6.93900108	-0.0240000002	200	0	0
-0.720000029	6.93879986	-0.0359999985	200	0	0
-0.718999982	6.93869972	-0.0309999995	200	0	0
-0.721000016	6.93860006	-0.0219999999	200	0	0
-0.720000029	6.93860006	-0.0340000018	200	0	0
-0.722000003	6.93849993	-0.023	200	0	0
-0.717999995	6.93849993	-0.0280000009	200	0	0
-0.717999995	6.93840075	-0.0270000007	200	0	0
-0.717999995	6.93830013	-0.0260000005	200	0	0
-0.720000029	6.9382	-0.0340000018	200	0	0
-0.848999977	6.93569994	-0.138999999	200	0	0
-0.717000008	6.94000006	-0.023	200	0	0
-0.720000029	6.93989992	-0.0340000018	200	0	0
-0.720000029	6.93989992	-0.0179999992	200	0	0
-0.718999982	6.93979979	-0.0299999993	200	0	0
-0.721000016	6.93969965	-0.0189999994	200	0	0
-0.717999995	6.93969965	-0.0270000007	200	0	0
-0.718999982	6.93959999	-0.0309999995	200	0	0
-0.717999995	6.93950033	-0.0260000005	200	0	0
-0.717999995	6.9394002	-0.0270000007	200	0	0
-0.721000016	6.93930006	-0.0370000005	200	0	0
-0.720000029	6.93919992	-0.0350000001	200	0	0
-0.720000029	6.93909979	-0.0329999998	200	0	0
-0.721000016	6.9409008	-0.0359999985	200	0	0
-0.718999982	6.94080019	-0.0309999995	200	0	0
-0.720000029	6.94070005	-0.0329999998	200	0	0
-0.718999982	6.94059992	-0.0309999995	200	0	0
-0.718999982	6.94049978	-0.0309999995	200	0	0
-0.718999982	6.94039965	-0.0309999995	200	0	0
-0.718999982	6.94030094	-0.0320000015	200	0	0
-0.721000016	6.94030094	-0.0209999997	200	0	0
-0.717999995	6.94020033	-0.0289999992	200	0	0
-0.721000016	6.94020033	-0.0199999996	200	0	0
-0.718999982	6.94010019	-0.0299999993	200	0	0
-0.721000016	6.94010019	-0.0209999997	200	0	0
-0.721000016	6.94190025	-0.0390000008	200	0	0
-0.722000003	6.94180012	-0.0240000002	200	0	0
-0.721000016	6.94180012	-0.0379999988	200	0	0
-0.717000008	6.94169998	-0.0250000004	200	0	0
-0.717999995	6.94159985	-0.0280000009	200	0	0
-0.718999982	6.94150066	-0.0340000018	200	0	0
-0.718999982	6.94140005	-0.0309999995	200	0	0
-0.717999995	6.94129992	-0.0270000007	200	0	0
-0.720000029	6.94119978	-0.0189999994	200	0	0
-0.722000003	6.94119978	-0.0410000011	200	0	0
-0.718999982	6.94109964	-0.0299999993	200	0	0
-0.720000029	6.94099998	-0.0179999992	200	0	0
-0.718999982	6.94099998	-0.0309999995	200	0	0
-0.721000016	6.942801	-0.0219999999	200	0	0
-0.718999982	6.942801	-0.0320000015	200	0	0
-0.718999982	6.94270039	-0.0329999998	200	0	0
-0.721000016	6.94260025	-0.0209999997	200	0	0
-0.718999982	6.94260025	-0.0299999993	200	0	0
-0.720000029	6.94250011	-0.0199999996	200	0	0
-0.720000029	6.94250011	-0.0350000001	200	0	0
-0.720000029	6.94239998	-0.0350000001	200	0	0
-0.720000029	6.94229984	-0.0189999994	200	0	0
-0.717999995	6.94229984	-0.0280000009	200	0	0
-0.720000029	6.94219971	-0.0340000018	200	0	0
-0.720000029	6.94199991	-0.0179999992	200	0	0
-0.720000029	6.94210005	-0.0370000005	200	0	0
-0.720000029	6.94190025	-0.0189999994	200	0	0
-0.721000016	6.94199991	-0.0379999988	200	0	0
-0.721000016	6.94379997	-0.0209999997	200	0	0
-0.718999982	6.94369984	-0.0320000015	200	0	0
-0.722000003	6.9435997	-0.0270000007	200	0	0
-0.718999982	6.94349957	-0.0299999993	200	0	0
-0.720000029	6.94340086	-0.0199999996	200	0	0
-0.718999982	6.94330025	-0.0309999995	200	0	0
-0.720000029	6.94320011	-0.0350000001	200	0	0
-0.720000029	6.94320011	-0.0199999996	200	0	0
-0.720000029	6.94309998	-0.0370000005	200	0	0
-0.721000016	6.94309998	-0.0209999997	200	0	0
-0.720000029	6.94299984	-0.0340000018	200	0	0
-0.718999982	6.9428997	-0.0309999995	200	0	0
-0.721000016	6.9428997	-0.0209999997	200	0	0
-0.720000029	6.9447999	-0.0199999996	200	0	0
-0.720000029	6.94460011	-0.0359999985	200	0	0
-0.720000029	6.94449997	-0.0359999985	200	0	0
-0.720000029	6.94449997	-0.0199999996	200	0	0
-0.722000003	6.94439983	-0.0240000002	200	0	0
-0.722000003	6.9442997	-0.0250000004	200	0	0
-0.720000029	6.9440999	-0.0359999985	200	0	0
-0.721000016	6.9440999	-0.023	200	0	0
-0.721000016	6.94400072	-0.0209999997	200	0	0
-0.718999982	6.94390011	-0.0329999998	200	0	0
-0.721000016	6.94570017	-0.0219999999	200	0	0
-0.720000029	6.94560003	-0.0329999998	200	0	0
-0.721000016	6.9454999	-0.0219999999	200	0	0
-0.720000029	6.94539976	-0.0350000001	200	0	0
-0.720000029	6.94530106	-0.0359999985	200	0	0
-0.720000029	6.94519997	-0.0340000018	200	0	0
-0.721000016	6.94510031	-0.0399999991	200	0	0
-0.722000003	6.94510031	-0.0260000005	200	0	0
-0.720000029	6.94500017	-0.0359999985	200	0	0
-0.720000029	6.94490004	-0.0350000001	200	0	0
-0.720000029	6.9447999	-0.0350000001	200	0	0
-0.713999987	6.94619989	-0.101000004	200	0	0
-0.720000029	6.94659996	-0.0350000001	200	0	0
-0.720000029	6.94650078	-0.0359999985	200	0	0
-0.720000029	6.94640017	-0.0350000001	200	0	0
-0.718999982	6.94630003	-0.0309999995	200	0	0
-0.720000029	6.94619989	-0.0359999985	200	0	0
-0.718999982	6.94609976	-0.0299999993	200	0	0
-0.717999995	6.94599962	-0.0289999992	200	0	0
-0.720000029	6.94590092	-0.0340000018	200	0	0
-0.721000016	6.94590092	-0.023	200	0	0
-0.718999982	6.9458003	-0.0320000015	200	0	0
-0.68599999	6.9454999	-0.158999994	200	0	0
-0.721000016	6.94689989	-0.0370000005	200	0	0
-0.686999977	6.94560003	-0.166999996	200	0	0
-0.718999982	6.94679976	-0.0320000015	200	0	0
-0.717000008	6.94669962	-0.0250000004	200	0	0
-0.686999977	6.94650078	-0.164000005	200	0	0
-0.68599999	6.94630003	-0.163000003	200	0	0
-0.716000021	6.94640017	-0.105999999	200	0	0
-0.720000029	6.94729996	-0.104999997	200	0	0
-0.721000016	6.94750023	-0.023	200	0	0
-0.717000008	6.94750023	-0.0240000002	200	0	0
-0.721000016	6.94729996	-0.0219999999	200	0	0
-0.717999995	6.94729996	-0.0260000005	200	0	0
-0.721000016	6.94719982	-0.0199999996	200	0	0
-0.718999982	6.94719982	-0.0320000015	200	0	0
-0.722000003	6.94710016	-0.0399999991	200	0	0
-0.722000003	6.94700003	-0.0240000002	200	0	0
-0.718999982	6.94700003	-0.0299999993	200	0	0
-0.722000003	6.94689989	-0.0240000002	200	0	0
-0.721000016	6.94789982	-0.0370000005	200	0	0
-0.720000029	6.94780111	-0.0179999992	200	0	0
-0.720000029	6.94780111	-0.0340000018	200	0	0
-0.718999982	6.94740009	-0.101999998	200	0	0
-0.721000016	6.94770002	-0.0370000005	200	0	0
-0.718999982	6.94759989	-0.0299999993	200	0	0
-0.718999982	6.94840097	-0.0289999992	200	0	0
-0.721000016	6.94840097	-0.0219999999	200	0	0
-0.721000016	6.94830036	-0.0359999985	200	0	0
-0.717999995	6.94820023	-0.0250000004	200	0	0
-0.722000003	6.94810009	-0.0399999991	200	0	0
-0.718999982	6.94799995	-0.0289999992	200	0	0
-0.721000016	6.94799995	-0.0219999999	200	0	0
-0.720000029	6.94789982	-0.0179999992	200	0	0
-0.720000029	6.94880009	-0.0350000001	200	0	0
-0.718999982	6.94869995	-0.0309999995	200	0	0
-0.721000016	6.94859982	-0.0219999999	200	0	0
-0.722000003	6.94859982	-0.0430000015	200	0	0
-0.720000029	6.94849968	-0.0320000015	200	0	0
-0.717999995	6.94939995	-0.0250000004	200	0	0
-0.721000016	6.94929981	-0.0189999994	200	0	0
-0.717999995	6.94929981	-0.0250000004	200	0	0
-0.721000016	6.94919968	-0.0390000008	200	0	0
-0.721000016	6.94909954	-0.0219999999	200	0	0
-0.718999982	6.94909954	-0.0299999993	200	0	0
-0.720000029	6.94900084	-0.0320000015	200	0	0
-0.717999995	6.94890022	-0.0250000004	200	0	0
-0.718999982	6.94969988	-0.0299999993	200	0	0
-0.722000003	6.94960022	-0.0240000002	200	0	0
-0.718999982	6.94960022	-0.0309999995	200	0	0
-0.717999995	6.95030069	-0.0260000005	200	0	0
-0.718999982	6.95009995	-0.0280000009	200	0	0
-0.721000016	6.94999981	-0.0350000001	200	0	0
-0.721000016	6.94989967	-0.0340000018	200	0	0
-0.721000016	6.94980001	-0.0199999996	200	0	0
-0.718999982	6.94980001	-0.0289999992	200	0	0
-0.722000003	6.95060015	-0.0399999991	200	0	0
-0.717999995	6.95050001	-0.0260000005	200	0	0
-0.718999982	6.95039988	-0.0280000009	200	0	0
-0.717999995	6.95130014	-0.0250000004	200	0	0
-0.718999982	6.95120001	-0.0270000007	200	0	0
-0.720000029	6.95109987	-0.0299999993	200	0	0
-0.718999982	6.95099974	-0.0280000009	200	0	0
-0.718999982	6.95090103	-0.0280000009	200	0	0
-0.718999982	6.95079994	-0.0280000009	200	0	0
-0.721000016	6.95070028	-0.0170000009	200	0	0
-0.720000029	6.95070028	-0.0309999995	200	0	0
-0.722000003	6.95150089	-0.0390000008	200	0	0
-0.721000016	6.95140028	-0.0329999998	200	0	0
-0.720000029	6.95219994	-0.0299999993	200	0	0
-0.722000003	6.95210028	-0.0370000005	200	0	0
-0.722000003	6.95210028	-0.0199999996	200	0	0
-0.720000029	6.95200014	-0.0280000009	200	0	0
-0.717999995	6.95190001	-0.0250000004	200	0	0
-0.721000016	6.95179987	-0.0340000018	200	0	0
-0.722000003	6.95169973	-0.0199999996	200	0	0
-0.718999982	6.95169973	-0.0270000007	200	0	0
-0.722000003	6.95239973	-0.0199999996	200	0	0
-0.718999982	6.95239973	-0.0250000004	200	0	0
-0.721000016	6.95229959	-0.0309999995	200	0	0
-0.720000029	6.9531002	-0.0270000007	200	0	0
-0.73299998	6.95229959	-0.109999999	200	0	0
-0.718999982	6.95300007	-0.0240000002	200	0	0
-0.721000016	6.95289993	-0.0309999995	200	0	0
-0.718999982	6.95280075	-0.0250000004	200	0	0
-0.720000029	6.95270014	-0.0270000007	200	0	0
-0.720000029	6.9526	-0.0280000009	200	0	0
-0.720000029	6.95249987	-0.0289999992	200	0	0
-0.721000016	6.9533	-0.0299999993	200	0	0
-0.72299999	6.9533	-0.0189999994	200	0	0
-0.718999982	6.95319986	-0.0250000004	200	0	0
-0.720000029	6.95400095	-0.0270000007	200	0	0
-0.731999993	6.95319986	-0.104999997	200	0	0
-0.721000016	6.9538002	-0.0280000009	200	0	0
-0.721000016	6.95370007	-0.0280000009	200	0	0
-0.713999987	6.95359993	-0.0390000008	200	0	0
-0.720000029	6.95349979	-0.0250000004	200	0	0
-0.720000029	6.95340109	-0.0250000004	200	0	0
-0.686999977	6.95169973	-0.159999996	200	0	0
-0.718999982	6.95419979	-0.0209999997	200	0	0
-0.721000016	6.95409966	-0.0289999992	200	0	0
-0.720000029	6.95499992	-0.023	200	0	0
-0.721000016	6.95489979	-0.0250000004	200	0	0
-0.714999974	6.95479965	-0.0390000008	200	0	0
-0.720000029	6.95479965	-0.0240000002	200	0	0
-0.713	6.95469952	-0.0329999998	200	0	0
-0.720000029	6.95460033	-0.0240000002	200	0	0
-0.722000003	6.9545002	-0.0309999995	200	0	0
-0.720000029	6.95440006	-0.0240000002	200	0	0
-0.684000015	6.95150089	-0.169	200	0	0
-0.685000002	6.9515996	-0.172000006	200	0	0
-0.712000012	6.95510006	-0.0280000009	200	0	0
-0.714999974	6.95590067	-0.0379999988	200	0	0
-0.713999987	6.95569992	-0.0359999985	200	0	0
-0.720000029	6.95569992	-0.023	200	0	0
-0.713999987	6.95559978	-0.0350000001	200	0	0
-0.712000012	6.95549965	-0.0280000009	200	0	0
-0.721000016	6.95549965	-0.0270000007	200	0	0
-0.714999974	6.95539999	-0.0399999991	200	0	0
-0.713	6.95530081	-0.0329999998	200	0	0
-0.720000029	6.95530081	-0.0240000002	200	0	0
-0.713	6.9552002	-0.0309999995	200	0	0
-0.713	6.95599985	-0.0329999998	200	0	0
-0.714999974	6.95679998	-0.0370000005	200	0	0
-0.73299998	6.95580006	-0.104000002	200	0	0
-0.721000016	6.95650101	-0.0240000002	200	0	0
-0.720000029	6.95639992	-0.0219999999	200	0	0
-0.713999987	6.95639992	-0.0340000018	200	0	0
-0.713999987	6.95630026	-0.0329999998	200	0	0
-0.718999982	6.95620012	-0.0199999996	200	0	0
-0.714999974	6.95620012	-0.0370000005	200	0	0
-0.713	6.95609999	-0.0309999995	200	0	0
-0.717999995	6.95690012	-0.0460000001	200	0	0
-0.714999974	6.95770025	-0.0340000018	200	0	0
-0.713999987	6.95760012	-0.0340000018	200	0	0
-0.716000021	6.95749998	-0.0379999988	200	0	0
-0.722000003	6.95739985	-0.0260000005	200	0	0
-0.716000021	6.95739985	-0.0399999991	200	0	0
-0.720000029	6.95719957	-0.0219999999	200	0	0
