-4.1170001	6.94510031	-0.108000003	200	0	0
-4.11899996	6.94510031	-0.0689999983	200	0	0
-4.11499977	6.94510031	-0.0970000029	200	0	0
-4.11299992	6.94510031	-0.0850000009	200	0	0
-4.11499977	6.94510031	-0.0370000005	200	0	0
-4.11299992	6.94500017	-0.238000005	200	0	0
-4.12200022	6.94500017	-0.160999998	200	0	0
-4.11999989	6.94500017	-0.221000001	200	0	0
-4.11999989	6.94500017	-0.170000002	200	0	0
-4.12099981	6.94500017	-0.211999997	200	0	0
-4.11800003	6.94490004	-0.270999998	200	0	0
-4.11999989	6.94490004	-0.261999995	200	0	0
-4.11499977	6.94500017	-0.248999998	200	0	0
-4.11999989	6.94510031	-0.170000002	200	0	0
-4.1170001	6.94510031	-0.158000007	200	0	0
-4.11299992	6.94510031	-0.144999996	200	0	0
-4.11299992	6.94510031	-0.135000005	200	0	0
-4.11499977	6.94490004	-0.289999992	200	0	0
-4.11999989	6.94500017	-0.273000002	200	0	0
-4.12099981	6.94500017	-0.263000011	200	0	0
-4.11399984	6.94500017	-0.289000005	200	0	0
-4.11600018	6.94510031	-0.197999999	200	0	0
-4.11399984	6.94510031	-0.186000004	200	0	0
-4.11899996	6.94510031	-0.272000015	200	0	0
-4.12200022	6.94510031	-0.263999999	200	0	0
-4.11999989	6.94510031	-0.210999995	200	0	0
-4.11800003	6.94510031	-0.219999999	200	0	0
-4.1170001	6.94510031	-0.25	200	0	0
-4.11899996	6.94510031	-0.240999997	200	0	0
-4.1170001	6.94519997	-0.108000003	200	0	0
-4.11399984	6.94519997	-0.0960000008	200	0	0
-4.11600018	6.94519997	-0.0370000005	200	0	0
-4.11299992	6.94519997	-0.0850000009	200	0	0
-4.11499977	6.94519997	-0.0469999984	200	0	0
-4.11999989	6.94519997	-0.0599999987	200	0	0
-4.11899996	6.94519997	-0.0689999983	200	0	0
-4.11399984	6.94519997	-0.145999998	200	0	0
-4.11499977	6.94519997	-0.136999995	200	0	0
-4.11999989	6.94519997	-0.119999997	200	0	0
-4.11100006	6.94519997	-0.236000001	200	0	0
-4.11999989	6.94519997	-0.159999996	200	0	0
-4.12200022	6.94519997	-0.223000005	200	0	0
-4.11800003	6.94519997	-0.169	200	0	0
-4.12300014	6.94519997	-0.213	200	0	0
-4.10900021	6.94519997	-0.184	200	0	0
-4.11299992	6.94519997	-0.195999995	200	0	0
-4.12200022	6.94519997	-0.273999989	200	0	0
-4.12400007	6.94519997	-0.264999986	200	0	0
-4.11499977	6.94519997	-0.248999998	200	0	0
-4.11000013	6.94539976	-0.0939999968	200	0	0
-4.11999989	6.94530106	-0.0599999987	200	0	0
-4.12200022	6.94530106	-0.122000001	200	0	0
-4.11899996	6.94530106	-0.0700000003	200	0	0
-4.11800003	6.94530106	-0.108999997	200	0	0
-4.11100006	6.94530106	-0.0850000009	200	0	0
-4.11100006	6.94530106	-0.0949999988	200	0	0
-4.11899996	6.94519997	-0.0189999994	200	0	0
-4.11399984	6.94530106	-0.147	200	0	0
-4.11499977	6.94530106	-0.136999995	200	0	0
-4.11299992	6.94530106	-0.196999997	200	0	0
-4.11499977	6.94530106	-0.187999994	200	0	0
-4.11800003	6.94530106	-0.169	200	0	0
-4.11499977	6.94530106	-0.157000005	200	0	0
-4.11399984	6.94530106	0.0120000001	200	0	0
-4.11600018	6.94530106	-0.0480000004	200	0	0
-4.11800003	6.94519997	0.0299999993	200	0	0
-4.11199999	6.94530106	-0.0359999985	200	0	0
-4.11800003	6.94530106	0	200	0	0
-4.11199999	6.94530106	-0.00600000005	200	0	0
-4.11399984	6.94530106	-0.0170000009	200	0	0
-4.10500002	6.94519997	0.0179999992	200	0	0
-4.10400009	6.94519997	0.00899999961	200	0	0
-4.11499977	6.94519997	-0.00800000038	200	0	0
-4.11100006	6.94519997	0.0439999998	200	0	0
-4.11199999	6.94539976	-0.0359999985	200	0	0
-4.11899996	6.94539976	-0.0700000003	200	0	0
-4.11600018	6.94539976	-0.25	200	0	0
-4.11899996	6.94530106	-0.210999995	200	0	0
-4.1170001	6.94530106	-0.219999999	200	0	0
-4.11999989	6.94530106	-0.273999989	200	0	0
-4.11800003	6.94530106	-0.261999995	200	0	0
-4.11299992	6.94530106	-0.238000005	200	0	0
-4.11399984	6.94530106	-0.248999998	200	0	0
-4.11399984	6.94519997	-0.289000005	200	0	0
-4.11499977	6.94539976	-0.238999993	200	0	0
-4.11800003	6.94539976	-0.169	200	0	0
-4.1170001	6.94539976	-0.188999996	200	0	0
-4.00899982	6.9442997	0.115000002	200	0	0
-4.00899982	6.94420004	0.115000002	200	0	0
-4.01300001	6.9440999	0.112999998	200	0	0
-4.0079999	6.94469976	0.115000002	200	0	0
-4.11899996	6.94530106	0.0289999992	200	0	0
-4.11999989	6.94530106	0.0379999988	200	0	0
-4.11399984	6.94539976	0.00200000009	200	0	0
-4.11600018	6.94539976	-0.108000003	200	0	0
-4.11299992	6.94539976	-0.115999997	200	0	0
-4.12099981	6.94539976	-0.160999998	200	0	0
-4.11399984	6.94539976	-0.136999995	200	0	0
-4.11100006	6.94539976	-0.144999996	200	0	0
-4.11899996	6.9454999	-0.221000001	200	0	0
-4.12099981	6.94539976	-0.263999999	200	0	0
-4.11399984	6.94539976	-0.196999997	200	0	0
-4.12099981	6.94539976	-0.211999997	200	0	0
-4.11800003	6.94539976	-0.221000001	200	0	0
-4.11499977	6.9454999	-0.187999994	200	0	0
-4.11499977	6.94539976	-0.0469999984	200	0	0
-4.11600018	6.94539976	-0.0869999975	200	0	0
-4.11999989	6.94539976	-0.0599999987	200	0	0
-4.11100006	6.9454999	-0.0949999988	200	0	0
-4.11399984	6.94539976	-0.291000009	200	0	0
-4.11800003	6.94539976	-0.272000015	200	0	0
-4.11499977	6.9454999	-0.238999993	200	0	0
-4.11600018	6.9454999	-0.0579999983	200	0	0
-4.11899996	6.94539976	-0.0209999997	200	0	0
-4.11499977	6.94539976	0.0309999995	200	0	0
-4.10900021	6.94539976	0.0149999997	200	0	0
-4.11899996	6.94539976	-0.0109999999	200	0	0
-4.11399984	6.9454999	-0.0170000009	200	0	0
-4.11299992	6.9454999	-0.0460000001	200	0	0
-4.11800003	6.94560003	-0.210999995	200	0	0
-4.11899996	6.9454999	-0.252000004	200	0	0
-4.1170001	6.9454999	-0.169	200	0	0
-4.11600018	6.9454999	-0.199000001	200	0	0
-4.12400007	6.9454999	-0.214000002	200	0	0
-4.11299992	6.94560003	-0.136000007	200	0	0
-4.11899996	6.9454999	-0.109999999	200	0	0
-4.11999989	6.9454999	-0.160999998	200	0	0
-4.1170001	6.9454999	-0.119000003	200	0	0
-4.11499977	6.9454999	-0.148000002	200	0	0
-4.11399984	6.9454999	-0.136999995	200	0	0
-4.11399984	6.94560003	-0.145999998	200	0	0
-4.12099981	6.94560003	-0.172000006	200	0	0
-4.11199999	6.94539976	0.0430000015	200	0	0
-4.11899996	6.94560003	-0.159999996	200	0	0
-4.11899996	6.94560003	-0.221000001	200	0	0
-4.1170001	6.94560003	-0.188999996	200	0	0
-4.11199999	6.94560003	-0.195999995	200	0	0
-4.11600018	6.94560003	-0.0869999975	200	0	0
-4.11999989	6.9454999	-0.0710000023	200	0	0
-4.11499977	6.94560003	-0.0970000029	200	0	0
-4.11600018	6.94560003	-0.108000003	200	0	0
-4.11899996	6.94560003	-0.119999997	200	0	0
-4.11000013	6.9454999	-0.0839999989	200	0	0
-4.11800003	6.94560003	-0.240999997	200	0	0
-4.11100006	6.94560003	-0.298999995	200	0	0
-4.11100006	6.94560003	-0.246999994	200	0	0
-4.12099981	6.94560003	-0.263000011	200	0	0
-4.12099981	6.94560003	-0.273999989	200	0	0
-4.0999999	6.9454999	-0.291000009	200	0	0
-4.11199999	6.9454999	-0.289000005	200	0	0
-4.11800003	6.9454999	-0.261999995	200	0	0
-4.11299992	6.9454999	-0.268999994	200	0	0
-4.11899996	6.94570017	-0.170000002	200	0	0
-4.11499977	6.94570017	-0.25	200	0	0
-4.11600018	6.94570017	-0.239999995	200	0	0
-4.1170001	6.94570017	-0.188999996	200	0	0
-4.11800003	6.94570017	-0.200000003	200	0	0
-4.11999989	6.94570017	-0.222000003	200	0	0
-4.12300014	6.94570017	-0.213	200	0	0
-4.11800003	6.94570017	-0.108999997	200	0	0
-4.12099981	6.94570017	-0.120999999	200	0	0
-4.1170001	6.94570017	-0.158999994	200	0	0
-4.11100006	6.94570017	-0.135000005	200	0	0
-4.11399984	6.94570017	-0.147	200	0	0
-4.11800003	6.94560003	-0.0689999983	200	0	0
-4.11600018	6.9454999	-0.0379999988	200	0	0
-4.11899996	6.94570017	-0.0689999983	200	0	0
-4.11399984	6.94570017	-0.0860000029	200	0	0
-4.12099981	6.94560003	-0.0610000007	200	0	0
-4.11399984	6.94570017	-0.0960000008	200	0	0
-4.11800003	6.9454999	-0.00999999978	200	0	0
-4.11499977	6.94560003	-0.0370000005	200	0	0
-4.11399984	6.94560003	-0.0469999984	200	0	0
-4.11399984	6.94570017	-0.0469999984	200	0	0
-4.1170001	6.94560003	0.0399999991	200	0	0
-4.0999999	6.9454999	0.0500000007	200	0	0
-4.11399984	6.94570017	-0.0370000005	200	0	0
-4.11199999	6.94570017	0.0130000003	200	0	0
-4.11800003	6.94570017	0	200	0	0
-4.11800003	6.94570017	-0.0189999994	200	0	0
-4.11899996	6.94570017	-0.0109999999	200	0	0
-4.11899996	6.94560003	0.0289999992	200	0	0
-4.11399984	6.94560003	0.0120000001	200	0	0
-4.11100006	6.94560003	0.00400000019	200	0	0
-4.11600018	6.9454999	0.0299999993	200	0	0
-4.11800003	6.94560003	-0.0189999994	200	0	0
-4.11899996	6.94560003	-0.0109999999	200	0	0
-4.11899996	6.9454999	0.00899999961	200	0	0
-4.11800003	6.94570017	-0.0590000004	200	0	0
-4.12099981	6.94570017	-0.273999989	200	0	0
-4.11600018	6.94570017	-0.261000007	200	0	0
-4.12200022	6.94570017	0.0359999985	200	0	0
-4.10599995	6.94570017	0.0370000005	200	0	0
-4.11299992	6.9458003	-0.0860000029	200	0	0
-4.11499977	6.9458003	-0.147	200	0	0
-4.11299992	6.9458003	-0.0960000008	200	0	0
-4.11499977	6.9458003	-0.136999995	200	0	0
-4.1170001	6.9458003	-0.108000003	200	0	0
-4.11800003	6.9458003	-0.119000003	200	0	0
-4.11000013	6.9458003	0.00499999989	200	0	0
-4.12099981	6.9458003	-0.0710000023	200	0	0
-4.11899996	6.9458003	-0.0109999999	200	0	0
-4.11600018	6.9458003	-0.0579999983	200	0	0
-4.11899996	6.9458003	-0.0199999996	200	0	0
-4.11299992	6.9458003	-0.0460000001	200	0	0
-4.11299992	6.9458003	-0.0359999985	200	0	0
-4.11199999	6.9458003	0.0130000003	200	0	0
-4.12200022	6.9458003	0.0359999985	200	0	0
-4.11899996	6.9458003	0.0289999992	200	0	0
-4.11600018	6.9458003	-0.291999996	200	0	0
-4.11999989	6.9458003	-0.211999997	200	0	0
-4.12099981	6.9458003	-0.223000005	200	0	0
-4.11899996	6.9458003	-0.273000002	200	0	0
-4.12200022	6.9458003	-0.264999986	200	0	0
-4.11800003	6.9458003	-0.240999997	200	0	0
-4.11899996	6.9458003	-0.252000004	200	0	0
-4.12300014	6.9458003	-0.163000003	200	0	0
-4.11999989	6.9458003	-0.170000002	200	0	0
-4.11600018	6.9458003	-0.188999996	200	0	0
-4.11299992	6.9458003	-0.196999997	200	0	0
-4.11399984	6.94590092	-0.0469999984	200	0	0
-4.11999989	6.94590092	-0.119999997	200	0	0
-4.11399984	6.94590092	-0.0560000017	200	0	0
-4.11899996	6.94590092	-0.109999999	200	0	0
-4.12300014	6.94590092	-0.0719999969	200	0	0
-4.11600018	6.94590092	-0.0979999974	200	0	0
-4.11600018	6.94590092	-0.0879999995	200	0	0
-4.11499977	6.94590092	-0.0370000005	200	0	0
-4.11999989	6.94590092	0.00899999961	200	0	0
-4.11600018	6.94590092	-0.0179999992	200	0	0
-4.12099981	6.94590092	-0.0120000001	200	0	0
-4.11499977	6.94599962	-0.0370000005	200	0	0
-4.11299992	6.94599962	-0.0960000008	200	0	0
-4.11800003	6.94590092	-0.138999999	200	0	0
-4.11999989	6.94590092	-0.171000004	200	0	0
-4.11899996	6.94590092	-0.159999996	200	0	0
-4.11199999	6.94590092	-0.144999996	200	0	0
-4.11899996	6.94590092	0.0390000008	200	0	0
-4.10900021	6.94590092	0.0340000018	200	0	0
-4.11800003	6.94599962	0.0289999992	200	0	0
-4.10900021	6.94599962	-0.0430000015	200	0	0
-4.11499977	6.94599962	0.0109999999	200	0	0
-4.11999989	6.94599962	-0.0209999997	200	0	0
-4.11399984	6.94599962	0.00300000003	200	0	0
-4.12200022	6.94599962	-0.0120000001	200	0	0
-4.09600019	6.94599962	0.0520000011	200	0	0
-4.1170001	6.94609976	-0.0189999994	200	0	0
-4.11600018	6.94590092	-0.239999995	200	0	0
-4.12300014	6.94590092	-0.224000007	200	0	0
-4.12300014	6.94590092	-0.213	200	0	0
-4.1170001	6.94590092	-0.188999996	200	0	0
-4.11600018	6.94590092	-0.199000001	200	0	0
-4.11399984	6.94599962	-0.187000006	200	0	0
-4.11899996	6.94599962	-0.0689999983	200	0	0
-4.12200022	6.94599962	-0.061999999	200	0	0
-4.12300014	6.94599962	-0.163000003	200	0	0
-4.11800003	6.94599962	-0.0890000015	200	0	0
-4.11600018	6.94599962	-0.148000002	200	0	0
-4.11899996	6.94599962	-0.140000001	200	0	0
-4.12300014	6.94599962	-0.112000003	200	0	0
-4.11899996	6.94599962	-0.119999997	200	0	0
-4.11999989	6.94609976	-0.0700000003	200	0	0
-4.12099981	6.94590092	-0.273999989	200	0	0
-4.12099981	6.94590092	-0.263999999	200	0	0
-4.11399984	6.94590092	-0.248999998	200	0	0
-4.11999989	6.94599962	-0.171000004	200	0	0
-4.12099981	6.94599962	-0.211999997	200	0	0
-4.11600018	6.94599962	-0.25	200	0	0
-4.11899996	6.94609976	-0.170000002	200	0	0
-4.11800003	6.94599962	-0.200000003	200	0	0
-4.12099981	6.94599962	-0.263999999	200	0	0
-4.11600018	6.94609976	-0.197999999	200	0	0
-4.11800003	6.94599962	-0.240999997	200	0	0
-4.11800003	6.94599962	-0.219999999	200	0	0
-4.11899996	6.94609976	-0.273000002	200	0	0
-4.11800003	6.94599962	-0.272000015	200	0	0
-4.11800003	6.94609976	-0.210999995	200	0	0
-4.11600018	6.94609976	-0.25	200	0	0
-4.11399984	6.94609976	-0.147	200	0	0
-4.1170001	6.94609976	-0.138999999	200	0	0
-4.11600018	6.94609976	-0.0879999995	200	0	0
-4.12300014	6.94609976	-0.122000001	200	0	0
-4.11899996	6.94609976	-0.0989999995	200	0	0
-4.12099981	6.94609976	-0.111000001	200	0	0
-4.11399984	6.94619989	-0.0970000029	200	0	0
-4.1170001	6.94609976	-0.0579999983	200	0	0
-4.1170001	6.94619989	-0.0379999988	200	0	0
-4.11299992	6.94609976	0.00300000003	200	0	0
-4.11899996	6.94609976	-0.0109999999	200	0	0
-4.11399984	6.94609976	-0.0469999984	200	0	0
-4.11199999	6.94609976	-0.0359999985	200	0	0
-4.11600018	6.94619989	-0.0480000004	200	0	0
-4.12099981	6.94619989	-0.0610000007	200	0	0
-4.11999989	6.94619989	-0.0700000003	200	0	0
-4.12200022	6.94609976	-0.162	200	0	0
-4.11600018	6.94619989	-0.137999997	200	0	0
-4.11999989	6.94609976	-0.263000011	200	0	0
-4.12300014	6.94609976	-0.224000007	200	0	0
-4.11299992	6.94609976	-0.238000005	200	0	0
-4.11999989	6.94619989	-0.160999998	200	0	0
-4.11899996	6.94609976	-0.189999998	200	0	0
-4.12400007	6.94619989	-0.214000002	200	0	0
-4.12200022	6.94619989	-0.275000006	200	0	0
-4.11999989	6.94619989	-0.150000006	200	0	0
-4.12200022	6.94619989	-0.122000001	200	0	0
-4.12300014	6.94619989	-0.112000003	200	0	0
-4.11499977	6.94619989	-0.0869999975	200	0	0
-4.11899996	6.94619989	-0.0199999996	200	0	0
-4.11600018	6.94609976	0.0109999999	200	0	0
-4.11800003	6.94619989	-0.189999998	200	0	0
-4.12300014	6.94619989	-0.172999993	200	0	0
-4.12400007	6.94619989	-0.224000007	200	0	0
-4.11999989	6.94619989	-0.201000005	200	0	0
-4.1079998	6.94619989	0.0450000018	200	0	0
-4.11899996	6.94619989	-0.00999999978	200	0	0
-4.1170001	6.94619989	0.0299999993	200	0	0
-4.11899996	6.94619989	0.00899999961	200	0	0
-4.12099981	6.94609976	0.0370000005	200	0	0
-4.11999989	6.94609976	0.0280000009	200	0	0
-4.12099981	6.94619989	-0.263000011	200	0	0
-4.11800003	6.94619989	-0.240999997	200	0	0
-4.11999989	6.94619989	-0.252999991	200	0	0
-4.11800003	6.94640017	-0.261999995	200	0	0
-4.11899996	6.94640017	-0.191	200	0	0
-4.11499977	6.94640017	-0.25	200	0	0
-4.11800003	6.94640017	-0.200000003	200	0	0
-4.11899996	6.94640017	-0.241999999	200	0	0
-4.12200022	6.94640017	-0.213	200	0	0
-4.125	6.94640017	-0.224999994	200	0	0
-4.11399984	6.94640017	-0.147	200	0	0
-4.12099981	6.94640017	-0.160999998	200	0	0
-4.12400007	6.94640017	-0.172999993	200	0	0
-4.1170001	6.94640017	-0.0579999983	200	0	0
-4.12099981	6.94640017	-0.120999999	200	0	0
-4.12200022	6.94640017	-0.0710000023	200	0	0
-4.12400007	6.94640017	-0.112999998	200	0	0
-4.11499977	6.94640017	-0.0869999975	200	0	0
-4.11800003	6.94640017	-0.0989999995	200	0	0
-4.12200022	6.94640017	-0.275000006	200	0	0
-4.11999989	6.94640017	-0.0209999997	200	0	0
-4.1170001	6.94640017	-0.0379999988	200	0	0
-4.11600018	6.94640017	-0.0480000004	200	0	0
-4.11399984	6.94640017	0.0120000001	200	0	0
-4.11399984	6.94640017	0.00300000003	200	0	0
-4.12200022	6.94640017	-0.0120000001	200	0	0
-4.1170001	6.94650078	-0.250999987	200	0	0
-4.12400007	6.94650078	-0.172999993	200	0	0
-4.1170001	6.94650078	-0.239999995	200	0	0
-4.1170001	6.94650078	-0.188999996	200	0	0
-4.12699986	6.94650078	-0.226999998	200	0	0
-4.11499977	6.94650078	-0.197999999	200	0	0
-4.12300014	6.94650078	-0.214000002	200	0	0
-4.11800003	6.94640017	-0.138999999	200	0	0
-4.11899996	6.94650078	-0.0989999995	200	0	0
-4.12400007	6.94650078	-0.163000003	200	0	0
-4.12099981	6.94650078	-0.111000001	200	0	0
-4.12200022	6.94650078	-0.122000001	200	0	0
-4.1170001	6.94650078	-0.149000004	200	0	0
-4.11800003	6.94650078	-0.138999999	200	0	0
-4.12099981	6.94659996	-0.172000006	200	0	0
-4.11899996	6.94659996	-0.159999996	200	0	0
-4.11600018	6.94659996	-0.0879999995	200	0	0
-4.11100006	6.94650078	-0.0450000018	200	0	0
-4.12300014	6.94650078	-0.061999999	200	0	0
-4.12300014	6.94650078	-0.0719999969	200	0	0
-4.11600018	6.94650078	-0.0879999995	200	0	0
-4.11800003	6.94659996	-0.240999997	200	0	0
-4.12200022	6.94650078	-0.264999986	200	0	0
-4.11499977	6.94650078	-0.291000009	200	0	0
-4.12099981	6.94659996	-0.263000011	200	0	0
-4.12300014	6.94659996	-0.213	200	0	0
-4.11800003	6.94659996	-0.138999999	200	0	0
-4.1170001	6.94659996	-0.200000003	200	0	0
-4.11899996	6.94659996	-0.189999998	200	0	0
-4.11999989	6.94659996	-0.150999993	200	0	0
-4.125	6.94659996	-0.224999994	200	0	0
-4.11899996	6.94659996	-0.252000004	200	0	0
-4.11800003	6.94669962	-0.189999998	200	0	0
-4.11899996	6.94669962	-0.201000005	200	0	0
-4.12300014	6.94669962	-0.213	200	0	0
-4.12300014	6.94659996	-0.0719999969	200	0	0
-4.125	6.94659996	-0.123000003	200	0	0
-4.11899996	6.94659996	-0.0989999995	200	0	0
-4.12200022	6.94659996	-0.111000001	200	0	0
-4.11800003	6.94650078	-0.0390000008	200	0	0
-4.11999989	6.94669962	-0.0700000003	200	0	0
-4.12400007	6.94650078	-0.0130000003	200	0	0
-4.1170001	6.94659996	-0.0390000008	200	0	0
-4.12099981	6.94650078	-0.0209999997	200	0	0
-4.12099981	6.94659996	-0.050999999	200	0	0
-4.12200022	6.94659996	-0.061999999	200	0	0
-4.11800003	6.94640017	0.0289999992	200	0	0
-4.11399984	6.94650078	0.00300000003	200	0	0
-4.11499977	6.94669962	-0.0469999984	200	0	0
-4.11899996	6.94650078	0.00899999961	200	0	0
-4.11600018	6.94659996	-0.00899999961	200	0	0
-4.11899996	6.94659996	-0.0199999996	200	0	0
-4.10699987	6.94650078	0.0460000001	200	0	0
-4.1170001	6.94650078	0.0299999993	200	0	0
-4.11899996	6.94640017	0.0390000008	200	0	0
-4.11899996	6.94659996	0	200	0	0
-4.12099981	6.94659996	0.0370000005	200	0	0
-4.11999989	6.94659996	0.0280000009	200	0	0
-4.11999989	6.94659996	0.00800000038	200	0	0
-4.12200022	6.94669962	-0.275000006	200	0	0
-4.11899996	6.94669962	-0.119999997	200	0	0
-4.12300014	6.94669962	-0.112000003	200	0	0
-4.12300014	6.94669962	-0.061999999	200	0	0
-4.1170001	6.94669962	-0.0979999974	200	0	0
-4.11600018	6.94669962	-0.0879999995	200	0	0
-4.12599993	6.94669962	-0.174999997	200	0	0
-4.12200022	6.94669962	-0.162	200	0	0
-4.11499977	6.94669962	-0.136999995	200	0	0
-4.11600018	6.94669962	-0.148000002	200	0	0
-4.1170001	6.94669962	0.0399999991	200	0	0
-4.12200022	6.94669962	-0.0219999999	200	0	0
-4.12099981	6.94669962	0.0280000009	200	0	0
-4.12300014	6.94669962	-0.0130000003	200	0	0
-4.11899996	6.94669962	0.00899999961	200	0	0
-4.12099981	6.94669962	-0.0410000011	200	0	0
-4.11999989	6.94679976	-0.0109999999	200	0	0
-4.12200022	6.94679976	0.0359999985	200	0	0
-4.11999989	6.94669962	-0.252999991	200	0	0
-4.12099981	6.94669962	-0.263000011	200	0	0
-4.11899996	6.94669962	-0.241999999	200	0	0
-4.12400007	6.94669962	-0.224000007	200	0	0
-4.12200022	6.94679976	-0.162	200	0	0
-4.11600018	6.94679976	-0.188999996	200	0	0
-4.1170001	6.94689989	-0.0489999987	200	0	0
-4.11499977	6.94679976	-0.0869999975	200	0	0
-4.12099981	6.94679976	-0.0209999997	200	0	0
-4.12300014	6.94679976	-0.0719999969	200	0	0
-4.12099981	6.94679976	-0.0610000007	200	0	0
-4.1170001	6.94679976	-0.0379999988	200	0	0
-4.11600018	6.94679976	-0.0480000004	200	0	0
-4.11999989	6.94689989	-0.119999997	200	0	0
-4.1170001	6.94679976	-0.149000004	200	0	0
-4.1170001	6.94679976	-0.0979999974	200	0	0
-4.11899996	6.94679976	-0.140000001	200	0	0
-4.12300014	6.94679976	-0.112000003	200	0	0
-4.125	6.94679976	-0.123000003	200	0	0
-4.11899996	6.94689989	-0.109999999	200	0	0
-4.12300014	6.94689989	-0.0719999969	200	0	0
-4.1170001	6.94689989	-0.0979999974	200	0	0
-4.1170001	6.94689989	-0.0879999995	200	0	0
-4.1170001	6.94679976	0.00100000005	200	0	0
-4.12099981	6.94679976	0.0270000007	200	0	0
-4.11800003	6.94679976	0.00999999978	200	0	0
-4.12099981	6.94689989	-0.0120000001	200	0	0
-4.1170001	6.94689989	0.00100000005	200	0	0
-4.12099981	6.94689989	-0.0610000007	200	0	0
-4.12300014	6.94689989	-0.023	200	0	0
-4.12099981	6.94689989	-0.0410000011	200	0	0
-4.11600018	6.94689989	-0.137999997	200	0	0
-4.12099981	6.94679976	-0.172000006	200	0	0
-4.12400007	6.94679976	-0.214000002	200	0	0
-4.11999989	6.94679976	-0.201000005	200	0	0
-4.12200022	6.94689989	-0.162	200	0	0
-4.10400009	6.94689989	0.0469999984	200	0	0
-4.11499977	6.94689989	0.0109999999	200	0	0
-4.11499977	6.94689989	0.0309999995	200	0	0
-4.00500011	6.94630003	0.0689999983	200	0	0
-4.0170002	6.94630003	0.0900000036	200	0	0
-4.01399994	6.94630003	0.0540000014	200	0	0
-4.01599979	6.94630003	0.0430000015	200	0	0
-4.11999989	6.94700003	-0.0599999987	200	0	0
-4.11299992	6.94700003	0.0130000003	200	0	0
-4.11899996	6.94700003	-0.0500000007	200	0	0
-4.11899996	6.94700003	0	200	0	0
-4.11600018	6.94700003	-0.0379999988	200	0	0
-4.11999989	6.94700003	-0.0109999999	200	0	0
-4.11899996	6.94700003	-0.0199999996	200	0	0
-4.11800003	6.94689989	-0.240999997	200	0	0
-4.12400007	6.94679976	-0.275999993	200	0	0
-4.125	6.94679976	-0.266000003	200	0	0
-4.12599993	6.94679976	-0.225999996	200	0	0
-4.1170001	6.94679976	-0.250999987	200	0	0
-4.11999989	6.94679976	-0.241999999	200	0	0
-4.125	6.94689989	-0.224999994	200	0	0
-4.12400007	6.94689989	-0.214000002	200	0	0
-4.11499977	6.94689989	-0.187000006	200	0	0
-4.1170001	6.94689989	-0.199000001	200	0	0
-4.11800003	6.94689989	-0.149000004	200	0	0
-4.125	6.94689989	-0.173999995	200	0	0
-4.11899996	6.94700003	-0.109999999	200	0	0
-4.11499977	6.94700003	-0.0970000029	200	0	0
-4.11899996	6.94700003	-0.0900000036	200	0	0
-4.12300014	6.94700003	-0.0719999969	200	0	0
-4.12099981	6.94689989	-0.273999989	200	0	0
-4.12099981	6.94689989	-0.263000011	200	0	0
-4.11499977	6.94689989	-0.248999998	200	0	0
-4.12099981	6.94700003	-0.211999997	200	0	0
-4.1170001	6.94700003	-0.138999999	200	0	0
-4.11999989	6.94700003	-0.201000005	200	0	0
-4.1170001	6.94700003	-0.149000004	200	0	0
-4.1170001	6.94700003	-0.188999996	200	0	0
-4.12400007	6.94700003	-0.163000003	200	0	0
-4.12200022	6.94700003	-0.172000006	200	0	0
-4.12400007	6.94700003	-0.224000007	200	0	0
-4.11899996	6.94700003	-0.241999999	200	0	0
-4.11899996	6.94700003	-0.252000004	200	0	0
-4.11999989	6.94700003	-0.263000011	200	0	0
-4.12200022	6.94700003	-0.275000006	200	0	0
-4.12200022	6.94700003	-0.122000001	200	0	0
-4.1170001	6.94710016	-0.138999999	200	0	0
-4.12099981	6.94710016	-0.0610000007	200	0	0
-4.12200022	6.94710016	-0.122000001	200	0	0
-4.12400007	6.94710016	-0.0729999989	200	0	0
-4.12300014	6.94710016	-0.112000003	200	0	0
-4.11399984	6.94710016	-0.0860000029	200	0	0
-4.1170001	6.94710016	-0.0979999974	200	0	0
-4.1170001	6.94710016	0.00100000005	200	0	0
-4.12099981	6.94710016	-0.0120000001	200	0	0
-4.12400007	6.94710016	-0.023	200	0	0
-4.11800003	6.94710016	-0.0489999987	200	0	0
-4.11800003	6.94710016	-0.0390000008	200	0	0
-4.10900021	6.94700003	0.0450000018	200	0	0
-4.12099981	6.94700003	0.0270000007	200	0	0
-4.12099981	6.94719982	-0.0610000007	200	0	0
-4.11600018	6.94719982	-0.136999995	200	0	0
-4.11999989	6.94710016	-0.170000002	200	0	0
-4.12599993	6.94710016	-0.164000005	200	0	0
-4.11999989	6.94710016	-0.150999993	200	0	0
-4.11499977	6.94710016	-0.197999999	200	0	0
-4.1170001	6.94710016	-0.188999996	200	0	0
-4.1170001	6.94710016	-0.250999987	200	0	0
-4.1170001	6.94710016	-0.239999995	200	0	0
-4.12599993	6.94710016	-0.225999996	200	0	0
-4.12400007	6.94710016	-0.214000002	200	0	0
-4.12099981	6.94710016	-0.263000011	200	0	0
-4.12099981	6.94710016	-0.273999989	200	0	0
-4.12400007	6.94719982	-0.112000003	200	0	0
-4.11499977	6.94710016	0.0120000001	200	0	0
-4.125	6.94719982	-0.224999994	200	0	0
-4.11800003	6.94710016	0.0289999992	200	0	0
-4.11499977	6.94710016	0.0410000011	200	0	0
-4.12099981	6.94719982	-0.263999999	200	0	0
-4.1170001	6.94719982	-0.239999995	200	0	0
-4.12599993	6.94729996	-0.225999996	200	0	0
-4.12200022	6.94719982	-0.213	200	0	0
-4.11800003	6.94729996	-0.240999997	200	0	0
-4.12200022	6.94729996	-0.275000006	200	0	0
-4.12099981	6.94729996	-0.252999991	200	0	0
-4.125	6.94729996	-0.266000003	200	0	0
-4.12400007	6.94719982	-0.275999993	200	0	0
-4.12300014	6.94719982	-0.254999995	200	0	0
-4.11999989	6.94740009	-0.191	200	0	0
-4.1170001	6.94729996	-0.148000002	200	0	0
-4.12300014	6.94729996	-0.163000003	200	0	0
-4.12699986	6.94729996	-0.216000006	200	0	0
-4.12099981	6.94729996	-0.171000004	200	0	0
-4.11600018	6.94719982	-0.148000002	200	0	0
-4.11999989	6.94729996	-0.201000005	200	0	0
-4.11999989	6.94729996	-0.191	200	0	0
-4.12200022	6.94719982	-0.162	200	0	0
-4.125	6.94719982	-0.173999995	200	0	0
-4.11800003	6.94719982	-0.200000003	200	0	0
-4.11999989	6.94719982	-0.191	200	0	0
-4.11800003	6.94740009	-0.201000005	200	0	0
-4.12300014	6.94740009	-0.214000002	200	0	0
-4.12400007	6.94740009	-0.224999994	200	0	0
-4.11899996	6.94719982	-0.0890000015	200	0	0
-4.12400007	6.94729996	-0.112999998	200	0	0
-4.12599993	6.94729996	-0.123999998	200	0	0
-4.11899996	6.94719982	-0.0989999995	200	0	0
-4.11899996	6.94729996	-0.140000001	200	0	0
-4.12400007	6.94719982	-0.123000003	200	0	0
-4.12200022	6.94740009	-0.162	200	0	0
-4.12400007	6.94740009	-0.173999995	200	0	0
-4.1170001	6.94729996	-0.0979999974	200	0	0
-4.12099981	6.94719982	-0.00100000005	200	0	0
-4.12200022	6.94729996	-0.0219999999	200	0	0
-4.11899996	6.94729996	-0.0890000015	200	0	0
-4.12699986	6.94729996	-0.075000003	200	0	0
-4.11800003	6.94729996	-0.0390000008	200	0	0
-4.12300014	6.94719982	-0.0130000003	200	0	0
-4.11499977	6.94729996	-0.0469999984	200	0	0
-4.12200022	6.94729996	-0.061999999	200	0	0
-4.12400007	6.94719982	-0.023	200	0	0
-4.12099981	6.94719982	-0.0410000011	200	0	0
-4.125	6.94719982	-0.0729999989	200	0	0
-4.11899996	6.94719982	-0.0500000007	200	0	0
-4.12200022	6.94740009	-0.122000001	200	0	0
-4.12400007	6.94740009	-0.112999998	200	0	0
-4.11899996	6.94740009	-0.100000001	200	0	0
-4.11499977	6.94729996	0.0120000001	200	0	0
-4.12099981	6.94719982	0.0280000009	200	0	0
-4.1170001	6.94729996	0.00100000005	200	0	0
-4.12400007	6.94729996	-0.0130000003	200	0	0
-4.1170001	6.94719982	0.00999999978	200	0	0
-4.12400007	6.94729996	0.0359999985	200	0	0
-4.11899996	6.94729996	0.0289999992	200	0	0
-4.11499977	6.94719982	0.0410000011	200	0	0
-4.11899996	6.94740009	-0.273000002	200	0	0
-4.12200022	6.94740009	-0.264999986	200	0	0
-4.12200022	6.94740009	-0.244000003	200	0	0
-4.11999989	6.94740009	-0.252999991	200	0	0
-4.12200022	6.94750023	-0.172999993	200	0	0
-4.11600018	6.94740009	-0.137999997	200	0	0
-4.11999989	6.94740009	-0.150999993	200	0	0
-4.11800003	6.94750023	-0.189999998	200	0	0
-4.125	6.94750023	-0.224999994	200	0	0
-4.12300014	6.94750023	-0.214000002	200	0	0
-4.11899996	6.94750023	-0.100000001	200	0	0
-4.12699986	6.94740009	-0.0649999976	200	0	0
-4.125	6.94740009	-0.074000001	200	0	0
-4.11800003	6.94740009	-0.0900000036	200	0	0
-4.12200022	6.94750023	-0.162	200	0	0
-4.12400007	6.94750023	-0.123000003	200	0	0
-4.1170001	6.94750023	-0.149000004	200	0	0
-4.11800003	6.94750023	-0.140000001	200	0	0
-4.11999989	6.94750023	-0.202000007	200	0	0
-4.1170001	6.94750023	-0.0489999987	200	0	0
-4.125	6.94750023	-0.114	200	0	0
-4.12200022	6.94750023	-0.061999999	200	0	0
-4.12099981	6.94740009	-0.0419999994	200	0	0
-4.125	6.94750023	-0.074000001	200	0	0
-4.1170001	6.94750023	-0.0890000015	200	0	0
-4.11899996	6.94740009	-0.0500000007	200	0	0
-4.11999989	6.94740009	-0.0109999999	200	0	0
-4.125	6.94740009	-0.0240000002	200	0	0
-4.12300014	6.94750023	-0.275999993	200	0	0
-4.12400007	6.94750023	-0.266000003	200	0	0
-4.11999989	6.94750023	-0.254000008	200	0	0
-4.11999989	6.94750023	-0.243000001	200	0	0
-4.11999989	6.94759989	-0.150999993	200	0	0
-4.12400007	6.94759989	-0.224999994	200	0	0
-4.12300014	6.94759989	-0.163000003	200	0	0
-4.12200022	6.94759989	-0.213	200	0	0
-4.12599993	6.94759989	-0.174999997	200	0	0
-4.11899996	6.94759989	-0.201000005	200	0	0
-4.11899996	6.94759989	-0.191	200	0	0
-4.11899996	6.94759989	-0.241999999	200	0	0
-4.12099981	6.94759989	-0.254000008	200	0	0
-4.1170001	6.94750023	-0.0390000008	200	0	0
-4.1170001	6.94740009	0	200	0	0
-4.12099981	6.94750023	-0.0120000001	200	0	0
-4.11899996	6.94759989	-0.109999999	200	0	0
-4.11999989	6.94759989	-0.101000004	200	0	0
-4.11800003	6.94759989	-0.0399999991	200	0	0
-4.12300014	6.94750023	-0.023	200	0	0
-4.1170001	6.94759989	-0.0489999987	200	0	0
-4.1170001	6.94759989	-0.0890000015	200	0	0
-4.12699986	6.94759989	-0.0649999976	200	0	0
-4.125	6.94759989	-0.074000001	200	0	0
-4.12099981	6.94740009	0.0270000007	200	0	0
-4.11999989	6.94740009	0.00800000038	200	0	0
-4.1170001	6.94750023	0	200	0	0
-4.11499977	6.94740009	0.0399999991	200	0	0
-4.11899996	6.94750023	0.00899999961	200	0	0
-4.12200022	6.94759989	-0.0130000003	200	0	0
-4.11999989	6.94759989	-0.0209999997	200	0	0
-4.12200022	6.94750023	0.0260000005	200	0	0
-4.12099981	6.94750023	0.0359999985	200	0	0
-4.12200022	6.94759989	-0.264999986	200	0	0
-4.12699986	6.94759989	-0.277999997	200	0	0
-4.12099981	6.94759989	-0.141000003	200	0	0
-4.12200022	6.94759989	-0.122000001	200	0	0
-4.11899996	6.94759989	-0.00100000005	200	0	0
-4.11600018	6.94759989	0.00999999978	200	0	0
-4.12799978	6.94759989	0.023	200	0	0
-4.11600018	6.94759989	0.0399999991	200	0	0
-4.11800003	6.94770002	-0.0500000007	200	0	0
-4.12200022	6.94770002	0.0260000005	200	0	0
-4.11999989	6.94770002	-0.0410000011	200	0	0
-4.11899996	6.94770002	0.00899999961	200	0	0
-4.12400007	6.94770002	-0.0240000002	200	0	0
-4.11800003	6.94770002	0	200	0	0
-4.12300014	6.94770002	-0.0130000003	200	0	0
-4.11000013	6.94770002	0.0439999998	200	0	0
-4.12200022	6.94770002	-0.202999994	200	0	0
-4.12599993	6.94770002	-0.123999998	200	0	0
-4.11899996	6.94770002	-0.191	200	0	0
-4.11899996	6.94770002	-0.140000001	200	0	0
-4.12400007	6.94770002	-0.173999995	200	0	0
-4.12200022	6.94770002	-0.151999995	200	0	0
-4.12599993	6.94770002	-0.165000007	200	0	0
-4.125	6.94770002	-0.224999994	200	0	0
-4.12400007	6.94770002	-0.215000004	200	0	0
-4.1170001	6.94789982	-0.0489999987	200	0	0
-4.11800003	6.94780111	-0.0890000015	200	0	0
-4.12300014	6.94780111	-0.0130000003	200	0	0
-4.11999989	6.94770002	-0.100000001	200	0	0
-4.12200022	6.94780111	-0.023	200	0	0
-4.12099981	6.94780111	-0.0710000023	200	0	0
-4.12099981	6.94780111	-0.0610000007	200	0	0
-4.11899996	6.94780111	-0.0399999991	200	0	0
-4.11999989	6.94770002	-0.0909999982	200	0	0
-4.12200022	6.94780111	-0.0520000011	200	0	0
-4.12200022	6.94770002	-0.0719999969	200	0	0
-4.125	6.94770002	-0.064000003	200	0	0
-4.12200022	6.94770002	-0.112000003	200	0	0
-4.12300014	6.94780111	-0.163000003	200	0	0
-4.12099981	6.94780111	-0.150999993	200	0	0
-4.11899996	6.94780111	-0.140000001	200	0	0
-4.11899996	6.94780111	-0.100000001	200	0	0
-4.12400007	6.94780111	-0.112999998	200	0	0
-4.12200022	6.94780111	-0.122000001	200	0	0
-4.12200022	6.94789982	-0.0719999969	200	0	0
-4.11800003	6.94789982	-0.0989999995	200	0	0
-4.125	6.94780111	0.0250000004	200	0	0
-4.11999989	6.94780111	0.00800000038	200	0	0
-4.11999989	6.94780111	-0.00100000005	200	0	0
-4.1170001	6.94789982	0	200	0	0
-4.12099981	6.94780111	0.0370000005	200	0	0
-4.12200022	6.94789982	-0.0219999999	200	0	0
-4.12699986	6.94780111	-0.175999999	200	0	0
-4.11999989	6.94770002	-0.252999991	200	0	0
-4.11899996	6.94770002	-0.241999999	200	0	0
-4.12099981	6.94780111	-0.202000007	200	0	0
-4.12200022	6.94780111	-0.193000004	200	0	0
-4.01000023	6.94630003	0.104000002	200	0	0
-4.11899996	6.94789982	-0.0900000036	200	0	0
-4.1170001	6.94789982	-0.0390000008	200	0	0
-4.12400007	6.94789982	-0.063000001	200	0	0
-4.12400007	6.94789982	-0.0140000004	200	0	0
-4.11499977	6.94789982	0.0410000011	200	0	0
-4.12300014	6.94789982	0.0260000005	200	0	0
-4.11899996	6.94789982	0.00899999961	200	0	0
-4.1170001	6.94799995	0	200	0	0
-4.12200022	6.94780111	-0.275999993	200	0	0
-4.12300014	6.94780111	-0.214000002	200	0	0
-4.125	6.94780111	-0.26699999	200	0	0
-4.12699986	6.94780111	-0.226999998	200	0	0
-4.11999989	6.94780111	-0.252999991	200	0	0
-4.11999989	6.94780111	-0.243000001	200	0	0
-4.12400007	6.94770002	-0.27700001	200	0	0
-4.12599993	6.94770002	-0.26699999	200	0	0
-4.12400007	6.94789982	-0.224999994	200	0	0
-4.12400007	6.94789982	-0.215000004	200	0	0
-4.11899996	6.94789982	-0.150000006	200	0	0
-4.125	6.94789982	-0.173999995	200	0	0
-4.11899996	6.94789982	-0.140000001	200	0	0
-4.12599993	6.94789982	-0.123999998	200	0	0
-4.12400007	6.94789982	-0.112999998	200	0	0
-4.11499977	6.94799995	-0.0979999974	200	0	0
-4.12200022	6.94799995	-0.0719999969	200	0	0
-4.11999989	6.94789982	-0.252999991	200	0	0
-4.11999989	6.94789982	-0.243000001	200	0	0
-4.11999989	6.94789982	-0.191	200	0	0
-4.12099981	6.94789982	-0.202000007	200	0	0
-4.12400007	6.94789982	-0.164000005	200	0	0
-4.12099981	6.94799995	-0.202000007	200	0	0
-4.12400007	6.94799995	-0.164000005	200	0	0
-4.11999989	6.94799995	-0.243000001	200	0	0
-4.12599993	6.94789982	-0.268000007	200	0	0
-4.11800003	6.94799995	-0.252000004	200	0	0
-4.12200022	6.94799995	-0.275999993	200	0	0
-4.11800003	6.94810009	-0.138999999	200	0	0
-4.125	6.94799995	-0.173999995	200	0	0
-4.12099981	6.94799995	-0.111000001	200	0	0
-4.11999989	6.94799995	-0.119999997	200	0	0
-4.11999989	6.94799995	-0.150999993	200	0	0
-4.11899996	6.94799995	-0.140000001	200	0	0
-4.12400007	6.94799995	-0.023	200	0	0
-4.1170001	6.94799995	-0.0890000015	200	0	0
-4.11800003	6.94799995	-0.0399999991	200	0	0
-4.11499977	6.94799995	-0.0480000004	200	0	0
-4.12400007	6.94799995	-0.063000001	200	0	0
-4.12300014	6.94810009	-0.112000003	200	0	0
-4.11800003	6.94810009	0	200	0	0
-4.1170001	6.94799995	0.0390000008	200	0	0
-4.12200022	6.94799995	0.0270000007	200	0	0
-4.12400007	6.94799995	-0.0140000004	200	0	0
-4.11499977	6.94799995	0.0120000001	200	0	0
-4.12200022	6.94810009	-0.0130000003	200	0	0
-4.12300014	6.94810009	-0.023	200	0	0
-4.11800003	6.94810009	-0.0390000008	200	0	0
-4.12099981	6.94810009	-0.101000004	200	0	0
-4.11800003	6.94810009	-0.0890000015	200	0	0
-4.11499977	6.94810009	-0.0480000004	200	0	0
-4.12200022	6.94810009	-0.0719999969	200	0	0
-4.12400007	6.94810009	-0.063000001	200	0	0
-4.12400007	6.94810009	-0.173999995	200	0	0
-4.11899996	6.94799995	-0.191	200	0	0
-4.12300014	6.94810009	-0.163000003	200	0	0
-4.125	6.94810009	-0.123999998	200	0	0
-4.11999989	6.94810009	-0.150999993	200	0	0
-4.12599993	6.94799995	-0.225999996	200	0	0
-4.12300014	6.94799995	-0.214000002	200	0	0
-4.12200022	6.94799995	-0.264999986	200	0	0
-4.12300014	6.94810009	-0.214000002	200	0	0
-4.12300014	6.94810009	-0.266000003	200	0	0
-4.11899996	6.94810009	-0.191	200	0	0
-4.11999989	6.94810009	-0.252999991	200	0	0
-4.1170001	6.94810009	-0.200000003	200	0	0
-4.11899996	6.94810009	-0.241999999	200	0	0
-4.12400007	6.94810009	-0.224999994	200	0	0
-4.12400007	6.94810009	-0.27700001	200	0	0
-4.12200022	6.94820023	-0.264999986	200	0	0
-4.11999989	6.94820023	-0.191	200	0	0
-4.1170001	6.94820023	-0.200000003	200	0	0
-4.11399984	6.94820023	-0.248999998	200	0	0
-4.11800003	6.94820023	-0.240999997	200	0	0
-4.12200022	6.94820023	-0.213	200	0	0
-4.125	6.94820023	-0.224999994	200	0	0
-4.12400007	6.94820023	-0.27700001	200	0	0
-4.1170001	6.94830036	-0.149000004	200	0	0
-4.11800003	6.94820023	-0.138999999	200	0	0
-4.11999989	6.94830036	-0.222000003	200	0	0
-4.12300014	6.94830036	-0.163000003	200	0	0
-4.12599993	6.94830036	-0.216000006	200	0	0
-4.12300014	6.94830036	-0.172999993	200	0	0
-4.11800003	6.94830036	-0.200000003	200	0	0
-4.11800003	6.94830036	-0.189999998	200	0	0
-4.12200022	6.94820023	-0.151999995	200	0	0
-4.12200022	6.94820023	-0.162	200	0	0
-4.12300014	6.94820023	-0.172999993	200	0	0
-4.12300014	6.94820023	-0.112000003	200	0	0
-4.12300014	6.94820023	-0.123000003	200	0	0
-4.11899996	6.94830036	-0.241999999	200	0	0
-4.12099981	6.94830036	-0.254000008	200	0	0
-4.11899996	6.94830036	-0.263000011	200	0	0
-4.12200022	6.94820023	-0.0719999969	200	0	0
-4.11800003	6.94820023	-0.0890000015	200	0	0
-4.1170001	6.94820023	-0.0989999995	200	0	0
-4.12200022	6.94830036	-0.120999999	200	0	0
-4.11800003	6.94830036	-0.140000001	200	0	0
-4.12300014	6.94820023	-0.063000001	200	0	0
-4.11899996	6.94810009	0.0379999988	200	0	0
-4.12200022	6.94810009	0.0270000007	200	0	0
-4.1170001	6.94810009	0.00999999978	200	0	0
-4.11600018	6.94820023	0.0109999999	200	0	0
-4.11899996	6.94820023	-0.0500000007	200	0	0
-4.12099981	6.94820023	-0.00200000009	200	0	0
-4.11899996	6.94820023	-0.0399999991	200	0	0
-4.12099981	6.94820023	-0.0120000001	200	0	0
-4.11999989	6.94820023	-0.0209999997	200	0	0
-4.11800003	6.94830036	-0.0890000015	200	0	0
-4.11899996	6.94830036	-0.100000001	200	0	0
-4.12099981	6.94830036	-0.111000001	200	0	0
-4.12200022	6.94830036	-0.0719999969	200	0	0
-4.12099981	6.94830036	-0.0610000007	200	0	0
-4.12300014	6.94820023	0.0359999985	200	0	0
-4.12300014	6.94820023	0.0260000005	200	0	0
-4.12300014	6.94830036	-0.275999993	200	0	0
-4.12200022	6.94849968	-0.172000006	200	0	0
-4.125	6.94840097	-0.215000004	200	0	0
-4.11899996	6.94840097	-0.140000001	200	0	0
-4.12099981	6.94840097	-0.202000007	200	0	0
-4.11800003	6.94840097	-0.149000004	200	0	0
-4.1170001	6.94840097	-0.188999996	200	0	0
-4.12300014	6.94840097	-0.163000003	200	0	0
-4.12099981	6.94840097	-0.172000006	200	0	0
-4.12099981	6.94840097	-0.223000005	200	0	0
-4.12099981	6.94840097	-0.263999999	200	0	0
-4.11999989	6.94840097	-0.252999991	200	0	0
-4.11899996	6.94840097	-0.241999999	200	0	0
-4.12300014	6.94849968	-0.214000002	200	0	0
-4.12200022	6.94840097	-0.0610000007	200	0	0
-4.11999989	6.94840097	-0.0700000003	200	0	0
-4.12200022	6.94840097	-0.122000001	200	0	0
-4.125	6.94830036	-0.0540000014	200	0	0
-4.125	6.94840097	-0.114	200	0	0
-4.1170001	6.94840097	-0.0890000015	200	0	0
-4.11499977	6.94840097	-0.0970000029	200	0	0
-4.11499977	6.94830036	-0.0379999988	200	0	0
-4.12300014	6.94849968	-0.163000003	200	0	0
-4.11800003	6.94849968	-0.138999999	200	0	0
-4.11999989	6.94849968	-0.201000005	200	0	0
-4.1170001	6.94849968	-0.0489999987	200	0	0
-4.12200022	6.94830036	0.00700000022	200	0	0
-4.12099981	6.94840097	-0.0120000001	200	0	0
-4.12300014	6.94840097	-0.023	200	0	0
-4.11899996	6.94840097	-0.0399999991	200	0	0
-4.11600018	6.94840097	-0.0480000004	200	0	0
-4.11999989	6.94830036	-0.0109999999	200	0	0
-4.11999989	6.94830036	-0.0209999997	200	0	0
-4.12200022	6.94849968	-0.0610000007	200	0	0
-4.1170001	6.94849968	-0.0890000015	200	0	0
-4.12200022	6.94830036	0.0260000005	200	0	0
-4.12400007	6.94849968	-0.275999993	200	0	0
-4.11800003	6.94840097	-0.293000013	200	0	0
-4.12200022	6.94840097	-0.275000006	200	0	0
-4.12300014	6.94849968	-0.264999986	200	0	0
-4.11899996	6.94849968	-0.241999999	200	0	0
-4.1170001	6.94849968	-0.108000003	200	0	0
-4.11999989	6.94849968	-0.191	200	0	0
-4.12200022	6.94849968	-0.120999999	200	0	0
-4.11399984	6.94849968	-0.147	200	0	0
-4.11800003	6.94849968	-0.252000004	200	0	0
-4.12200022	6.94849968	-0.223000005	200	0	0
-4.11899996	6.94859982	-0.201000005	200	0	0
-4.11999989	6.94859982	-0.191	200	0	0
-4.11800003	6.94859982	-0.240999997	200	0	0
-4.11600018	6.94849968	-0.0379999988	200	0	0
-4.1170001	6.94840097	0	200	0	0
-4.11899996	6.94830036	0.0379999988	200	0	0
-4.12099981	6.94849968	-0.0109999999	200	0	0
-4.11999989	6.94840097	0.0280000009	200	0	0
-4.11600018	6.94840097	0.0109999999	200	0	0
-4.11999989	6.94859982	-0.109999999	200	0	0
-4.12300014	6.94849968	-0.0719999969	200	0	0
-4.1170001	6.94849968	-0.0979999974	200	0	0
-4.11999989	6.94859982	-0.100000001	200	0	0
-4.1170001	6.94859982	-0.0390000008	200	0	0
-4.11299992	6.94849968	0.00300000003	200	0	0
-4.12200022	6.94849968	-0.0219999999	200	0	0
-4.1170001	6.94859982	-0.0480000004	200	0	0
-4.12300014	6.94840097	0.0359999985	200	0	0
-4.12200022	6.94859982	-0.0120000001	200	0	0
-4.12200022	6.94849968	0.0270000007	200	0	0
-4.11600018	6.94849968	0.0109999999	200	0	0
-4.12099981	6.94859982	-0.120999999	200	0	0
-4.11999989	6.94849968	0.0379999988	200	0	0
-4.11800003	6.94869995	-0.0500000007	200	0	0
-4.11999989	6.94859982	-0.0900000036	200	0	0
-4.12300014	6.94859982	-0.023	200	0	0
-4.12300014	6.94859982	-0.0719999969	200	0	0
-4.12200022	6.94859982	-0.0610000007	200	0	0
-4.12200022	6.94869995	0.0260000005	200	0	0
-4.12200022	6.94859982	0.00800000038	200	0	0
-4.11999989	6.94859982	0.0379999988	200	0	0
-4.11899996	6.94859982	0.0289999992	200	0	0
-4.1170001	6.94869995	0	200	0	0
-4.12099981	6.94869995	-0.0130000003	200	0	0
-4.12099981	6.94859982	-0.160999998	200	0	0
-4.12200022	6.94859982	-0.172000006	200	0	0
-4.12200022	6.94859982	-0.223000005	200	0	0
-4.11999989	6.94859982	-0.211999997	200	0	0
-4.12200022	6.94859982	-0.151999995	200	0	0
-4.11600018	6.94859982	-0.137999997	200	0	0
-4.11800003	6.94869995	-0.189999998	200	0	0
-4.12400007	6.94869995	-0.173999995	200	0	0
-4.11999989	6.94859982	-0.263000011	200	0	0
-4.11899996	6.94859982	-0.252000004	200	0	0
-4.12300014	6.94869995	-0.214000002	200	0	0
-4.11600018	6.94869995	-0.108000003	200	0	0
-4.11899996	6.94880009	-0.0900000036	200	0	0
-4.11999989	6.94880009	-0.0120000001	200	0	0
-4.11999989	6.94880009	-0.0209999997	200	0	0
-4.11499977	6.94869995	-0.0970000029	200	0	0
-4.11999989	6.94880009	-0.0710000023	200	0	0
-4.12200022	6.94880009	-0.061999999	200	0	0
-4.11499977	6.94880009	-0.0379999988	200	0	0
-4.11899996	6.94880009	-0.050999999	200	0	0
-4.11600018	6.94869995	-0.0879999995	200	0	0
-4.11800003	6.94869995	-0.0199999996	200	0	0
-4.1170001	6.94869995	-0.0689999983	200	0	0
-4.12200022	6.94869995	-0.061999999	200	0	0
-4.11800003	6.94869995	-0.0399999991	200	0	0
-4.12099981	6.94869995	-0.120999999	200	0	0
-4.11399984	6.94869995	0.0120000001	200	0	0
-4.11399984	6.94869995	-0.197999999	200	0	0
-4.11600018	6.94869995	-0.137999997	200	0	0
-4.11800003	6.94869995	-0.150000006	200	0	0
-4.11999989	6.94869995	-0.160999998	200	0	0
-4.11899996	6.94880009	-0.150000006	200	0	0
-4.11800003	6.94880009	-0.140000001	200	0	0
-4.12400007	6.94880009	-0.114	200	0	0
-4.12400007	6.94880009	-0.123999998	200	0	0
-4.11499977	6.94880009	-0.0970000029	200	0	0
-4.12200022	6.94880009	0.0260000005	200	0	0
-4.11800003	6.94869995	0.0379999988	200	0	0
-4.11600018	6.94880009	0	200	0	0
-4.125	6.94880009	0.0340000018	200	0	0
-4.11600018	6.94880009	0.0109999999	200	0	0
-4.11899996	6.94869995	-0.252999991	200	0	0
-4.11899996	6.94869995	-0.243000001	200	0	0
-4.11899996	6.94880009	-0.201000005	200	0	0
-4.12099981	6.94869995	-0.223000005	200	0	0
-4.11600018	6.94890022	0.0399999991	200	0	0
-4.10699987	6.94890022	-0.0329999998	200	0	0
-4.11800003	6.94890022	0.0289999992	200	0	0
-4.11999989	6.94890022	-0.0219999999	200	0	0
-4.11499977	6.94890022	-0.00899999961	200	0	0
-4.11800003	6.94890022	0.00899999961	200	0	0
-4.12099981	6.94869995	-0.264999986	200	0	0
-4.12200022	6.94869995	-0.275000006	200	0	0
-4.12300014	6.94880009	-0.214000002	200	0	0
-4.11800003	6.94880009	-0.241999999	200	0	0
-4.11800003	6.94880009	-0.263000011	200	0	0
-4.11600018	6.94880009	-0.188999996	200	0	0
-4.11499977	6.94880009	-0.25	200	0	0
-4.12200022	6.94880009	-0.224000007	200	0	0
-4.12200022	6.94880009	-0.172999993	200	0	0
-4.11800003	6.94880009	-0.159999996	200	0	0
-4.11600018	6.94890022	-0.0590000004	200	0	0
-4.10300016	6.94890022	-0.129999995	200	0	0
-4.11000013	6.94890022	-0.0649999976	200	0	0
-4.11100006	6.94890022	-0.115000002	200	0	0
-4.10699987	6.94890022	-0.0829999968	200	0	0
-4.10699987	6.94890022	-0.0930000022	200	0	0
-4.11000013	6.94890022	-0.104999997	200	0	0
-4.11600018	6.94890022	-0.0480000004	200	0	0
-4.11600018	6.94890022	-0.149000004	200	0	0
-4.11999989	6.94900084	-0.100000001	200	0	0
-4.12099981	6.94900084	-0.171000004	200	0	0
-4.12200022	6.94900084	-0.111000001	200	0	0
-4.11800003	6.94900084	-0.158999994	200	0	0
-4.11999989	6.94900084	-0.119999997	200	0	0
-4.11000013	6.94900084	-0.143999994	200	0	0
-4.11800003	6.94900084	-0.138999999	200	0	0
-4.11999989	6.94900084	-0.0700000003	200	0	0
-4.11800003	6.94900084	-0.0890000015	200	0	0
-4.11499977	6.94900084	-0.0370000005	200	0	0
-4.11999989	6.94900084	0.0280000009	200	0	0
-4.1170001	6.94900084	-0.0189999994	200	0	0
-4.11800003	6.94900084	0.00999999978	200	0	0
-4.11600018	6.94900084	-0.00899999961	200	0	0
-4.1170001	6.94900084	0.00100000005	200	0	0
-4.12099981	6.94900084	-0.050999999	200	0	0
-4.12200022	6.94909954	-0.0219999999	200	0	0
-4.12200022	6.94900084	-0.0610000007	200	0	0
-4.1170001	6.94909954	-0.0879999995	200	0	0
-4.1170001	6.94909954	-0.0480000004	200	0	0
-4.12200022	6.94909954	-0.0710000023	200	0	0
-4.12300014	6.94900084	-0.213	200	0	0
-4.11899996	6.94900084	-0.201000005	200	0	0
-4.1170001	6.94900084	-0.188999996	200	0	0
-4.12300014	6.94909954	-0.163000003	200	0	0
-4.11499977	6.94900084	-0.25	200	0	0
-4.11299992	6.94900084	-0.238000005	200	0	0
-4.12200022	6.94900084	-0.223000005	200	0	0
-4.12300014	6.94909954	-0.264999986	200	0	0
-4.11899996	6.94900084	-0.261999995	200	0	0
-4.11899996	6.94909954	-0.189999998	200	0	0
-4.1170001	6.94909954	-0.239999995	200	0	0
-4.11499977	6.94909954	-0.25	200	0	0
-4.11899996	6.94909954	-0.221000001	200	0	0
-4.11899996	6.94909954	-0.210999995	200	0	0
-4.12099981	6.94909954	-0.172000006	200	0	0
-4.11600018	6.94909954	-0.197999999	200	0	0
-4.11800003	6.94919968	-0.200000003	200	0	0
-4.11800003	6.94919968	-0.240999997	200	0	0
-4.12099981	6.94919968	-0.211999997	200	0	0
-4.1170001	6.94929981	-0.149000004	200	0	0
-4.11499977	6.94919968	-0.187999994	200	0	0
-4.12200022	6.94919968	-0.111000001	200	0	0
-4.1170001	6.94919968	-0.118000001	200	0	0
-4.11600018	6.94909954	-0.0979999974	200	0	0
-4.12400007	6.94919968	-0.172999993	200	0	0
-4.12300014	6.94919968	-0.163000003	200	0	0
-4.11999989	6.94919968	-0.140000001	200	0	0
-4.12099981	6.94909954	-0.111000001	200	0	0
-4.11800003	6.94909954	-0.119000003	200	0	0
-4.11499977	6.94909954	-0.136999995	200	0	0
-4.11499977	6.94909954	-0.147	200	0	0
-4.11800003	6.94919968	-0.261999995	200	0	0
-4.11899996	6.94919968	-0.252000004	200	0	0
-4.1170001	6.94919968	-0.219999999	200	0	0
-4.12300014	6.94929981	-0.163000003	200	0	0
-4.1170001	6.94929981	-0.199000001	200	0	0
-4.11899996	6.94919968	-0.273000002	200	0	0
-4.11899996	6.94929981	-0.261999995	200	0	0
-4.12200022	6.94919968	-0.0710000023	200	0	0
-4.11499977	6.94909954	-0.0370000005	200	0	0
-4.11999989	6.94909954	-0.0599999987	200	0	0
-4.1170001	6.94919968	-0.0879999995	200	0	0
-4.11499977	6.94919968	-0.0970000029	200	0	0
-4.12200022	6.94919968	-0.061999999	200	0	0
-4.11999989	6.94909954	0.0379999988	200	0	0
-4.11199999	6.94900084	0.0430000015	200	0	0
-4.12300014	6.94909954	0.0260000005	200	0	0
-4.11600018	6.94909954	0.0109999999	200	0	0
-4.12099981	6.94909954	-0.0109999999	200	0	0
-4.11399984	6.94909954	0.00300000003	200	0	0
-4.11999989	6.94919968	-0.0199999996	200	0	0
-4.1170001	6.94919968	-0.0480000004	200	0	0
-4.12200022	6.94929981	-0.0710000023	200	0	0
-4.1170001	6.94919968	-0.0379999988	200	0	0
-4.11999989	6.94929981	-0.0599999987	200	0	0
-4.12200022	6.94919968	0.0270000007	200	0	0
-4.12099981	6.94939995	-0.211999997	200	0	0
-4.11399984	6.94939995	-0.136999995	200	0	0
-4.125	6.94929981	-0.224999994	200	0	0
-4.11999989	6.94929981	-0.119999997	200	0	0
-4.11800003	6.94939995	-0.200000003	200	0	0
-4.11499977	6.94939995	-0.147	200	0	0
-4.1170001	6.94939995	-0.188999996	200	0	0
-4.12300014	6.94939995	-0.163000003	200	0	0
-4.125	6.94939995	-0.173999995	200	0	0
-4.11899996	6.94929981	-0.210999995	200	0	0
-4.11600018	6.94929981	-0.137999997	200	0	0
-4.11299992	6.94929981	-0.186000004	200	0	0
-4.11899996	6.94929981	-0.170000002	200	0	0
-4.11499977	6.94929981	-0.25	200	0	0
-4.11399984	6.94929981	-0.238999993	200	0	0
-4.11499977	6.94929981	-0.0970000029	200	0	0
-4.1170001	6.94929981	-0.108000003	200	0	0
-4.12200022	6.94939995	-0.223000005	200	0	0
-4.12400007	6.94939995	-0.266000003	200	0	0
-4.11600018	6.94939995	-0.239999995	200	0	0
-4.11499977	6.94939995	-0.248999998	200	0	0
-4.12400007	6.94939995	-0.063000001	200	0	0
-4.11999989	6.94929981	-0.0199999996	200	0	0
-4.11800003	6.94919968	-0.00999999978	200	0	0
-4.11600018	6.94929981	-0.0869999975	200	0	0
-4.11600018	6.94929981	-0.0379999988	200	0	0
-4.11399984	6.94929981	-0.0469999984	200	0	0
-4.12200022	6.94939995	-0.0710000023	200	0	0
-4.12400007	6.94939995	-0.112000003	200	0	0
-4.11600018	6.94939995	-0.0869999975	200	0	0
-4.12900019	6.94939995	-0.126000002	200	0	0
-4.12099981	6.94939995	-0.101000004	200	0	0
-4.12099981	6.94939995	-0.0109999999	200	0	0
-4.11499977	6.94929981	0.00200000009	200	0	0
-4.11999989	6.94939995	-0.0199999996	200	0	0
-4.11399984	6.94939995	-0.0370000005	200	0	0
-4.12099981	6.94919968	0.00800000038	200	0	0
-4.11600018	6.94939995	-0.0480000004	200	0	0
-4.11999989	6.94929981	-0.0109999999	200	0	0
