8.69200039	6.97340107	-0.224999994	200	0	0
8.70100021	6.97340107	-0.245000005	200	0	0
8.6789999	6.97329998	-0.153999999	200	0	0
8.69799995	6.97340107	-0.194000006	200	0	0
8.6789999	6.97329998	-0.120999999	200	0	0
8.69699955	6.97340107	-0.159999996	200	0	0
8.70400047	6.97359991	-0.229000002	200	0	0
8.69400024	6.97380018	-0.126000002	200	0	0
8.68799973	6.97380018	-0.157000005	200	0	0
8.69699955	6.97359991	-0.209999993	200	0	0
8.70600033	6.97359991	-0.195999995	200	0	0
8.69999981	6.97359991	-0.128000006	200	0	0
8.68799973	6.97359991	-0.157000005	200	0	0
8.68799973	6.97349977	-0.191	200	0	0
8.68900013	6.97349977	-0.158000007	200	0	0
8.6960001	6.97380018	-0.209999993	200	0	0
8.67099953	6.97359991	-0.268999994	200	0	0
8.70400047	6.97370005	-0.245000005	200	0	0
8.70800018	6.97349977	-0.246999994	200	0	0
8.70499992	6.97390032	-0.195999995	200	0	0
8.67599964	6.97390032	-0.153999999	200	0	0
8.69900036	6.97390032	-0.210999995	200	0	0
8.70400047	6.97400093	-0.162	200	0	0
8.68799973	6.97400093	-0.224000007	200	0	0
8.70300007	6.97400093	-0.211999997	200	0	0
8.70199966	6.97400093	-0.194999993	200	0	0
8.68099976	6.97400093	-0.238000005	200	0	0
8.70300007	6.97409964	-0.228	200	0	0
8.69099998	6.97409964	-0.158000007	200	0	0
8.69299984	6.97409964	-0.209000006	200	0	0
8.70400047	6.97409964	-0.194999993	200	0	0
8.68900013	6.97419977	-0.158000007	200	0	0
8.69999981	6.97400093	-0.128000006	200	0	0
8.69200039	6.97419977	-0.192000002	200	0	0
8.68799973	6.97440004	-0.224000007	200	0	0
8.68799973	6.97429991	-0.207000002	200	0	0
8.68599987	6.97409964	-0.123000003	200	0	0
8.69799995	6.97440004	-0.209999993	200	0	0
8.69200039	6.9746995	-0.157000005	200	0	0
8.69099998	6.97460032	-0.157000005	200	0	0
8.68700027	6.9746995	-0.188999996	200	0	0
8.69999981	6.97460032	-0.193000004	200	0	0
8.68099976	6.97440004	-0.287999988	200	0	0
8.67599964	6.9746995	-0.236000001	200	0	0
8.70300007	6.9746995	-0.226999998	200	0	0
8.68700027	6.9746995	-0.206	200	0	0
8.69299984	6.97460032	-0.224000007	200	0	0
8.70899963	6.97479963	-0.163000003	200	0	0
8.69099998	6.97479963	-0.224000007	200	0	0
8.68599987	6.97479963	-0.204999998	200	0	0
8.68900013	6.97479963	-0.189999998	200	0	0
8.68999958	6.97489977	-0.157000005	200	0	0
8.70199966	6.97489977	-0.209999993	200	0	0
8.68000031	6.97489977	-0.237000003	200	0	0
8.68900013	6.97489977	-0.223000005	200	0	0
8.69099998	6.97489977	-0.273999989	200	0	0
8.67399979	6.9749999	-0.234999999	200	0	0
8.68400002	6.9749999	-0.221000001	200	0	0
8.66800022	6.9749999	-0.150000006	200	0	0
8.69799995	6.97510004	-0.192000002	200	0	0
8.68599987	6.97510004	-0.156000003	200	0	0
8.68099976	6.97510004	-0.203999996	200	0	0
8.6960001	6.97530079	-0.189999998	200	0	0
8.68799973	6.97530079	-0.203999996	200	0	0
8.67500019	6.97530079	-0.233999997	200	0	0
8.69299984	6.97530079	-0.223000005	200	0	0
8.68500042	6.97520018	-0.187999994	200	0	0
8.68400002	6.97520018	-0.204999998	200	0	0
8.70100021	6.97520018	-0.226999998	200	0	0
8.70300007	6.97559977	-0.192000002	200	0	0
8.70499992	6.97550011	-0.209999993	200	0	0
8.69400024	6.97539997	-0.223000005	200	0	0
8.68500042	6.97559977	-0.153999999	200	0	0
8.70300007	6.97550011	-0.192000002	200	0	0
8.69099998	6.97550011	-0.122000001	200	0	0
8.69200039	6.97550011	-0.156000003	200	0	0
8.64999962	6.97520018	-0.112000003	200	0	0
8.67800045	6.97539997	-0.185000002	200	0	0
8.67800045	6.97530079	-0.151999995	200	0	0
8.66899967	6.97520018	-0.150000006	200	0	0
8.69400024	6.97559977	-0.223000005	200	0	0
8.69099998	6.97550011	-0.238999993	200	0	0
8.68900013	6.97559977	-0.204999998	200	0	0
8.70699978	6.97550011	-0.226999998	200	0	0
8.68700027	6.9756999	-0.203999996	200	0	0
8.67599964	6.97580004	-0.201000005	200	0	0
8.69400024	6.97590065	-0.207000002	200	0	0
8.69200039	6.97590065	-0.223000005	200	0	0
8.67399979	6.97590065	-0.233999997	200	0	0
8.69999981	6.97590065	-0.192000002	200	0	0
8.68799973	6.97590065	-0.155000001	200	0	0
8.68999958	6.97599983	-0.155000001	200	0	0
8.67599964	6.97599983	-0.217999995	200	0	0
8.69099998	6.97599983	-0.188999996	200	0	0
8.67599964	6.97599983	-0.118000001	200	0	0
8.67800045	6.97599983	-0.234999999	200	0	0
8.67800045	6.9762001	-0.151999995	200	0	0
8.67199993	6.9762001	-0.216000006	200	0	0
8.67099953	6.97609997	-0.232999995	200	0	0
8.66899967	6.97609997	-0.149000004	200	0	0
8.69200039	6.9762001	-0.206	200	0	0
8.68999958	6.9762001	-0.188999996	200	0	0
8.69699955	6.97609997	-0.224000007	200	0	0
8.68900013	6.97609997	-0.204999998	200	0	0
8.68500042	6.97609997	-0.187000006	200	0	0
8.66699982	6.9762001	-0.231000006	200	0	0
8.65299988	6.9762001	-0.25999999	200	0	0
8.67300034	6.97609997	-0.282999992	200	0	0
8.67099953	6.97609997	-0.266000003	200	0	0
8.67099953	6.97599983	-0.282999992	200	0	0
8.68500042	6.97650099	-0.153999999	200	0	0
8.67700005	6.97650099	-0.217999995	200	0	0
8.69299984	6.97650099	-0.206	200	0	0
8.68900013	6.97640038	-0.204999998	200	0	0
8.67399979	6.97630024	-0.216999993	200	0	0
8.68500042	6.97659969	-0.153999999	200	0	0
8.67000008	6.97650099	-0.232999995	200	0	0
8.67599964	6.97630024	-0.268000007	200	0	0
8.65999985	6.9762001	-0.296000004	200	0	0
8.68700027	6.97659969	-0.204999998	200	0	0
8.68299961	6.97659969	-0.187000006	200	0	0
8.66600037	6.97650099	-0.264999986	200	0	0
8.67199993	6.97669983	-0.231999993	200	0	0
8.67399979	6.97669983	-0.181999996	200	0	0
8.68200016	6.97669983	-0.217999995	200	0	0
8.66399956	6.97679996	-0.229000002	200	0	0
8.65999985	6.97679996	-0.210999995	200	0	0
8.6789999	6.97679996	-0.184	200	0	0
8.67000008	6.97679996	-0.197999999	200	0	0
8.64599991	6.97609997	-0.307999998	200	0	0
8.64900017	6.97669983	-0.257999986	200	0	0
8.67500019	6.9769001	-0.232999995	200	0	0
8.64999962	6.97669983	-0.275000006	200	0	0
8.63300037	6.97650099	-0.287	200	0	0
8.66899967	6.97669983	-0.148000002	200	0	0
8.68500042	6.9769001	-0.152999997	200	0	0
8.6590004	6.97679996	-0.144999996	200	0	0
8.67000008	6.97659969	-0.115999997	200	0	0
8.68099976	6.9769001	-0.201000005	200	0	0
8.68599987	6.97710037	-0.186000004	200	0	0
8.67700005	6.97700024	-0.200000003	200	0	0
8.68000031	6.97710037	-0.150999993	200	0	0
8.68700027	6.97700024	-0.186000004	200	0	0
8.67800045	6.97700024	-0.150999993	200	0	0
8.64400005	6.9769001	-0.273000002	200	0	0
8.6619997	6.97710037	-0.211999997	200	0	0
8.6789999	6.97700024	-0.216999993	200	0	0
8.64000034	6.97710037	-0.287999988	200	0	0
8.66100025	6.97729969	-0.194999993	200	0	0
8.67000008	6.97729969	-0.180999994	200	0	0
8.66699982	6.97719955	-0.196999997	200	0	0
8.66800022	6.97729969	-0.147	200	0	0
8.65499973	6.97719955	-0.175999999	200	0	0
8.64500046	6.97729969	-0.256999999	200	0	0
8.66699982	6.97739983	-0.230000004	200	0	0
8.66100025	6.97719955	-0.261000007	200	0	0
8.67199993	6.97719955	-0.231999993	200	0	0
8.64299965	6.97739983	-0.256000012	200	0	0
8.66100025	6.97749996	-0.211999997	200	0	0
8.65499973	6.97770023	-0.209999993	200	0	0
8.66300011	6.97770023	-0.145999998	200	0	0
8.6789999	6.97780085	-0.201000005	200	0	0
8.6619997	6.97780085	-0.229000002	200	0	0
8.68400002	6.97780085	-0.186000004	200	0	0
8.66300011	6.97780085	-0.145999998	200	0	0
8.67399979	6.97799969	-0.216000006	200	0	0
8.65499973	6.97799969	-0.177000001	200	0	0
8.65699959	6.97799969	-0.194000006	200	0	0
8.64900017	6.97789955	-0.191	200	0	0
8.65799999	6.97799969	-0.144999996	200	0	0
8.66100025	6.97809982	-0.211999997	200	0	0
8.68200016	6.97789955	-0.268000007	200	0	0
8.64000034	6.97799969	-0.254999995	200	0	0
8.64999962	6.97799969	-0.275000006	200	0	0
8.66899967	6.97819996	-0.229000002	200	0	0
8.67800045	6.97819996	-0.181999996	200	0	0
8.67199993	6.97819996	-0.196999997	200	0	0
8.65400028	6.97809982	-0.225999996	200	0	0
8.66600037	6.97809982	-0.180000007	200	0	0
8.66800022	6.97809982	-0.196999997	200	0	0
8.6590004	6.97819996	-0.143000007	200	0	0
8.64000034	6.97799969	-0.105999999	200	0	0
8.67000008	6.97830009	-0.213	200	0	0
8.65100002	6.97830009	-0.273999989	200	0	0
8.66899967	6.97840071	-0.195999995	200	0	0
8.6619997	6.97840071	-0.226999998	200	0	0
8.6590004	6.97840071	-0.143000007	200	0	0
8.66100025	6.97860003	-0.177000001	200	0	0
8.65699959	6.97849989	-0.259000003	200	0	0
8.64799976	6.97860003	-0.223000005	200	0	0
8.65799999	6.97830009	-0.143000007	200	0	0
8.65499973	6.97840071	-0.259000003	200	0	0
8.6590004	6.97849989	-0.209999993	200	0	0
8.64599991	6.97860003	-0.140000001	200	0	0
8.66699982	6.97849989	-0.145999998	200	0	0
8.66300011	6.97870016	-0.228	200	0	0
8.6590004	6.97849989	-0.293000013	200	0	0
8.65100002	6.97870016	-0.256999999	200	0	0
8.63700008	6.97870016	-0.136999995	200	0	0
8.65200043	6.97879982	-0.224000007	200	0	0
8.67300034	6.97879982	-0.197999999	200	0	0
8.65299988	6.97900105	-0.174999997	200	0	0
8.64799976	6.97900105	-0.189999998	200	0	0
8.64799976	6.97900105	-0.206	200	0	0
8.65799999	6.97900105	-0.225999996	200	0	0
8.65400028	6.97909975	-0.192000002	200	0	0
8.66499996	6.97909975	-0.211999997	200	0	0
8.65499973	6.97909975	-0.224999994	200	0	0
8.65100002	6.97909975	-0.173999995	200	0	0
8.6420002	6.97909975	-0.104999997	200	0	0
8.65499973	6.97909975	-0.142000005	200	0	0
8.67000008	6.97919989	-0.180000007	200	0	0
8.65699959	6.97919989	-0.209000006	200	0	0
8.66600037	6.97940016	-0.196999997	200	0	0
8.65499973	6.97919989	-0.142000005	200	0	0
8.64299965	6.97930002	-0.221000001	200	0	0
8.64700031	6.97919989	-0.107000001	200	0	0
8.63399982	6.97940016	-0.137999997	200	0	0
8.66499996	6.97940016	-0.180000007	200	0	0
8.64400005	6.97960043	-0.189999998	200	0	0
8.63000011	6.97960043	-0.252000004	200	0	0
8.6590004	6.97960043	-0.228	200	0	0
8.63899994	6.97989988	-0.207000002	200	0	0
8.64999962	6.97979975	-0.225999996	200	0	0
8.65400028	6.97989988	-0.178000003	200	0	0
8.64299965	6.97979975	-0.141000003	200	0	0
8.64299965	6.97979975	-0.207000002	200	0	0
8.65699959	6.97979975	-0.194000006	200	0	0
8.64900017	6.97979975	-0.174999997	200	0	0
8.64000034	6.97969961	-0.140000001	200	0	0
8.64900017	6.98000002	-0.194000006	200	0	0
8.6590004	6.97989988	-0.230000004	200	0	0
8.61699963	6.97969961	-0.264999986	200	0	0
8.64599991	6.97979975	-0.256999999	200	0	0
8.62899971	6.97989988	-0.252999991	200	0	0
8.65299988	6.97979975	-0.275999993	200	0	0
8.65799999	6.98000002	-0.213	200	0	0
8.64799976	6.98000002	-0.177000001	200	0	0
8.64900017	6.97989988	-0.27700001	200	0	0
8.63199997	6.98000002	-0.138999999	200	0	0
8.65200043	6.98010015	-0.210999995	200	0	0
8.6420002	6.98010015	-0.191	200	0	0
8.65100002	6.98010015	-0.178000003	200	0	0
8.6420002	6.98010015	-0.224000007	200	0	0
8.65400028	6.9803009	-0.230000004	200	0	0
8.64400005	6.98020029	-0.226999998	200	0	0
8.64500046	6.98020029	-0.209999993	200	0	0
8.65799999	6.98020029	-0.197999999	200	0	0
8.61400032	6.98000002	-0.282000005	200	0	0
8.63500023	6.98010015	-0.272000015	200	0	0
8.6420002	6.9803009	-0.143000007	200	0	0
8.63700008	6.98039961	-0.142000005	200	0	0
8.63899994	6.98049974	-0.209000006	200	0	0
8.64700031	6.98049974	-0.178000003	200	0	0
8.64700031	6.98049974	-0.194999993	200	0	0
8.63899994	6.98039961	-0.224999994	200	0	0
8.63199997	6.98039961	-0.172999993	200	0	0
8.64500046	6.98039961	-0.209999993	200	0	0
8.64099979	6.98039961	-0.193000004	200	0	0
8.63000011	6.98049974	-0.256000012	200	0	0
8.6239996	6.9803009	-0.287	200	0	0
8.6239996	6.9803009	-0.270000011	200	0	0
8.64000034	6.98010015	-0.289999992	200	0	0
8.61600018	6.98000002	-0.298999995	200	0	0
8.625	6.98059988	-0.137999997	200	0	0
8.6420002	6.98080015	-0.177000001	200	0	0
8.62699986	6.98070002	-0.254999995	200	0	0
8.64599991	6.98080015	-0.210999995	200	0	0
8.63899994	6.98049974	-0.143000007	200	0	0
8.63899994	6.98070002	-0.175999999	200	0	0
8.625	6.98059988	-0.254000008	200	0	0
8.64900017	6.98070002	-0.194999993	200	0	0
8.64900017	6.98070002	-0.211999997	200	0	0
8.64599991	6.98059988	-0.178000003	200	0	0
8.63000011	6.98059988	-0.188999996	200	0	0
8.65699959	6.98059988	-0.214000002	200	0	0
8.65499973	6.98049974	-0.114	200	0	0
8.64900017	6.98070002	-0.144999996	200	0	0
8.64299965	6.98090076	-0.177000001	200	0	0
8.63799953	6.98090076	-0.208000004	200	0	0
8.62199974	6.98070002	-0.286000013	200	0	0
8.65699959	6.98090076	-0.148000002	200	0	0
8.62300014	6.98090076	-0.254000008	200	0	0
8.6260004	6.98119974	-0.254999995	200	0	0
8.64400005	6.98119974	-0.209999993	200	0	0
8.6420002	6.98119974	-0.225999996	200	0	0
8.64000034	6.98110008	-0.225999996	200	0	0
8.61800003	6.98110008	-0.169	200	0	0
8.63199997	6.98110008	-0.141000003	200	0	0
8.63399982	6.98129988	-0.173999995	200	0	0
8.61100006	6.98129988	-0.134000003	200	0	0
8.60599995	6.98119974	-0.264999986	200	0	0
8.63500023	6.98140001	-0.191	200	0	0
8.6420002	6.98140001	-0.209999993	200	0	0
8.63099957	6.98129988	-0.189999998	200	0	0
8.62899971	6.98129988	-0.222000003	200	0	0
8.63899994	6.98129988	-0.209000006	200	0	0
8.63199997	6.98140001	-0.141000003	200	0	0
8.6260004	6.98159981	-0.136999995	200	0	0
8.63399982	6.98150063	-0.172999993	200	0	0
8.62699986	6.98150063	-0.137999997	200	0	0
8.63799953	6.98169994	-0.142000005	200	0	0
8.62899971	6.98169994	-0.206	200	0	0
8.63899994	6.98159981	-0.224000007	200	0	0
8.63300037	6.98169994	-0.189999998	200	0	0
8.63599968	6.98169994	-0.174999997	200	0	0
8.63399982	6.98159981	-0.206	200	0	0
8.62699986	6.98159981	-0.171000004	200	0	0
8.64900017	6.98150063	-0.210999995	200	0	0
8.64700031	6.98150063	-0.193000004	200	0	0
8.63199997	6.98159981	-0.254999995	200	0	0
8.61299992	6.98169994	-0.25	200	0	0
8.61100006	6.98180008	-0.25	200	0	0
8.60299969	6.98169994	-0.263999999	200	0	0
8.6260004	6.98219967	-0.140000001	200	0	0
8.63000011	6.98219967	-0.208000004	200	0	0
8.63899994	6.98219967	-0.194000006	200	0	0
8.61699963	6.98219967	-0.171000004	200	0	0
8.62300014	6.9822998	-0.222000003	200	0	0
8.6260004	6.9822998	-0.206	200	0	0
8.63799953	6.9822998	-0.194000006	200	0	0
8.64400005	6.98219967	-0.229000002	200	0	0
8.61200047	6.98219967	-0.252000004	200	0	0
8.61499977	6.98250008	-0.170000002	200	0	0
8.6260004	6.98239994	-0.189999998	200	0	0
8.61699963	6.98250008	-0.137999997	200	0	0
8.62800026	6.98239994	-0.207000002	200	0	0
8.63199997	6.98250008	-0.192000002	200	0	0
8.5909996	6.98239994	-0.261999995	200	0	0
8.60999966	6.98250008	-0.250999987	200	0	0
8.61400032	6.98260021	-0.218999997	200	0	0
8.62899971	6.98260021	-0.191	200	0	0
8.60299969	6.9822998	-0.264999986	200	0	0
8.62199974	6.98239994	-0.254999995	200	0	0
8.625	6.98250008	-0.223000005	200	0	0
8.62199974	6.9822998	-0.254999995	200	0	0
8.6260004	6.98239994	-0.223000005	200	0	0
8.63199997	6.98250008	-0.291000009	200	0	0
8.62300014	6.98250008	-0.272000015	200	0	0
8.61499977	6.98309994	-0.172000006	200	0	0
8.61299992	6.98309994	-0.137999997	200	0	0
8.61699963	6.98309994	-0.188999996	200	0	0
8.62100029	6.98309994	-0.223000005	200	0	0
8.62699986	6.98309994	-0.209000006	200	0	0
8.62100029	6.98320007	-0.206	200	0	0
8.60599995	6.98340082	-0.185000002	200	0	0
8.61600018	6.98340082	-0.172000006	200	0	0
8.60299969	6.98330021	-0.201000005	200	0	0
8.61100006	6.98330021	-0.137999997	200	0	0
8.60299969	6.98330021	-0.185000002	200	0	0
8.61400032	6.98330021	-0.171000004	200	0	0
8.59300041	6.98340082	-0.131999999	200	0	0
8.625	6.98349953	-0.191	200	0	0
8.61800003	6.98349953	-0.206	200	0	0
8.60900021	6.98349953	-0.170000002	200	0	0
8.59399986	6.9836998	-0.247999996	200	0	0
8.60499954	6.98400068	-0.137999997	200	0	0
8.61100006	6.98359966	-0.252999991	200	0	0
8.61699963	6.98390007	-0.223000005	200	0	0
8.61600018	6.98379993	-0.108000003	200	0	0
8.57400036	6.98340082	-0.0939999968	200	0	0
8.60999966	6.98400068	-0.187999994	200	0	0
8.57699966	6.98379993	-0.128999993	200	0	0
8.61900043	6.98400068	-0.174999997	200	0	0
8.59700012	6.98390007	-0.135000005	200	0	0
8.61699963	6.9836998	-0.107000001	200	0	0
8.61600018	6.98390007	-0.189999998	200	0	0
8.62300014	6.98390007	-0.175999999	200	0	0
8.61600018	6.9836998	-0.222000003	200	0	0
8.6079998	6.98379993	-0.203999996	200	0	0
8.60000038	6.98379993	-0.185000002	200	0	0
8.60499954	6.98379993	-0.170000002	200	0	0
8.6079998	6.9836998	-0.136999995	200	0	0
8.61100006	6.9836998	-0.203999996	200	0	0
8.61499977	6.98359966	-0.204999998	200	0	0
8.6260004	6.98359966	-0.142000005	200	0	0
8.61699963	6.98359966	-0.188999996	200	0	0
8.61299992	6.98349953	-0.137999997	200	0	0
8.63000011	6.98359966	-0.175999999	200	0	0
8.61800003	6.98379993	-0.256999999	200	0	0
8.60200024	6.98400068	-0.252000004	200	0	0
8.60400009	6.98409986	-0.219999999	200	0	0
8.61400032	6.98409986	-0.256000012	200	0	0
8.60499954	6.98430014	-0.219999999	200	0	0
8.61800003	6.98430014	-0.208000004	200	0	0
8.60999966	6.98430014	-0.172000006	200	0	0
8.60000038	6.98430014	-0.185000002	200	0	0
8.61299992	6.9842	-0.188999996	200	0	0
8.61699963	6.9843998	-0.173999995	200	0	0
8.59500027	6.9843998	-0.134000003	200	0	0
8.59399986	6.98430014	-0.134000003	200	0	0
8.62699986	6.9842	-0.25999999	200	0	0
8.61600018	6.9843998	-0.189999998	200	0	0
8.60400009	6.98430014	-0.252999991	200	0	0
8.62100029	6.98449993	-0.208000004	200	0	0
8.60200024	6.98460007	-0.252000004	200	0	0
8.5909996	6.98449993	-0.248999998	200	0	0
8.57900047	6.98409986	-0.277999997	200	0	0
8.60999966	6.98469973	-0.204999998	200	0	0
8.59300041	6.9849	-0.166999996	200	0	0
8.60700035	6.98479986	-0.187000006	200	0	0
8.59200001	6.9849	-0.134000003	200	0	0
8.60099983	6.98460007	-0.202000007	200	0	0
8.59399986	6.98469973	-0.184	200	0	0
8.59700012	6.98479986	-0.135000005	200	0	0
8.61499977	6.98460007	-0.189999998	200	0	0
8.61200047	6.98449993	-0.188999996	200	0	0
8.60499954	6.98460007	-0.170000002	200	0	0
8.59899998	6.98460007	-0.136000007	200	0	0
8.58100033	6.98449993	-0.129999995	200	0	0
8.58600044	6.98479986	-0.246999994	200	0	0
8.59500027	6.98479986	-0.200000003	200	0	0
8.60700035	6.98479986	-0.221000001	200	0	0
8.58399963	6.98469973	-0.246000007	200	0	0
8.60900021	6.98469973	-0.221000001	200	0	0
8.59500027	6.9849	-0.216999993	200	0	0
8.5909996	6.9849	-0.199000001	200	0	0
8.60299969	6.9849	-0.186000004	200	0	0
8.58199978	6.98469973	-0.279000014	200	0	0
8.59200001	6.9849	-0.248999998	200	0	0
8.57600021	6.98479986	-0.25999999	200	0	0
8.59200001	6.98500013	-0.182999998	200	0	0
8.57499981	6.98500013	-0.243000001	200	0	0
8.5909996	6.98500013	-0.199000001	200	0	0
8.59799957	6.98500013	-0.217999995	200	0	0
8.57999992	6.9849	-0.294999987	200	0	0
8.59200001	6.98520041	-0.185000002	200	0	0
8.59899998	6.98510027	-0.169	200	0	0
8.59399986	6.98510027	-0.266000003	200	0	0
8.59300041	6.98510027	-0.182999998	200	0	0
8.57499981	6.98510027	-0.243000001	200	0	0
8.59599972	6.98500013	-0.167999998	200	0	0
8.59200001	6.98510027	-0.199000001	200	0	0
8.59899998	6.98510027	-0.217999995	200	0	0
8.59399986	6.98520041	-0.136000007	200	0	0
8.56900024	6.98500013	-0.127000004	200	0	0
8.5880003	6.98510027	-0.131999999	200	0	0
8.59899998	6.98530102	-0.136999995	200	0	0
8.59000015	6.98530102	-0.200000003	200	0	0
8.57999992	6.98510027	-0.0970000029	200	0	0
8.59000015	6.98530102	-0.216999993	200	0	0
8.59700012	6.98539972	-0.186000004	200	0	0
8.59799957	6.98539972	-0.218999997	200	0	0
8.57699966	6.98549986	-0.261999995	200	0	0
8.58199978	6.98549986	-0.246999994	200	0	0
8.57400036	6.98539972	-0.277999997	200	0	0
8.5710001	6.98539972	-0.25999999	200	0	0
8.58899975	6.98539972	-0.25	200	0	0
8.60200024	6.98559999	-0.171000004	200	0	0
8.59700012	6.98559999	-0.186000004	200	0	0
8.60000038	6.98559999	-0.203999996	200	0	0
8.58899975	6.98549986	-0.200000003	200	0	0
8.60000038	6.98549986	-0.187000006	200	0	0
8.58100033	6.98580027	-0.131999999	200	0	0
8.5880003	6.98580027	-0.200000003	200	0	0
8.59399986	6.98580027	-0.185000002	200	0	0
8.59399986	6.98570013	-0.202000007	200	0	0
8.60499954	6.98570013	-0.138999999	200	0	0
8.57400036	6.98559999	-0.129999995	200	0	0
8.58199978	6.98570013	-0.246999994	200	0	0
8.58300018	6.98559999	-0.247999996	200	0	0
8.58100033	6.98580027	-0.246999994	200	0	0
8.57900047	6.98590088	-0.196999997	200	0	0
8.58500004	6.98590088	-0.165999994	200	0	0
8.57600021	6.98590088	-0.246000007	200	0	0
8.58399963	6.98599958	-0.133000001	200	0	0
8.60000038	6.98609972	-0.171000004	200	0	0
8.58500004	6.98599958	-0.215000004	200	0	0
8.60000038	6.98590088	-0.137999997	200	0	0
8.57400036	6.98599958	-0.245000005	200	0	0
8.58199978	6.98619986	-0.131999999	200	0	0
8.56599998	6.98609972	-0.241999999	200	0	0
8.59000015	6.98619986	-0.184	200	0	0
8.56200027	6.98619986	-0.240999997	200	0	0
8.57499981	6.98629999	-0.213	200	0	0
8.58199978	6.98629999	-0.197999999	200	0	0
8.58500004	6.98629999	-0.182999998	200	0	0
8.56799984	6.98629999	-0.243000001	200	0	0
8.57600021	6.98629999	-0.129999995	200	0	0
8.57699966	6.98640013	-0.164000005	200	0	0
8.58899975	6.98659992	-0.184	200	0	0
8.57800007	6.98670006	-0.164000005	200	0	0
8.59700012	6.98670006	-0.136999995	200	0	0
8.57299995	6.98659992	-0.163000003	200	0	0
8.56200027	6.98650074	-0.257999986	200	0	0
8.57699966	6.98659992	-0.246000007	200	0	0
8.57199955	6.98670006	-0.210999995	200	0	0
8.58899975	6.98670006	-0.184	200	0	0
8.58600044	6.98670006	-0.199000001	200	0	0
8.57900047	6.98659992	-0.196999997	200	0	0
8.57600021	6.98670006	-0.246000007	200	0	0
8.56099987	6.98679972	-0.174999997	200	0	0
8.57600021	6.98679972	-0.195999995	200	0	0
8.55900002	6.98679972	-0.158000007	200	0	0
8.56799984	6.98679972	-0.25999999	200	0	0
8.59000015	6.98689985	-0.135000005	200	0	0
8.56200027	6.98699999	-0.192000002	200	0	0
8.58399963	6.98689985	-0.215000004	200	0	0
8.58500004	6.98689985	-0.182999998	200	0	0
8.5539999	6.98689985	-0.238999993	200	0	0
8.56499958	6.98719978	-0.175999999	200	0	0
8.55799961	6.98719978	-0.239999995	200	0	0
8.56499958	6.98719978	-0.209000006	200	0	0
8.58300018	6.98729992	-0.199000001	200	0	0
8.58199978	6.98719978	-0.165000007	200	0	0
8.56499958	6.98729992	-0.127000004	200	0	0
8.57199955	6.98729992	-0.162	200	0	0
8.57400036	6.98750019	-0.211999997	200	0	0
8.57600021	6.98729992	-0.246000007	200	0	0
8.56700039	6.98750019	-0.177000001	200	0	0
8.57499981	6.98750019	-0.195999995	200	0	0
8.56000042	6.98740005	-0.208000004	200	0	0
8.56099987	6.98740005	-0.158999994	200	0	0
8.57600021	6.98740005	-0.195999995	200	0	0
8.56900024	6.98729992	-0.210999995	200	0	0
8.57199955	6.98760033	-0.128999993	200	0	0
8.55700016	6.98760033	-0.158000007	200	0	0
8.55099964	6.98750019	-0.156000003	200	0	0
8.55700016	6.98740005	-0.239999995	200	0	0
8.55200005	6.98740005	-0.254999995	200	0	0
8.55500031	6.98750019	-0.254999995	200	0	0
8.56299973	6.98760033	-0.241999999	200	0	0
8.55700016	6.98760033	-0.207000002	200	0	0
8.56000042	6.98760033	-0.256999999	200	0	0
8.57299995	6.98769999	-0.194999993	200	0	0
8.56400013	6.98769999	-0.159999996	200	0	0
8.56400013	6.98769999	-0.175999999	200	0	0
8.55900002	6.98769999	-0.240999997	200	0	0
8.55700016	6.98789978	-0.158000007	200	0	0
8.56099987	6.98789978	-0.174999997	200	0	0
8.55799961	6.98789978	-0.207000002	200	0	0
8.55700016	6.98789978	-0.191	200	0	0
8.5710001	6.98789978	-0.244000003	200	0	0
8.56499958	6.98799992	-0.127000004	200	0	0
8.54599953	6.98810005	-0.187000006	200	0	0
8.55799961	6.98810005	-0.173999995	200	0	0
8.57400036	6.98789978	-0.129999995	200	0	0
8.55099964	6.98799992	-0.187999994	200	0	0
8.56200027	6.98799992	-0.158999994	200	0	0
8.57800007	6.98799992	-0.180999994	200	0	0
8.55300045	6.98810005	-0.254999995	200	0	0
8.55599976	6.98810005	-0.238999993	200	0	0
8.55200005	6.98799992	-0.238000005	200	0	0
8.55900002	6.98789978	-0.256999999	200	0	0
8.56099987	6.98840094	-0.173999995	200	0	0
8.54300022	6.98840094	-0.201000005	200	0	0
8.57199955	6.98840094	-0.243000001	200	0	0
8.55799961	6.98830032	-0.254999995	200	0	0
8.57299995	6.98830032	-0.243000001	200	0	0
8.56200027	6.98830032	-0.191	200	0	0
8.57299995	6.98820019	-0.245000005	200	0	0
8.53899956	6.98840094	-0.150999993	200	0	0
8.55799961	6.98840094	-0.123999998	200	0	0
8.55000019	6.98849964	-0.202999994	200	0	0
8.55099964	6.98849964	-0.252999991	200	0	0
8.56099987	6.98859978	-0.256000012	200	0	0
8.54500008	6.98859978	-0.202000007	200	0	0
8.56599998	6.98859978	-0.174999997	200	0	0
8.54300022	6.98859978	-0.151999995	200	0	0
8.5710001	6.98859978	-0.243000001	200	0	0
8.54300022	6.98880005	-0.119000003	200	0	0
8.56700039	6.98880005	-0.175999999	200	0	0
8.56000042	6.98880005	-0.157000005	200	0	0
8.55500031	6.98869991	-0.172000006	200	0	0
8.53499985	6.98880005	-0.197999999	200	0	0
8.55200005	6.98880005	-0.237000003	200	0	0
8.54500008	6.98880005	-0.250999987	200	0	0
8.54699993	6.98890018	-0.152999997	200	0	0
8.55599976	6.98890018	-0.123000003	200	0	0
8.53899956	6.9890008	-0.150999993	200	0	0
8.53999996	6.98890018	-0.232999995	200	0	0
8.56099987	6.98890018	-0.207000002	200	0	0
8.56400013	6.98890018	-0.174999997	200	0	0
8.55300045	6.98890018	-0.187999994	200	0	0
8.5340004	6.9890995	-0.231000006	200	0	0
8.54500008	6.98929977	-0.151999995	200	0	0
8.55799961	6.98929977	-0.172999993	200	0	0
8.54399967	6.9890995	-0.119999997	200	0	0
8.55799961	6.98919964	-0.206	200	0	0
8.5539999	6.98919964	-0.155000001	200	0	0
8.56400013	6.98919964	-0.191	200	0	0
8.5539999	6.9890995	-0.203999996	200	0	0
8.54599953	6.9890995	-0.152999997	200	0	0
8.55099964	6.9890995	-0.187000006	200	0	0
8.55099964	6.9890995	-0.171000004	200	0	0
8.53999996	6.98939991	-0.200000003	200	0	0
8.54199982	6.98929977	-0.232999995	200	0	0
8.52600002	6.98919964	-0.229000002	200	0	0
8.53899956	6.9890995	-0.248999998	200	0	0
8.53600025	6.98929977	-0.247999996	200	0	0
8.55599976	6.98939991	-0.172000006	200	0	0
8.54199982	6.98939991	-0.232999995	200	0	0
8.53800011	6.98939991	-0.182999998	200	0	0
8.53999996	6.98939991	-0.248999998	200	0	0
8.52700043	6.98950005	-0.245000005	200	0	0
8.53600025	6.98950005	-0.263999999	200	0	0
8.54800034	6.98950005	-0.234999999	200	0	0
8.54500008	6.98950005	-0.169	200	0	0
8.54699993	6.98950005	-0.202000007	200	0	0
8.55300045	6.98950005	-0.122000001	200	0	0
8.53100014	6.98950005	-0.148000002	200	0	0
8.55799961	6.98960018	-0.172999993	200	0	0
8.55200005	6.98969984	-0.153999999	200	0	0
8.54599953	6.98969984	-0.119999997	200	0	0
8.54899979	6.98960018	-0.120999999	200	0	0
8.53999996	6.98969984	-0.166999996	200	0	0
8.55300045	6.98960018	-0.203999996	200	0	0
8.54699993	6.98960018	-0.186000004	200	0	0
8.5340004	6.98979998	-0.197999999	200	0	0
8.54300022	6.98960018	-0.25	200	0	0
8.53600025	6.98960018	-0.231999993	200	0	0
8.55700016	6.98979998	-0.188999996	200	0	0
8.52499962	6.98979998	-0.163000003	200	0	0
8.53299999	6.98979998	-0.149000004	200	0	0
8.52700043	6.98979998	-0.114	200	0	0
8.53600025	6.98990011	-0.116999999	200	0	0
8.5369997	6.98990011	-0.182999998	200	0	0
8.54699993	6.98990011	-0.169	200	0	0
8.52900028	6.98990011	-0.147	200	0	0
8.51900005	6.98979998	-0.243000001	200	0	0
8.54399967	6.98979998	-0.233999997	200	0	0
8.54899979	6.98999977	-0.202999994	200	0	0
8.53499985	6.98999977	-0.231000006	200	0	0
8.54399967	6.98990011	-0.201000005	200	0	0
8.55300045	6.98990011	-0.237000003	200	0	0
8.52600002	6.98990011	-0.245000005	200	0	0
8.5369997	6.98999977	-0.182999998	200	0	0
8.52600002	6.98999977	-0.163000003	200	0	0
8.53999996	6.99039984	-0.200000003	200	0	0
8.54199982	6.99030113	-0.232999995	200	0	0
8.54199982	6.99030113	-0.184	200	0	0
8.53499985	6.99030113	-0.197999999	200	0	0
8.54500008	6.99030113	-0.250999987	200	0	0
8.53899956	6.99039984	-0.248999998	200	0	0
8.52799988	6.99039984	-0.277999997	200	0	0
8.54399967	6.99039984	-0.233999997	200	0	0
8.56599998	6.99039984	-0.174999997	200	0	0
8.53499985	6.99039984	-0.181999996	200	0	0
8.52999973	6.99049997	-0.180000007	200	0	0
8.5369997	6.99049997	-0.165999994	200	0	0
8.5170002	6.99049997	-0.193000004	200	0	0
8.51399994	6.99049997	-0.143000007	200	0	0
8.52499962	6.99049997	-0.228	200	0	0
8.54500008	6.99070024	-0.233999997	200	0	0
8.54399967	6.99070024	-0.169	200	0	0
8.54699993	6.99070024	-0.202000007	200	0	0
8.52400017	6.99049997	-0.244000003	200	0	0
8.52400017	6.99049997	-0.27700001	200	0	0
8.52000046	6.99070024	-0.144999996	200	0	0
8.50500011	6.99049997	-0.30399999	200	0	0
8.53199959	6.99070024	-0.263000011	200	0	0
8.52200031	6.99070024	-0.243000001	200	0	0
8.5340004	6.99130011	-0.229000002	200	0	0
8.51799965	6.99130011	-0.192000002	200	0	0
8.53100014	6.99119997	-0.245000005	200	0	0
8.51500034	6.99119997	-0.224000007	200	0	0
8.52200031	6.99130011	-0.241999999	200	0	0
8.50500011	6.99130011	-0.171000004	200	0	0
8.52299976	6.99140024	-0.159999996	200	0	0
8.5340004	6.99140024	-0.196999997	200	0	0
8.51900005	6.99140024	-0.224999994	200	0	0
8.50800037	6.99140024	-0.238000005	200	0	0
8.50899982	6.99159956	-0.254000008	200	0	0
8.50800037	6.99150085	-0.221000001	200	0	0
8.50500011	6.99150085	-0.187999994	200	0	0
8.50500011	6.99159956	-0.105999999	200	0	0
8.5010004	6.99159956	-0.153999999	200	0	0
8.50199986	6.9921999	-0.218999997	200	0	0
8.51500034	6.9921999	-0.239999995	200	0	0
8.51099968	6.99210024	-0.188999996	200	0	0
8.49400043	6.99210024	-0.216999993	200	0	0
8.5010004	6.9920001	-0.186000004	200	0	0
8.49699974	6.9920001	-0.26699999	200	0	0
8.5010004	6.99210024	-0.234999999	200	0	0
8.49600029	6.9920001	-0.233999997	200	0	0
8.51500034	6.9920001	-0.256000012	200	0	0
8.50899982	6.99189997	-0.270999998	200	0	0
8.50899982	6.9920001	-0.222000003	200	0	0
8.50899982	6.9916997	-0.172000006	200	0	0
8.52000046	6.99189997	-0.192000002	200	0	0
8.50300026	6.99189997	-0.236000001	200	0	0
8.49800014	6.99159956	-0.185000002	200	0	0
8.49800014	6.99179983	-0.233999997	200	0	0
8.51399994	6.99179983	-0.223000005	200	0	0
8.50699997	6.9916997	-0.237000003	200	0	0
8.51399994	6.9921999	-0.158000007	200	0	0
8.50599957	6.9921999	-0.187999994	200	0	0
8.50699997	6.99210024	-0.155000001	200	0	0
8.48600006	6.9920001	-0.149000004	200	0	0
8.51200008	6.99210024	-0.172999993	200	0	0
8.50699997	6.99189997	-0.138999999	200	0	0
8.49400043	6.9920001	-0.167999998	200	0	0
8.51500034	6.9920001	-0.108999997	200	0	0
8.48600006	6.99230003	-0.165000007	200	0	0
8.49800014	6.99230003	-0.136000007	200	0	0
8.50800037	6.99230003	-0.156000003	200	0	0
8.51299953	6.99210024	-0.108000003	200	0	0
8.49199963	6.99230003	-0.216000006	200	0	0
8.49300003	6.99210024	-0.298000008	200	0	0
8.50399971	6.99249983	-0.219999999	200	0	0
8.49300003	6.99249983	-0.232999995	200	0	0
8.49199963	6.99239969	-0.182999998	200	0	0
8.4989996	6.99239969	-0.152999997	200	0	0
8.51200008	6.99239969	-0.172999993	200	0	0
8.49300003	6.99239969	-0.135000005	200	0	0
8.49600029	6.99249983	-0.185000002	200	0	0
8.51299953	6.99249983	-0.173999995	200	0	0
8.49800014	6.99249983	-0.152999997	200	0	0
8.51000023	6.99310017	-0.187999994	200	0	0
8.51200008	6.99300003	-0.172000006	200	0	0
8.48700047	6.99300003	-0.180000007	200	0	0
8.49800014	6.99300003	-0.232999995	200	0	0
8.50599957	6.99300003	-0.218999997	200	0	0
8.5010004	6.99280071	-0.167999998	200	0	0
8.49199963	6.99289989	-0.246999994	200	0	0
8.50199986	6.99289989	-0.233999997	200	0	0
8.5010004	6.9927001	-0.185000002	200	0	0
8.50500011	6.99259996	-0.234999999	200	0	0
8.51000023	6.99259996	-0.219999999	200	0	0
8.50599957	6.99289989	-0.300999999	200	0	0
8.51099968	6.99300003	-0.155000001	200	0	0
8.48400021	6.99310017	-0.130999997	200	0	0
8.48700047	6.99310017	-0.148000002	200	0	0
8.48700047	6.99310017	-0.164000005	200	0	0
8.46899986	6.9932003	-0.126000002	200	0	0
8.50899982	6.9932003	-0.187000006	200	0	0
8.48499966	6.9932003	-0.147	200	0	0
8.50199986	6.9932003	-0.25	200	0	0
8.49300003	6.9932003	-0.215000004	200	0	0
8.50899982	6.99329996	-0.171000004	200	0	0
8.48999977	6.99329996	-0.180999994	200	0	0
8.48600006	6.99329996	-0.229000002	200	0	0
8.48900032	6.99329996	-0.148000002	200	0	0
8.47700024	6.99380016	-0.127000004	200	0	0
8.48099995	6.99370003	-0.129999995	200	0	0
8.48600006	6.99380016	-0.145999998	200	0	0
8.48600006	6.9939003	-0.178000003	200	0	0
8.47999954	6.99370003	-0.144999996	200	0	0
8.48499966	6.99380016	-0.178000003	200	0	0
8.5010004	6.99359989	-0.233999997	200	0	0
8.50199986	6.99359989	-0.151999995	200	0	0
8.5010004	6.99370003	-0.185000002	200	0	0
8.49100018	6.99359989	-0.165000007	200	0	0
8.48700047	6.99359989	-0.180000007	200	0	0
8.48700047	6.99349976	-0.180000007	200	0	0
8.48099995	6.99370003	-0.293000013	200	0	0
8.48200035	6.9939003	-0.128000006	200	0	0
8.46700001	6.99400091	-0.123999998	200	0	0
8.48200035	6.99400091	-0.144999996	200	0	0
8.46500015	6.9939003	-0.138999999	200	0	0
8.45699978	6.9939003	-0.300000012	200	0	0
8.46899986	6.99400091	-0.238000005	200	0	0
8.48499966	6.9939003	-0.293000013	200	0	0
8.47999954	6.99419975	-0.143999994	200	0	0
8.47599983	6.99419975	-0.208000004	200	0	0
8.47399998	6.99419975	-0.239999995	200	0	0
8.47299957	6.99419975	-0.223000005	200	0	0
8.48400021	6.99419975	-0.128999993	200	0	0
8.48099995	6.99469948	-0.158999994	200	0	0
8.47900009	6.9946003	-0.174999997	200	0	0
8.46500015	6.99469948	-0.137999997	200	0	0
8.4829998	6.9946003	-0.159999996	200	0	0
8.47999954	6.9946003	-0.0939999968	200	0	0
8.46700001	6.9946003	-0.138999999	200	0	0
8.48900032	6.99429989	-0.179000005	200	0	0
8.46199989	6.99450016	-0.136999995	200	0	0
8.48600006	6.99429989	-0.162	200	0	0
8.47900009	6.99429989	-0.143999994	200	0	0
8.47000027	6.99429989	-0.222000003	200	0	0
8.47500038	6.99450016	-0.223000005	200	0	0
8.4829998	6.99440002	-0.225999996	200	0	0
8.46100044	6.99450016	-0.282999992	200	0	0
8.47399998	6.99489975	-0.141000003	200	0	0
8.46199989	6.99489975	-0.120999999	200	0	0
8.46199989	6.99489975	-0.234999999	200	0	0
8.47000027	6.99479961	-0.237000003	200	0	0
8.46800041	6.99510002	-0.136999995	200	0	0
8.47700024	6.99510002	-0.156000003	200	0	0
8.46199989	6.99499989	-0.136000007	200	0	0
8.46000004	6.99510002	-0.200000003	200	0	0
8.46500015	6.99499989	-0.25	200	0	0
8.45499992	6.99499989	-0.215000004	200	0	0
8.46899986	6.99499989	-0.284000009	200	0	0
8.4659996	6.99559975	-0.136999995	200	0	0
8.45300007	6.99539995	-0.214000002	200	0	0
8.45699978	6.99550009	-0.199000001	200	0	0
8.47500038	6.99559975	-0.156000003	200	0	0
8.45699978	6.99539995	-0.199000001	200	0	0
8.47299957	6.99550009	-0.171000004	200	0	0
8.45199966	6.99539995	-0.131999999	200	0	0
8.47399998	6.99530077	-0.203999996	200	0	0
8.47599983	6.99539995	-0.172000006	200	0	0
8.45400047	6.99530077	-0.133000001	200	0	0
8.47799969	6.99539995	-0.157000005	200	0	0
8.45300007	6.99520016	-0.196999997	200	0	0
8.45199966	6.99530077	-0.149000004	200	0	0
8.45800018	6.99520016	-0.166999996	200	0	0
8.46899986	6.99520016	-0.137999997	200	0	0
8.45600033	6.99520016	-0.247999996	200	0	0
8.45499992	6.99550009	-0.215000004	200	0	0
8.45699978	6.99559975	-0.199000001	200	0	0
8.45400047	6.99569988	-0.165000007	200	0	0
8.44400024	6.99569988	-0.145999998	200	0	0
8.45100021	6.99580002	-0.213	200	0	0
8.46000004	6.99569988	-0.200000003	200	0	0
8.46199989	6.99559975	-0.282000005	200	0	0
8.45899963	6.99569988	-0.216000006	200	0	0
8.46100044	6.99569988	-0.232999995	200	0	0
8.45699978	6.99559975	-0.231000006	200	0	0
8.44900036	6.99599981	-0.130999997	200	0	0
8.43599987	6.99590111	-0.111000001	200	0	0
8.47000027	6.99590111	-0.170000002	200	0	0
8.44099998	6.99590111	-0.144999996	200	0	0
8.47500038	6.99590111	-0.138999999	200	0	0
8.46700001	6.99590111	-0.234999999	200	0	0
8.46000004	6.99630022	-0.200000003	200	0	0
8.45800018	6.99650097	-0.150000006	200	0	0
8.43299961	6.99640036	-0.126000002	200	0	0
8.45400047	6.99640036	-0.165000007	200	0	0
8.45600033	6.99640036	-0.150000006	200	0	0
8.45499992	6.99630022	-0.165999994	200	0	0
8.43400002	6.99620008	-0.143000007	200	0	0
8.44900036	6.99620008	-0.164000005	200	0	0
8.47200012	6.99609995	-0.171000004	200	0	0
8.46700001	6.99620008	-0.136999995	200	0	0
8.4630003	6.99609995	-0.136000007	200	0	0
8.4630003	6.99609995	-0.282000005	200	0	0
8.44999981	6.99630022	-0.245000005	200	0	0
8.44400024	6.99630022	-0.226999998	200	0	0
8.44799995	6.99630022	-0.211999997	200	0	0
8.45499992	6.99640036	-0.215000004	200	0	0
8.45800018	6.99640036	-0.199000001	200	0	0
8.42000008	6.99609995	-0.284999996	200	0	0
8.43599987	6.99620008	-0.273999989	200	0	0
8.43599987	6.99650097	-0.224999994	200	0	0
8.42700005	6.99659967	-0.141000003	200	0	0
8.42399979	6.99650097	-0.123999998	200	0	0
8.46199989	6.99659967	-0.167999998	200	0	0
8.44299984	6.99669981	-0.145999998	200	0	0
8.44699955	6.99669981	-0.195999995	200	0	0
8.44400024	6.99669981	-0.210999995	200	0	0
8.45100021	6.99630022	-0.277999997	200	0	0
8.44799995	6.99659967	-0.211999997	200	0	0
8.45199966	6.99640036	-0.294999987	200	0	0
8.4630003	6.99690008	-0.167999998	200	0	0
8.43799973	6.99690008	-0.128000006	200	0	0
8.45400047	6.99679995	-0.149000004	200	0	0
8.43299961	6.99679995	-0.126000002	200	0	0
8.43500042	6.99669981	-0.158999994	200	0	0
8.45499992	6.99669981	-0.133000001	200	0	0
8.44200039	6.99679995	-0.194000006	200	0	0
8.43900013	6.99679995	-0.209000006	200	0	0
8.44900036	6.99679995	-0.229000002	200	0	0
8.45800018	6.99679995	-0.280999988	200	0	0
8.44299984	6.99719954	-0.194000006	200	0	0
8.42199993	6.99700022	-0.236000001	200	0	0
8.45300007	6.99700022	-0.149000004	200	0	0
8.44400024	6.99700022	-0.162	200	0	0
8.44400024	6.99690008	-0.244000003	200	0	0
8.43700027	6.99700022	-0.209000006	200	0	0
8.43799973	6.99700022	-0.193000004	200	0	0
8.43900013	6.99690008	-0.225999996	200	0	0
8.44900036	6.99690008	-0.195999995	200	0	0
8.43799973	6.99739981	-0.128000006	200	0	0
8.44999981	6.99729967	-0.196999997	200	0	0
8.44400024	6.99739981	-0.162	200	0	0
8.43999958	6.99729967	-0.160999998	200	0	0
8.44900036	6.99719954	-0.130999997	200	0	0
8.44499969	6.99710035	-0.114	200	0	0
8.42599964	6.99710035	-0.140000001	200	0	0
8.43999958	6.99679995	-0.291000009	200	0	0
8.42199993	6.99700022	-0.301999986	200	0	0
8.42599964	6.99710035	-0.270000011	200	0	0
8.42700005	6.99729967	-0.222000003	200	0	0
8.43400002	6.99739981	-0.192000002	200	0	0
8.44699955	6.99749994	-0.195999995	200	0	0
8.41800022	6.99760008	-0.122000001	200	0	0
8.42800045	6.99760008	-0.141000003	200	0	0
8.44299984	6.99760008	-0.210999995	200	0	0
8.43599987	6.99760008	-0.192000002	200	0	0
8.43599987	6.99749994	-0.208000004	200	0	0
8.42700005	6.99760008	-0.238000005	200	0	0
8.43700027	6.99780083	-0.143999994	200	0	0
8.43400002	6.99770021	-0.208000004	200	0	0
8.42500019	6.99770021	-0.188999996	200	0	0
8.44400024	6.99770021	-0.162	200	0	0
8.42199993	6.99770021	-0.123000003	200	0	0
8.41399956	6.99760008	-0.26699999	200	0	0
8.43400002	6.99739981	-0.289000005	200	0	0
8.42399979	6.99770021	-0.301999986	200	0	0
8.42399979	6.9980998	-0.156000003	200	0	0
8.42199993	6.99799967	-0.138999999	200	0	0
8.42199993	6.99780083	-0.268999994	200	0	0
8.43400002	6.9980998	-0.208000004	200	0	0
8.41699982	6.99799967	-0.186000004	200	0	0
8.42800045	6.99799967	-0.206	200	0	0
8.41899967	6.99780083	-0.218999997	200	0	0
8.43700027	6.99780083	-0.209000006	200	0	0
8.42300034	6.99790001	-0.123000003	200	0	0
8.40200043	6.99830008	-0.149000004	200	0	0
8.41600037	6.99830008	-0.120999999	200	0	0
8.43099976	6.99819994	-0.158000007	200	0	0
8.44200039	6.99819994	-0.145999998	200	0	0
8.41399956	6.9980998	-0.119999997	200	0	0
8.43599987	6.99799967	-0.127000004	200	0	0
8.41800022	6.99819994	-0.218999997	200	0	0
8.41399956	6.9980998	-0.233999997	200	0	0
8.42800045	6.99819994	-0.189999998	200	0	0
8.43000031	6.99819994	-0.206	200	0	0
8.42300034	6.99830008	-0.187999994	200	0	0
8.40600014	6.99790001	-0.280000001	200	0	0
8.43200016	6.99799967	-0.289000005	200	0	0
8.4119997	6.99830008	-0.216999993	200	0	0
8.4289999	6.99830008	-0.206	200	0	0
8.41300011	6.99840069	-0.185000002	200	0	0
8.41499996	6.99830008	-0.233999997	200	0	0
8.41800022	6.99860001	-0.122000001	200	0	0
8.40299988	6.99849987	-0.150000006	200	0	0
8.41100025	6.99849987	-0.136000007	200	0	0
8.41399956	6.99849987	-0.120999999	200	0	0
8.42199993	6.99840069	-0.123000003	200	0	0
8.41399956	6.99849987	-0.185000002	200	0	0
8.41600037	6.99830008	-0.26699999	200	0	0
8.40600014	6.99840069	-0.231000006	200	0	0
8.40699959	6.99819994	-0.263999999	200	0	0
8.38799953	6.99830008	-0.289999992	200	0	0
8.42099953	6.99840069	-0.268999994	200	0	0
8.40999985	6.99870014	-0.119000003	200	0	0
8.41100025	6.99870014	-0.151999995	200	0	0
8.42399979	6.99860001	-0.187999994	200	0	0
8.43099976	6.99870014	-0.142000005	200	0	0
8.43500042	6.99860001	-0.159999996	200	0	0
8.43099976	6.99860001	-0.142000005	200	0	0
8.41499996	6.99860001	-0.217999995	200	0	0
8.41699982	6.99860001	-0.202999994	200	0	0
8.41300011	6.99880028	-0.217999995	200	0	0
8.40200043	6.99889994	-0.197999999	200	0	0
8.41499996	6.99870014	-0.217999995	200	0	0
8.39799976	6.99880028	-0.115999997	200	0	0
8.42500019	6.99870014	-0.204999998	200	0	0
8.4090004	6.99880028	-0.184	200	0	0
8.40600014	6.99880028	-0.134000003	200	0	0
8.42300034	6.99870014	-0.187999994	200	0	0
8.42399979	6.99870014	-0.237000003	200	0	0
8.39400005	6.99880028	-0.25999999	200	0	0
8.41800022	6.99900103	-0.218999997	200	0	0
8.41100025	6.99889994	-0.216999993	200	0	0
8.40600014	6.99880028	-0.231000006	200	0	0
8.42199993	6.99909973	-0.204999998	200	0	0
8.41399956	6.99919987	-0.187000006	200	0	0
8.42199993	6.99919987	-0.157000005	200	0	0
8.40999985	6.99919987	-0.136999995	200	0	0
8.40299988	6.99880028	-0.279000014	200	0	0
8.39500046	6.99889994	-0.25999999	200	0	0
8.42099953	6.9993	-0.157000005	200	0	0
8.39400005	6.9993	-0.196999997	200	0	0
8.42099953	6.99940014	-0.157000005	200	0	0
8.39799976	6.9993	-0.116999999	200	0	0
8.4090004	6.9993	-0.136999995	200	0	0
8.41600037	6.99960041	-0.155000001	200	0	0
8.37699986	6.99960041	-0.111000001	200	0	0
8.3739996	6.99950027	-0.109999999	200	0	0
8.39400005	6.99960041	-0.180000007	200	0	0
8.41600037	6.99950027	-0.219999999	200	0	0
8.40100002	6.99969959	-0.182999998	200	0	0
8.41600037	6.99950027	-0.284999996	200	0	0
8.41100025	6.99969959	-0.202000007	200	0	0
8.40100002	6.99969959	-0.215000004	200	0	0
8.39500046	6.99950027	-0.261999995	200	0	0
8.39599991	6.99979973	-0.230000004	200	0	0
8.40999985	6.99979973	-0.186000004	200	0	0
8.41399956	6.99979973	-0.202999994	200	0	0
8.41600037	6.99969959	-0.138999999	200	0	0
8.3920002	6.99969959	-0.115000002	200	0	0
8.40799999	6.99989986	-0.185000002	200	0	0
8.39999962	6.99989986	-0.199000001	200	0	0
8.39700031	6.99989986	-0.214000002	200	0	0
8.41100025	6.99979973	-0.137999997	200	0	0
8.39400005	7	-0.229000002	200	0	0
8.39599991	7	-0.180999994	200	0	0
8.41100025	6.99989986	-0.153999999	200	0	0
8.40999985	7	-0.217999995	200	0	0
8.40699959	7	-0.201000005	200	0	0
8.41100025	6.99979973	-0.152999997	200	0	0
8.40499973	7.00010014	-0.151999995	200	0	0
8.39999962	7.00010014	-0.215000004	200	0	0
8.40400028	6.99979973	-0.119000003	200	0	0
8.40499973	7.00010014	-0.184	200	0	0
8.40499973	7.00010014	-0.119999997	200	0	0
8.38500023	7.00010014	-0.129999995	200	0	0
8.39900017	7.00020027	-0.181999996	200	0	0
8.39500046	7.00020027	-0.149000004	200	0	0
8.38599968	7	-0.259000003	200	0	0
8.39400005	7.00020027	-0.213	200	0	0
8.39599991	7.00020027	-0.197999999	200	0	0
8.39299965	6.99989986	-0.261000007	200	0	0
8.39999962	7.00030088	-0.182999998	200	0	0
8.40100002	7.00030088	-0.215000004	200	0	0
8.36999989	7.00030088	-0.125	200	0	0
8.39000034	7.00039959	-0.130999997	200	0	0
8.40100002	7.00039959	-0.182999998	200	0	0
8.39400005	7.00039959	-0.148000002	200	0	0
8.39799976	7.00039959	-0.214000002	200	0	0
8.38799953	7.00010014	-0.275999993	200	0	0
8.39500046	7.00020027	-0.261999995	200	0	0
8.40999985	7	-0.282999992	200	0	0
8.38199997	7.00030088	-0.273999989	200	0	0
8.40299988	7.0007	-0.200000003	200	0	0
8.38500023	7.00059986	-0.275000006	200	0	0
8.40499973	7.00059986	-0.264999986	200	0	0
8.38300037	7.0007	-0.177000001	200	0	0
8.38099957	7.00080013	-0.193000004	200	0	0
8.38500023	7.00090075	-0.194000006	200	0	0
8.3760004	7.00090075	-0.256000012	200	0	0
8.37699986	7.00090075	-0.224000007	200	0	0
8.37800026	7.00090075	-0.143999994	200	0	0
8.39700031	7.00080013	-0.133000001	200	0	0
8.38599968	7.00099993	-0.129999995	200	0	0
8.36499977	7.00090075	-0.123000003	200	0	0
8.38700008	7.00099993	-0.226999998	200	0	0
8.39999962	7.00099993	-0.199000001	200	0	0
8.36699963	7.00099993	-0.108000003	200	0	0
8.37899971	7.00110006	-0.128000006	200	0	0
8.37100029	7.00110006	-0.222000003	200	0	0
8.39700031	7.00129986	-0.181999996	200	0	0
8.38000011	7.00119972	-0.193000004	200	0	0
8.39099979	7.00119972	-0.180000007	200	0	0
8.39500046	7.00119972	-0.133000001	200	0	0
8.37800026	7.00119972	-0.111000001	200	0	0
8.36499977	7.00119972	-0.138999999	200	0	0
8.36900043	7.00110006	-0.108999997	200	0	0
8.37100029	7.00119972	-0.254000008	200	0	0
8.38799953	7.00119972	-0.275999993	200	0	0
8.38500023	7.00150108	-0.145999998	200	0	0
8.35900021	7.00139999	-0.250999987	200	0	0
8.37800026	7.00159979	-0.209999993	200	0	0
8.38500023	7.00159979	-0.180000007	200	0	0
8.39299965	7.00159979	-0.197999999	200	0	0
8.36900043	7.00150108	-0.221000001	200	0	0
8.36400032	7.00129986	-0.252000004	200	0	0
8.36900043	7.00150108	-0.188999996	200	0	0
8.38599968	7.00150108	-0.210999995	200	0	0
8.38199997	7.00139999	-0.225999996	200	0	0
8.38500023	7.00139999	-0.178000003	200	0	0
8.38500023	7.00139999	-0.209999993	200	0	0
8.35299969	7.00150108	-0.248999998	200	0	0
8.35900021	7.00150108	-0.298999995	200	0	0
8.37899971	7.00139999	-0.305999994	200	0	0
8.37300014	7.00139999	-0.270999998	200	0	0
8.37199974	7.00129986	-0.303000003	200	0	0
8.38500023	7.00159979	-0.148000002	200	0	0
8.38099957	7.00139999	-0.128999993	200	0	0
8.36499977	7.00159979	-0.222000003	200	0	0
8.3739996	7.00159979	-0.128000006	200	0	0
8.38899994	7.00180006	-0.180999994	200	0	0
8.38799953	7.00180006	-0.196999997	200	0	0
8.39599991	7.00180006	-0.280999988	200	0	0
8.35700035	7.00180006	-0.107000001	200	0	0
8.37300014	7.00180006	-0.128000006	200	0	0
8.36999989	7.00180006	-0.143000007	200	0	0
8.34899998	7.00159979	-0.104000002	200	0	0
8.36800003	7.0019002	-0.189999998	200	0	0
8.35299969	7.00200033	-0.104999997	200	0	0
8.35000038	7.00200033	-0.119999997	200	0	0
8.37899971	7.00200033	-0.144999996	200	0	0
8.3760004	7.00200033	-0.257999986	200	0	0
8.36999989	7.00200033	-0.191	200	0	0
8.38399982	7.00200033	-0.211999997	200	0	0
8.36600018	7.00200033	-0.222000003	200	0	0
8.3579998	7.00219965	-0.187000006	200	0	0
8.36800003	7.00209999	-0.223000005	200	0	0
8.36999989	7.00209999	-0.191	200	0	0
8.37899971	7.00209999	-0.178000003	200	0	0
8.39299965	7.00209999	-0.280000001	200	0	0
8.35299969	7.00239992	-0.120999999	200	0	0
8.36900043	7.00229979	-0.126000002	200	0	0
8.35400009	7.00219965	-0.137999997	200	0	0
8.38300037	7.00219965	-0.228	200	0	0
8.34899998	7.00219965	-0.264999986	200	0	0
8.3579998	7.00219965	-0.252000004	200	0	0
8.36499977	7.00250006	-0.206	200	0	0
8.35000038	7.00250006	-0.248999998	200	0	0
8.35599995	7.00250006	-0.137999997	200	0	0
8.3409996	7.00239992	-0.133000001	200	0	0
8.36100006	7.00250006	-0.108000003	200	0	0
8.36999989	7.00270033	-0.207000002	200	0	0
8.36800003	7.00260019	-0.142000005	200	0	0
8.35499954	7.00260019	-0.186000004	200	0	0
8.3739996	7.00260019	-0.175999999	200	0	0
8.34899998	7.00260019	-0.296999991	200	0	0
8.36100006	7.00260019	-0.252999991	200	0	0
8.35700035	7.00270033	-0.122000001	200	0	0
8.34599972	7.00260019	-0.103	200	0	0
8.32900047	7.00250006	-0.114	200	0	0
8.33500004	7.00309992	-0.164000005	200	0	0
8.34700012	7.00309992	-0.184	200	0	0
8.34399986	7.00330019	-0.103	200	0	0
8.35999966	7.00330019	-0.138999999	200	0	0
8.35000038	7.00330019	-0.119999997	200	0	0
8.34599972	7.00320005	-0.135000005	200	0	0
8.34200001	7.00320005	-0.118000001	200	0	0
8.33399963	7.00330019	-0.164000005	200	0	0
8.35099983	7.0034008	-0.185000002	200	0	0
8.35900021	7.0034008	-0.219999999	200	0	0
8.36200047	7.00330019	-0.187999994	200	0	0
8.36100006	7.00330019	-0.219999999	200	0	0
8.35000038	7.00320005	-0.185000002	200	0	0
8.35700035	7.00320005	-0.202999994	200	0	0
8.34000015	7.0034008	-0.277999997	200	0	0
8.33500004	7.0034008	-0.261000007	200	0	0
8.33600044	7.0034008	-0.245000005	200	0	0
8.32299995	7.0034008	-0.159999996	200	0	0
8.33199978	7.00349998	-0.194999993	200	0	0
8.36100006	7.00349998	-0.187999994	200	0	0
8.31700039	7.00359964	-0.109999999	200	0	0
8.32400036	7.00369978	-0.240999997	200	0	0
8.33199978	7.00400066	-0.196999997	200	0	0
8.34500027	7.00390005	-0.215000004	200	0	0
8.33300018	7.00400066	-0.133000001	200	0	0
8.35499954	7.00400066	-0.172000006	200	0	0
8.32499981	7.00400066	-0.178000003	200	0	0
8.32499981	7.00369978	-0.0970000029	200	0	0
8.35299969	7.00390005	-0.202000007	200	0	0
8.34000015	7.00379992	-0.214000002	200	0	0
8.33199978	7.00390005	-0.179000005	200	0	0
8.34899998	7.00369978	-0.216000006	200	0	0
8.32900047	7.00379992	-0.178000003	200	0	0
8.35099983	7.00369978	-0.185000002	200	0	0
8.32699966	7.00369978	-0.257999986	200	0	0
8.3210001	7.00419998	-0.128999993	200	0	0
8.31099987	7.00409985	-0.126000002	200	0	0
8.32699966	7.00400066	-0.0989999995	200	0	0
8.34700012	7.00419998	-0.169	200	0	0
