17.632	6.90059996	0.836000025	200	0	0
17.6189995	6.90099955	0.774999976	200	0	0
17.6189995	6.90099955	0.806999981	200	0	0
17.6749992	6.8973999	0.250999987	200	0	0
17.6790009	6.89750004	0.254000008	200	0	0
17.6520004	6.89799976	0.291999996	200	0	0
17.6410007	6.89750004	0.289999992	200	0	0
17.6639996	6.89799976	0.321999997	200	0	0
17.6700001	6.8973999	0.282999992	200	0	0
17.6760006	6.89799976	0.351999998	200	0	0
17.6480007	6.89750004	0.32100001	200	0	0
17.6660004	6.89890003	0.423000008	200	0	0
17.6580009	6.89859962	0.361000001	200	0	0
17.6560001	6.89859962	0.455000013	200	0	0
17.6569996	6.89859962	0.423999995	200	0	0
17.6550007	6.90080023	0.615999997	200	0	0
17.6620007	6.90059996	0.646000028	200	0	0
17.6499996	6.90080023	0.584999979	200	0	0
17.6679993	6.90059996	0.614000022	200	0	0
17.6779995	6.90059996	0.582000017	200	0	0
17.6439991	6.90010023	0.583000004	200	0	0
17.6639996	6.90080023	0.646000028	200	0	0
17.6520004	6.90080023	0.67900002	200	0	0
17.6730003	6.89909983	0.421999991	200	0	0
17.6730003	6.89890003	0.453999996	200	0	0
17.6480007	6.89650106	0.163000003	200	0	0
17.6560001	6.89650106	0.0989999995	200	0	0
17.6509991	6.89650106	0.130999997	200	0	0
17.6720009	6.89580011	0.122000001	200	0	0
17.6450005	6.8973999	0.160999998	200	0	0
17.6709995	6.8973999	0.188999996	200	0	0
17.6550007	6.89799976	0.25999999	200	0	0
17.6539993	6.90119982	0.774999976	200	0	0
17.6270008	6.90140009	0.809000015	200	0	0
17.6690006	6.90129995	0.801999986	200	0	0
17.6270008	6.90109968	0.898999989	200	0	0
17.6499996	6.90119982	0.806999981	200	0	0
17.6299992	6.90119982	0.839999974	200	0	0
17.6529999	6.90119982	0.744000018	200	0	0
17.6739998	6.9015007	0.773000002	200	0	0
17.6590004	6.9015007	0.805999994	200	0	0
17.6590004	6.90119982	0.680999994	200	0	0
17.6630001	6.90170002	0.805999994	200	0	0
17.6529999	6.90159988	0.806999981	200	0	0
17.6609993	6.90159988	0.774999976	200	0	0
17.6690006	6.9015007	0.742999971	200	0	0
17.6490002	6.9015007	0.651000023	200	0	0
17.6630001	6.9015007	0.680999994	200	0	0
17.6879997	6.90119982	0.615999997	200	0	0
17.6639996	6.90119982	0.649999976	200	0	0
17.632	6.90170002	0.839999974	200	0	0
17.6639996	6.89750004	0.162	200	0	0
17.6669998	6.89799976	0.195999995	200	0	0
17.6420002	6.89750004	0.195999995	200	0	0
17.6550007	6.89890003	0.330000013	200	0	0
17.6679993	6.89890003	0.266000003	200	0	0
17.6709995	6.89890003	0.296999991	200	0	0
17.6580009	6.89859962	0.330000013	200	0	0
17.6590004	6.89859962	0.26699999	200	0	0
17.6580009	6.89859962	0.298000008	200	0	0
17.6730003	6.89890003	0.360000014	200	0	0
17.6739998	6.89909983	0.328000009	200	0	0
17.6620007	6.89909983	0.361000001	200	0	0
17.6739998	6.89909983	0.296999991	200	0	0
17.6730003	6.90080023	0.519999981	200	0	0
17.6580009	6.90159988	0.649999976	200	0	0
17.6609993	6.90159988	0.588	200	0	0
17.6679993	6.90159988	0.617999971	200	0	0
17.6639996	6.9015007	0.619000018	200	0	0
17.6650009	6.90159988	0.680999994	200	0	0
17.6599998	6.8973999	0.128000006	200	0	0
17.6480007	6.89650106	0.00600000005	200	0	0
17.6569996	6.8973999	0.0970000029	200	0	0
17.6469994	6.89650106	0.0370000005	200	0	0
17.6439991	6.89799976	0.167999998	200	0	0
17.6399994	6.89750004	0.101999998	200	0	0
17.6459999	6.89750004	0.133000001	200	0	0
17.6439991	6.90199995	0.808000028	200	0	0
17.6369991	6.90229988	0.808000028	200	0	0
17.6329994	6.90219975	0.839999974	200	0	0
17.6469994	6.90219975	0.806999981	200	0	0
17.6350002	6.90199995	0.839999974	200	0	0
17.6800003	6.90219975	0.773000002	200	0	0
17.6590004	6.90229988	0.744000018	200	0	0
17.6639996	6.90229988	0.774999976	200	0	0
17.6679993	6.90219975	0.742999971	200	0	0
17.632	6.90240002	0.839999974	200	0	0
17.6539993	6.90260029	0.810000002	200	0	0
17.6679993	6.90219975	0.680999994	200	0	0
17.6660004	6.90219975	0.587000012	200	0	0
17.6709995	6.90229988	0.680000007	200	0	0
17.6389999	6.90229988	0.620999992	200	0	0
17.6609993	6.90229988	0.649999976	200	0	0
17.6679993	6.90219975	0.617999971	200	0	0
17.6790009	6.90219975	0.648000002	200	0	0
17.6229992	6.89869976	0.145999998	200	0	0
17.6639996	6.89890003	0.172999993	200	0	0
17.6639996	6.89890003	0.203999996	200	0	0
17.6529999	6.89859962	0.142000005	200	0	0
17.6660004	6.89869976	0.172000006	200	0	0
17.6490002	6.89859962	0.173999995	200	0	0
17.6709995	6.89909983	0.266000003	200	0	0
17.6669998	6.89909983	0.172000006	200	0	0
17.6779995	6.89909983	0.202000007	200	0	0
17.6660004	6.90059996	0.426999986	200	0	0
17.6609993	6.90159988	0.524999976	200	0	0
17.6690006	6.90059996	0.458000004	200	0	0
17.6669998	6.90229988	0.587000012	200	0	0
17.6650009	6.90229988	0.524999976	200	0	0
17.6459999	6.90219975	0.52700001	200	0	0
17.6450005	6.89750004	0.0390000008	200	0	0
17.6529999	6.89890003	0.143000007	200	0	0
17.6509991	6.89869976	0.111000001	200	0	0
17.6520004	6.89859962	0.111000001	200	0	0
17.6380005	6.90289974	0.779999971	200	0	0
17.6499996	6.90289974	0.810000002	200	0	0
17.6539993	6.90270042	0.810000002	200	0	0
17.6539993	6.90320015	0.778999984	200	0	0
17.6800003	6.90310001	0.77700001	200	0	0
17.6509991	6.90320015	0.81099999	200	0	0
17.6450005	6.90289974	0.749000013	200	0	0
17.6480007	6.90310001	0.81099999	200	0	0
17.6779995	6.90310001	0.745999992	200	0	0
17.6639996	6.90310001	0.685000002	200	0	0
17.6669998	6.90320015	0.746999979	200	0	0
17.6240005	6.90289974	0.688000023	200	0	0
17.6310005	6.90330029	0.810000002	200	0	0
17.6700001	6.90310001	0.652999997	200	0	0
17.6539993	6.90289974	0.623000026	200	0	0
17.6340008	6.90289974	0.656000018	200	0	0
17.6609993	6.90310001	0.623000026	200	0	0
17.6459999	6.90289974	0.529999971	200	0	0
17.6499996	6.90310001	0.592000008	200	0	0
17.6450005	6.90289974	0.592999995	200	0	0
17.6739998	6.90320015	0.652999997	200	0	0
17.6599998	6.90320015	0.685000002	200	0	0
17.6539993	6.90320015	0.592000008	200	0	0
17.6900005	6.90320015	0.620000005	200	0	0
17.6380005	6.89859962	0.0500000007	200	0	0
17.6329994	6.89890003	0.050999999	200	0	0
17.6949997	6.89909983	0.136999995	200	0	0
17.6630001	6.89909983	0.109999999	200	0	0
17.6630001	6.89890003	0.109999999	200	0	0
17.6560001	6.90059996	0.333999991	200	0	0
17.6630001	6.90059996	0.36500001	200	0	0
17.6779995	6.90219975	0.460999995	200	0	0
17.6550007	6.90310001	0.467000008	200	0	0
17.6650009	6.90219975	0.430999994	200	0	0
17.6639996	6.90320015	0.528999984	200	0	0
17.6420002	6.90289974	0.499000013	200	0	0
17.6450005	6.89909983	0.0500000007	200	0	0
17.6679993	6.90380001	0.772000015	200	0	0
17.6270008	6.90380001	0.806999981	200	0	0
17.6560001	6.90409994	0.801999986	200	0	0
17.6650009	6.90400076	0.800999999	200	0	0
17.6620007	6.90390015	0.739000022	200	0	0
17.6679993	6.90390015	0.768999994	200	0	0
17.6639996	6.90380001	0.740999997	200	0	0
17.6560001	6.90380001	0.680000007	200	0	0
17.6590004	6.90380001	0.616999984	200	0	0
17.6560001	6.90390015	0.646000028	200	0	0
17.6580009	6.90380001	0.648000002	200	0	0
17.6609993	6.90380001	0.586000025	200	0	0
17.6410007	6.90390015	0.615999997	200	0	0
17.6499996	6.90390015	0.583999991	200	0	0
17.6620007	6.90310001	0.435000002	200	0	0
17.6620007	6.90289974	0.435000002	200	0	0
17.6529999	6.89909983	0.0170000009	200	0	0
17.6800003	6.90059996	0.268999994	200	0	0
17.6630001	6.90059996	0.301999986	200	0	0
17.6560001	6.90219975	0.368999988	200	0	0
17.6660004	6.90229988	0.368000001	200	0	0
17.6660004	6.90390015	0.519999981	200	0	0
17.6420002	6.90289974	0.374000013	200	0	0
17.6560001	6.90310001	0.372999996	200	0	0
17.6429996	6.90320015	0.375	200	0	0
17.6499996	6.90380001	0.430999994	200	0	0
17.6550007	6.90380001	0.460999995	200	0	0
17.6720009	6.90229988	0.335999995	200	0	0
17.6560001	6.90219975	0.338	200	0	0
17.6329994	6.9046998	0.797999978	200	0	0
17.6730003	6.9046998	0.731999993	200	0	0
17.6669998	6.9046998	0.763999999	200	0	0
17.6429996	6.90460014	0.768999994	200	0	0
17.6760006	6.9041996	0.768000007	200	0	0
17.6569996	6.90500021	0.762000024	200	0	0
17.632	6.90500021	0.795000017	200	0	0
17.6679993	6.90490007	0.763999999	200	0	0
17.6389999	6.90479994	0.797999978	200	0	0
17.6660004	6.9046998	0.638999999	200	0	0
17.677	6.9046998	0.606999993	200	0	0
17.6590004	6.90380001	0.367000014	200	0	0
17.6340008	6.90289974	0.344000012	200	0	0
17.6700001	6.90310001	0.340000004	200	0	0
17.6599998	6.90320015	0.340999991	200	0	0
17.6599998	6.90059996	0.177000001	200	0	0
17.6550007	6.90059996	0.209000006	200	0	0
17.6669998	6.90219975	0.273999989	200	0	0
17.6599998	6.90229988	0.275000006	200	0	0
17.6490002	6.90289974	0.31099999	200	0	0
17.6709995	6.90229988	0.305000007	200	0	0
17.6700001	6.90219975	0.305000007	200	0	0
17.6669998	6.9046998	0.513999999	200	0	0
17.6609993	6.90380001	0.335000008	200	0	0
17.6499996	6.90289974	0.279000014	200	0	0
17.6520004	6.90320015	0.31099999	200	0	0
17.6469994	6.90310001	0.31099999	200	0	0
17.6599998	6.90380001	0.30399999	200	0	0
17.6690006	6.90310001	0.27700001	200	0	0
17.6299992	6.90390015	0.335999995	200	0	0
17.6299992	6.90390015	0.305000007	200	0	0
17.6590004	6.9046998	0.421000004	200	0	0
17.6420002	6.90549994	0.763000011	200	0	0
17.6860008	6.90490007	0.731000006	200	0	0
17.6289997	6.90549994	0.795000017	200	0	0
17.6459999	6.90509987	0.731999993	200	0	0
17.6560001	6.90500021	0.731000006	200	0	0
17.6539993	6.90509987	0.762000024	200	0	0
17.6599998	6.90490007	0.639999986	200	0	0
17.691	6.90560007	0.723999977	200	0	0
17.6480007	6.90509987	0.66900003	200	0	0
17.6520004	6.90500021	0.66900003	200	0	0
17.6609993	6.90490007	0.671000004	200	0	0
17.6940002	6.90560007	0.786000013	200	0	0
17.6609993	6.90580034	0.726999998	200	0	0
17.6420002	6.90580034	0.75999999	200	0	0
17.698	6.90560007	0.629999995	200	0	0
17.6450005	6.90509987	0.575999975	200	0	0
17.6490002	6.90500021	0.574999988	200	0	0
17.6620007	6.90490007	0.577000022	200	0	0
17.6459999	6.90509987	0.606999993	200	0	0
17.6599998	6.90500021	0.605000019	200	0	0
17.6509991	6.90509987	0.638000011	200	0	0
17.6609993	6.90490007	0.60799998	200	0	0
17.6569996	6.90500021	0.637000024	200	0	0
17.6580009	6.90490007	0.514999986	200	0	0
17.6700001	6.9046998	0.326000005	200	0	0
17.6560001	6.90390015	0.270000011	200	0	0
17.6480007	6.90380001	0.273999989	200	0	0
17.6620007	6.9046998	0.35800001	200	0	0
17.6490002	6.90080023	0.115999997	200	0	0
17.6550007	6.90059996	0.115000002	200	0	0
17.6620007	6.90059996	0.144999996	200	0	0
17.6340008	6.90229988	0.184	200	0	0
17.6289997	6.90289974	0.219999999	200	0	0
17.6620007	6.90219975	0.180999994	200	0	0
17.6509991	6.90229988	0.213	200	0	0
17.6660004	6.90219975	0.210999995	200	0	0
17.632	6.90320015	0.219999999	200	0	0
17.6380005	6.90310001	0.218999997	200	0	0
17.6289997	6.90509987	0.483999997	200	0	0
17.6679993	6.90500021	0.479000002	200	0	0
17.6520004	6.90509987	0.513000011	200	0	0
17.6469994	6.90490007	0.485000014	200	0	0
17.6569996	6.90500021	0.512000024	200	0	0
17.6650009	6.9046998	0.294999987	200	0	0
17.6429996	6.90320015	0.187000006	200	0	0
17.6340008	6.90289974	0.187999994	200	0	0
17.6509991	6.9046998	0.264999986	200	0	0
17.6520004	6.90390015	0.208000004	200	0	0
17.6490002	6.90380001	0.210999995	200	0	0
17.6450005	6.90490007	0.328999996	200	0	0
17.6399994	6.90509987	0.35800001	200	0	0
17.6439991	6.90500021	0.356999993	200	0	0
17.6529999	6.90490007	0.358999997	200	0	0
17.6450005	6.90500021	0.419999987	200	0	0
17.6660004	6.90630007	0.726999998	200	0	0
17.6709995	6.90630007	0.757000029	200	0	0
17.6389999	6.90630007	0.791000009	200	0	0
17.6410007	6.90580034	0.635999978	200	0	0
17.6620007	6.90650082	0.726999998	200	0	0
17.6490002	6.90650082	0.666000009	200	0	0
17.6509991	6.90650082	0.759000003	200	0	0
17.6749992	6.90650082	0.601000011	200	0	0
17.6639996	6.90650082	0.633000016	200	0	0
17.6690006	6.90630007	0.601000011	200	0	0
17.6749992	6.90630007	0.632000029	200	0	0
17.6599998	6.90580034	0.57099998	200	0	0
17.6499996	6.90509987	0.261999995	200	0	0
17.6439991	6.90490007	0.266000003	200	0	0
17.6280003	6.90509987	0.328000009	200	0	0
17.6450005	6.90509987	0.294	200	0	0
17.6459999	6.90500021	0.294	200	0	0
17.6639996	6.90490007	0.294999987	200	0	0
17.6480007	6.90500021	0.324999988	200	0	0
17.6149998	6.90390015	0.181999996	200	0	0
17.6459999	6.90380001	0.180000007	200	0	0
17.6539993	6.90059996	0.0520000011	200	0	0
17.6340008	6.90320015	0.157000005	200	0	0
17.6450005	6.90289974	0.123000003	200	0	0
17.6580009	6.90219975	0.118000001	200	0	0
17.6439991	6.90289974	0.155000001	200	0	0
17.6679993	6.90219975	0.148000002	200	0	0
17.6539993	6.90229988	0.150000006	200	0	0
17.6480007	6.90380001	0.149000004	200	0	0
17.6560001	6.90320015	0.122000001	200	0	0
17.6509991	6.90490007	0.202999994	200	0	0
17.6560001	6.9046998	0.202000007	200	0	0
17.6630001	6.90490007	0.170000002	200	0	0
17.6679993	6.9046998	0.169	200	0	0
17.6450005	6.90509987	0.200000003	200	0	0
17.6420002	6.90500021	0.201000005	200	0	0
17.6580009	6.90719986	0.758000016	200	0	0
17.6550007	6.90719986	0.727999985	200	0	0
17.6340008	6.90679979	0.791999996	200	0	0
17.6520004	6.9071002	0.759000003	200	0	0
17.6490002	6.9071002	0.727999985	200	0	0
17.6520004	6.90719986	0.790000021	200	0	0
17.6389999	6.9071002	0.791000009	200	0	0
17.5960007	6.90700006	0.764999986	200	0	0
17.6609993	6.90650082	0.57099998	200	0	0
17.6509991	6.90719986	0.666000009	200	0	0
17.6509991	6.9073	0.759000003	200	0	0
17.6539993	6.9071002	0.665000021	200	0	0
17.6569996	6.9073	0.726999998	200	0	0
17.6580009	6.90719986	0.602999985	200	0	0
17.6590004	6.9073	0.634000003	200	0	0
17.6459999	6.9071002	0.603999972	200	0	0
17.6720009	6.9073	0.662999988	200	0	0
17.6480007	6.90719986	0.63499999	200	0	0
17.6329994	6.9071002	0.635999978	200	0	0
17.6630001	6.90630007	0.508000016	200	0	0
17.6490002	6.90650082	0.50999999	200	0	0
17.6620007	6.9073	0.57099998	200	0	0
17.677	6.9073	0.601000011	200	0	0
17.6539993	6.90719986	0.572000027	200	0	0
17.6389999	6.9071002	0.573000014	200	0	0
17.6679993	6.90580034	0.194000006	200	0	0
17.6200008	6.90509987	0.172000006	200	0	0
17.6459999	6.90500021	0.169	200	0	0
17.6389999	6.9046998	0.141000003	200	0	0
17.6289997	6.90289974	0.063000001	200	0	0
17.6280003	6.90320015	0.063000001	200	0	0
17.6310005	6.90289974	0.0309999995	200	0	0
17.6599998	6.90229988	0.0549999997	200	0	0
17.6499996	6.90219975	0.0250000004	200	0	0
17.6679993	6.90219975	0.0540000014	200	0	0
17.6420002	6.9046998	0.109999999	200	0	0
17.6420002	6.90500021	0.107000001	200	0	0
17.6569996	6.90490007	0.108000003	200	0	0
17.6380005	6.90490007	0.142000005	200	0	0
17.6229992	6.90799999	0.731000006	200	0	0
17.6459999	6.90799999	0.759000003	200	0	0
17.6639996	6.90789986	0.788999975	200	0	0
17.6630001	6.90650082	0.476999998	200	0	0
17.6499996	6.90719986	0.50999999	200	0	0
17.6550007	6.9071002	0.509000003	200	0	0
17.6259995	6.90820026	0.792999983	200	0	0
17.6490002	6.90820026	0.727999985	200	0	0
17.6709995	6.90820026	0.757000029	200	0	0
17.6739998	6.9073	0.507000029	200	0	0
17.6580009	6.90630007	0.414999992	200	0	0
17.6499996	6.9071002	0.477999985	200	0	0
17.6550007	6.90719986	0.446999997	200	0	0
17.6560001	6.9073	0.477999985	200	0	0
17.6620007	6.90650082	0.257999986	200	0	0
17.6509991	6.90650082	0.134000003	200	0	0
17.6700001	6.90630007	0.256999999	200	0	0
17.6490002	6.90630007	0.134000003	200	0	0
17.6429996	6.90650082	0.165999994	200	0	0
17.6620007	6.90630007	0.164000005	200	0	0
17.6590004	6.90630007	0.195999995	200	0	0
17.6539993	6.90490007	0.0450000018	200	0	0
17.632	6.9046998	0.0480000004	200	0	0
17.6240005	6.90289974	0.00100000005	200	0	0
17.6299992	6.9046998	0.0170000009	200	0	0
17.6420002	6.90500021	0.0439999998	200	0	0
17.6340008	6.90500021	0.0130000003	200	0	0
17.6509991	6.90840101	0.787	200	0	0
17.6739998	6.9083004	0.722000003	200	0	0
17.6439991	6.9083004	0.757000029	200	0	0
17.6429996	6.90890026	0.783999979	200	0	0
17.6490002	6.90719986	0.416000009	200	0	0
17.6509991	6.90900087	0.749000013	200	0	0
17.6639996	6.9083004	0.629999995	200	0	0
17.6739998	6.90900087	0.716000021	200	0	0
17.6700001	6.90890026	0.718999982	200	0	0
17.6490002	6.90650082	0.321999997	200	0	0
17.6639996	6.90630007	0.319999993	200	0	0
17.6630001	6.90630007	0.351999998	200	0	0
17.6560001	6.9073	0.352999985	200	0	0
17.6539993	6.9071002	0.352999985	200	0	0
17.6520004	6.90719986	0.352999985	200	0	0
17.6450005	6.90719986	0.323000014	200	0	0
17.6340008	6.90719986	0.199000001	200	0	0
17.6299992	6.9071002	0.324000001	200	0	0
17.6469994	6.9073	0.291000009	200	0	0
17.6439991	6.9071002	0.196999997	200	0	0
17.6459999	6.90719986	0.291000009	200	0	0
17.6299992	6.9071002	0.293000013	200	0	0
17.6469994	6.90719986	0.25999999	200	0	0
17.6369991	6.9071002	0.261000007	200	0	0
17.6660004	6.90630007	0.289000005	200	0	0
17.6459999	6.90650082	0.291000009	200	0	0
17.6399994	6.90630007	0.0410000011	200	0	0
17.6280003	6.90650082	0.0430000015	200	0	0
17.6350002	6.9073	0.136000007	200	0	0
17.6359997	6.90719986	0.166999996	200	0	0
17.6329994	6.90719986	0.104999997	200	0	0
17.6429996	6.90719986	0.135000005	200	0	0
17.6420002	6.9071002	0.165999994	200	0	0
17.6420002	6.9071002	0.135000005	200	0	0
17.6560001	6.90630007	0.101999998	200	0	0
17.625	6.90289974	-0.0939999968	200	0	0
17.6429996	6.90929985	0.746999979	200	0	0
17.6380005	6.90919971	0.782000005	200	0	0
17.6520004	6.90900087	0.656000018	200	0	0
17.6669998	6.90890026	0.657000005	200	0	0
17.6560001	6.90969992	0.745000005	200	0	0
17.6599998	6.90929985	0.713999987	200	0	0
17.6609993	6.90969992	0.776000023	200	0	0
17.6019993	6.90950012	0.750999987	200	0	0
17.6170006	6.90939999	0.749000013	200	0	0
17.6380005	6.90950012	0.777999997	200	0	0
17.6620007	6.9073	0.32100001	200	0	0
17.6270008	6.90989971	0.717000008	200	0	0
17.6569996	6.90989971	0.745000005	200	0	0
17.6830006	6.90969992	0.711000025	200	0	0
17.6630001	6.90900087	0.56099999	200	0	0
17.6779995	6.90890026	0.561999977	200	0	0
17.6730003	6.90900087	0.591000021	200	0	0
17.677	6.90890026	0.593999982	200	0	0
17.6550007	6.90900087	0.624000013	200	0	0
17.6700001	6.90890026	0.625999987	200	0	0
17.6550007	6.90969992	0.65200001	200	0	0
17.6350002	6.90929985	0.653999984	200	0	0
17.6739998	6.90799999	0.287999988	200	0	0
17.6679993	6.90789986	0.287999988	200	0	0
17.6490002	6.90789986	0.259000003	200	0	0
17.6130009	6.90789986	0.138999999	200	0	0
17.6359997	6.90789986	0.166999996	200	0	0
17.6399994	6.90789986	0.197999999	200	0	0
17.6340008	6.90719986	0.00999999978	200	0	0
17.6299992	6.90719986	0.0419999994	200	0	0
17.6340008	6.9071002	0.00999999978	200	0	0
17.6420002	6.9071002	0.0410000011	200	0	0
17.6529999	6.90650082	0.00800000038	200	0	0
17.632	6.90630007	0.0109999999	200	0	0
17.6359997	6.9071002	-0.0209999997	200	0	0
17.6310005	6.90789986	0.104999997	200	0	0
17.6650009	6.90969992	0.588	200	0	0
17.6420002	6.90989971	0.621999979	200	0	0
17.6620007	6.90989971	0.651000023	200	0	0
17.6490002	6.90969992	0.620999992	200	0	0
17.6520004	6.90929985	0.589999974	200	0	0
17.6310005	6.90929985	0.624000013	200	0	0
17.6730003	6.91060019	0.708999991	200	0	0
17.6720009	6.91060019	0.74000001	200	0	0
17.677	6.91039991	0.712000012	200	0	0
17.6509991	6.91039991	0.77700001	200	0	0
17.6730003	6.91039991	0.742999971	200	0	0
17.6650009	6.91039991	0.651000023	200	0	0
17.6620007	6.90900087	0.467000008	200	0	0
17.6569996	6.90989971	0.558000028	200	0	0
17.6490002	6.90929985	0.497000009	200	0	0
17.6730003	6.90890026	0.5	200	0	0
17.6539993	6.90900087	0.5	200	0	0
17.6420002	6.90929985	0.560000002	200	0	0
17.6800003	6.91039991	0.587000012	200	0	0
17.6599998	6.91060019	0.616999984	200	0	0
17.6700001	6.91039991	0.619000018	200	0	0
17.6620007	6.90890026	0.250999987	200	0	0
17.6709995	6.90890026	0.312999994	200	0	0
17.6620007	6.90890026	0.282000005	200	0	0
17.625	6.90719986	-0.050999999	200	0	0
17.6259995	6.90719986	-0.114	200	0	0
17.6599998	6.91060019	0.55400002	200	0	0
17.6669998	6.91039991	0.556999981	200	0	0
17.6509991	6.91150093	0.739000022	200	0	0
17.6520004	6.91150093	0.707000017	200	0	0
17.6599998	6.91140032	0.737999976	200	0	0
17.6480007	6.91109991	0.769999981	200	0	0
17.6620007	6.91140032	0.70599997	200	0	0
17.6469994	6.91140032	0.769999981	200	0	0
17.6609993	6.90890026	0.407999992	200	0	0
17.6849995	6.90929985	0.460999995	200	0	0
17.6590004	6.91060019	0.492000014	200	0	0
17.6709995	6.91039991	0.493999988	200	0	0
17.6550007	6.91150093	0.582000017	200	0	0
17.6450005	6.91150093	0.646000028	200	0	0
17.6429996	6.91150093	0.61500001	200	0	0
17.6560001	6.91140032	0.582000017	200	0	0
17.6569996	6.91140032	0.643999994	200	0	0
17.6569996	6.91140032	0.612999976	200	0	0
17.6620007	6.90900087	0.153999999	200	0	0
17.6749992	6.90890026	0.344000012	200	0	0
17.6539993	6.90890026	0.158000007	200	0	0
17.625	6.90929985	0.187000006	200	0	0
17.6429996	6.90929985	0.310000002	200	0	0
17.6669998	6.90890026	0.187999994	200	0	0
17.677	6.90900087	0.308999985	200	0	0
17.6369991	6.90929985	0.247999996	200	0	0
17.6709995	6.90900087	0.277999997	200	0	0
17.6529999	6.90900087	0.248999998	200	0	0
17.6490002	6.91150093	0.551999986	200	0	0
17.6569996	6.91140032	0.550999999	200	0	0
17.6660004	6.9121995	0.69599998	200	0	0
17.6580009	6.9121995	0.727999985	200	0	0
17.6779995	6.91200018	0.698000014	200	0	0
17.6380005	6.91210032	0.73299998	200	0	0
17.6569996	6.91200018	0.762000024	200	0	0
17.6709995	6.91200018	0.730000019	200	0	0
17.6650009	6.91179991	0.764999986	200	0	0
17.6480007	6.9121995	0.635999978	200	0	0
17.6620007	6.91200018	0.637000024	200	0	0
17.6450005	6.91150093	0.458000004	200	0	0
17.6499996	6.91150093	0.488999993	200	0	0
17.6550007	6.91140032	0.488999993	200	0	0
17.6760006	6.9121995	0.538999975	200	0	0
17.6340008	6.9121995	0.606000006	200	0	0
17.6790009	6.9121995	0.569999993	200	0	0
17.6779995	6.91200018	0.541999996	200	0	0
17.6679993	6.91200018	0.605000019	200	0	0
17.6660004	6.91200018	0.574000001	200	0	0
17.6499996	6.90929985	0.0890000015	200	0	0
17.6630001	6.90890026	0.0939999968	200	0	0
17.6389999	6.90929985	0.122000001	200	0	0
17.6359997	6.90929985	0.153999999	200	0	0
17.6560001	6.90900087	0.123000003	200	0	0
17.6499996	6.90890026	0.127000004	200	0	0
17.6630001	6.91200018	0.481000006	200	0	0
17.6700001	6.91300011	0.754999995	200	0	0
17.6550007	6.91309977	0.725000024	200	0	0
17.6620007	6.91309977	0.693000019	200	0	0
17.6690006	6.91300011	0.723999977	200	0	0
17.6779995	6.91300011	0.691999972	200	0	0
17.6690006	6.91309977	0.598999977	200	0	0
17.6700001	6.91309977	0.629999995	200	0	0
17.6690006	6.91300011	0.598999977	200	0	0
17.6720009	6.91300011	0.629999995	200	0	0
17.6749992	6.91200018	0.386000007	200	0	0
17.6560001	6.9121995	0.479000002	200	0	0
17.6690006	6.91200018	0.418000013	200	0	0
17.6499996	6.91140032	0.395000011	200	0	0
17.6480007	6.91309977	0.569999993	200	0	0
17.6620007	6.91309977	0.537	200	0	0
17.6779995	6.91300011	0.566999972	200	0	0
17.6660004	6.91300011	0.537	200	0	0
17.6499996	6.90929985	-0.00499999989	200	0	0
17.6450005	6.90890026	0.0340000018	200	0	0
17.6459999	6.90929985	0.0270000007	200	0	0
17.6259995	6.91380024	0.790000021	200	0	0
17.5960007	6.91349983	0.731000006	200	0	0
17.6590004	6.91359997	0.694000006	200	0	0
17.6630001	6.91359997	0.723999977	200	0	0
17.6599998	6.91359997	0.755999982	200	0	0
17.6630001	6.91400099	0.689999998	200	0	0
17.6580009	6.91400099	0.753000021	200	0	0
17.6459999	6.91400099	0.72299999	200	0	0
17.6560001	6.91359997	0.630999982	200	0	0
17.6070004	6.91380024	0.574000001	200	0	0
17.6609993	6.91400099	0.564999998	200	0	0
17.6580009	6.91400099	0.628000021	200	0	0
17.6609993	6.91400099	0.597000003	200	0	0
17.6620007	6.91359997	0.537	200	0	0
17.6650009	6.91359997	0.568000019	200	0	0
17.6639996	6.91359997	0.598999977	200	0	0
17.6580009	6.91200018	0.294	200	0	0
17.6490002	6.91140032	0.333000004	200	0	0
17.6490002	6.91150093	0.333000004	200	0	0
17.6720009	6.91200018	0.323000014	200	0	0
17.6509991	6.91150093	0.300999999	200	0	0
17.6520004	6.91140032	0.300999999	200	0	0
17.6679993	6.91400099	0.532999992	200	0	0
17.6089993	6.91380024	0.542999983	200	0	0
17.6130009	6.91380024	0.88499999	200	0	0
17.6539993	6.91429996	0.722000003	200	0	0
17.6329994	6.91460037	0.751999974	200	0	0
17.6060009	6.91380024	0.853999972	200	0	0
17.6499996	6.91429996	0.754000008	200	0	0
17.5900002	6.91380024	0.763000011	200	0	0
17.6739998	6.91429996	0.625999987	200	0	0
17.6599998	6.91429996	0.689999998	200	0	0
17.6539993	6.91429996	0.597000003	200	0	0
17.6539993	6.91469955	0.625	200	0	0
17.6760006	6.91469955	0.717000008	200	0	0
17.6490002	6.91469955	0.688000023	200	0	0
17.6520004	6.91460037	0.718999982	200	0	0
17.6630001	6.91429996	0.564999998	200	0	0
17.6210003	6.91400099	0.476000011	200	0	0
17.6590004	6.91140032	0.238000005	200	0	0
17.6410007	6.91150093	0.239999995	200	0	0
17.6669998	6.9121995	0.226999998	200	0	0
17.6790009	6.91200018	0.228	200	0	0
17.6590004	6.91140032	0.268999994	200	0	0
17.6410007	6.91150093	0.270999998	200	0	0
17.6480007	6.9121995	0.25999999	200	0	0
17.6660004	6.91200018	0.261000007	200	0	0
17.6469994	6.9121995	0.291999996	200	0	0
17.6299992	6.91060019	0.307999998	200	0	0
17.6529999	6.91060019	0.273000002	200	0	0
17.6550007	6.91060019	0.241999999	200	0	0
17.6049995	6.91380024	0.977999985	200	0	0
17.6019993	6.91380024	0.948000014	200	0	0
17.6119995	6.91380024	0.916000009	200	0	0
17.6730003	6.91539955	0.717000008	200	0	0
17.677	6.91530085	0.717000008	200	0	0
17.5990009	6.91530085	0.754999995	200	0	0
17.684	6.91539955	0.685000002	200	0	0
17.6580009	6.91539955	0.561999977	200	0	0
17.6809998	6.91530085	0.560000002	200	0	0
17.6800003	6.91530085	0.685000002	200	0	0
17.6660004	6.91539955	0.592999995	200	0	0
17.6679993	6.91539955	0.624000013	200	0	0
17.6700001	6.91530085	0.592000008	200	0	0
17.6669998	6.91530085	0.624000013	200	0	0
17.6669998	6.91429996	0.407999992	200	0	0
17.6639996	6.91359997	0.412	200	0	0
17.6539993	6.91400099	0.409999996	200	0	0
17.6509991	6.91060019	0.180000007	200	0	0
17.6630001	6.91140032	0.143000007	200	0	0
17.6509991	6.91150093	0.143999994	200	0	0
17.6669998	6.91200018	0.166999996	200	0	0
17.6329994	6.91150093	0.178000003	200	0	0
17.6480007	6.91140032	0.175999999	200	0	0
17.677	6.91300011	0.284999996	200	0	0
17.6539993	6.9121995	0.134000003	200	0	0
17.6660004	6.91200018	0.136000007	200	0	0
17.677	6.91309977	0.222000003	200	0	0
17.6539993	6.91300011	0.256000012	200	0	0
17.6630001	6.91300011	0.224000007	200	0	0
17.6599998	6.9121995	0.165000007	200	0	0
17.6630001	6.91300011	0.317999989	200	0	0
17.6609993	6.91309977	0.287	200	0	0
17.6639996	6.91039991	0.244000003	200	0	0
17.6779995	6.91039991	0.273999989	200	0	0
17.6679993	6.91039991	0.338	200	0	0
17.6630001	6.91039991	0.307000011	200	0	0
17.6630001	6.91039991	0.180999994	200	0	0
17.6669998	6.91039991	0.149000004	200	0	0
17.6509991	6.91060019	0.148000002	200	0	0
17.6170006	6.91380024	1.07000005	200	0	0
17.6089993	6.91380024	1.03999996	200	0	0
17.6690006	6.91629982	0.749000013	200	0	0
17.6959991	6.91629982	0.714999974	200	0	0
17.6509991	6.91610003	0.75	200	0	0
17.6639996	6.91610003	0.686999977	200	0	0
17.6630001	6.91610003	0.717999995	200	0	0
17.6609993	6.91590071	0.749000013	200	0	0
17.6520004	6.91610003	0.625	200	0	0
17.6760006	6.91539955	0.467000008	200	0	0
17.6389999	6.91530085	0.470999986	200	0	0
17.6569996	6.91610003	0.593999982	200	0	0
17.6590004	6.91610003	0.531000018	200	0	0
17.6420002	6.91610003	0.56400001	200	0	0
17.6849995	6.91539955	0.527999997	200	0	0
17.6749992	6.91530085	0.528999984	200	0	0
17.6499996	6.91400099	0.316000015	200	0	0
17.6620007	6.91429996	0.314999998	200	0	0
17.6520004	6.91359997	0.381999999	200	0	0
17.6630001	6.91400099	0.377000004	200	0	0
17.6560001	6.91429996	0.377999991	200	0	0
17.6590004	6.91359997	0.317999989	200	0	0
17.6669998	6.91300011	0.379999995	200	0	0
17.6879997	6.91300011	0.409000009	200	0	0
17.6599998	6.91039991	0.0869999975	200	0	0
17.6569996	6.91060019	0.0850000009	200	0	0
17.6639996	6.91060019	0.115000002	200	0	0
17.6630001	6.91039991	0.119000003	200	0	0
17.6560001	6.91200018	0.074000001	200	0	0
17.6520004	6.9121995	0.103	200	0	0
17.6599998	6.91200018	0.104999997	200	0	0
17.6429996	6.91150093	0.0829999968	200	0	0
17.6520004	6.91140032	0.0820000023	200	0	0
17.6480007	6.91150093	0.112999998	200	0	0
17.6509991	6.91140032	0.112999998	200	0	0
17.6620007	6.91359997	0.224000007	200	0	0
17.6599998	6.91359997	0.256000012	200	0	0
17.6560001	6.91359997	0.287	200	0	0
17.6310005	6.91309977	0.165000007	200	0	0
17.6599998	6.91300011	0.160999998	200	0	0
17.6709995	6.9121995	0.0689999983	200	0	0
17.6650009	6.91400099	0.252000004	200	0	0
17.6639996	6.91400099	0.221000001	200	0	0
17.6459999	6.91359997	0.163000003	200	0	0
17.6569996	6.91400099	0.284000009	200	0	0
17.6119995	6.91380024	1.16400003	200	0	0
17.5919991	6.91380024	1.10300004	200	0	0
17.6569996	6.91700029	0.709999979	200	0	0
17.6809998	6.91680002	0.709999979	200	0	0
17.6679993	6.91680002	0.742999971	200	0	0
17.6749992	6.91680002	0.616999984	200	0	0
17.6569996	6.91700029	0.584999979	200	0	0
17.6779995	6.91700029	0.614000022	200	0	0
17.6709995	6.91680002	0.586000025	200	0	0
17.6809998	6.91530085	0.372000009	200	0	0
17.6509991	6.91610003	0.469000012	200	0	0
17.6720009	6.91530085	0.404000014	200	0	0
17.6630001	6.91680002	0.524999976	200	0	0
17.6970005	6.91700029	0.549000025	200	0	0
17.6620007	6.91680002	0.462000012	200	0	0
17.6849995	6.91700029	0.518999994	200	0	0
17.6599998	6.9144001	0.252000004	200	0	0
17.6630001	6.9144001	0.282999992	200	0	0
17.6669998	6.91429996	0.282999992	200	0	0
17.6529999	6.91039991	-0.00600000005	200	0	0
17.6630001	6.91060019	0.0209999997	200	0	0
17.6499996	6.91039991	0.0260000005	200	0	0
17.6660004	6.91060019	-0.0109999999	200	0	0
17.6399994	6.91150093	-0.0109999999	200	0	0
17.6539993	6.91200018	-0.0199999996	200	0	0
17.6399994	6.91140032	0.0199999996	200	0	0
17.6420002	6.9121995	0.00999999978	200	0	0
17.6669998	6.91200018	0.00999999978	200	0	0
17.6439991	6.91140032	-0.0120000001	200	0	0
17.6520004	6.91359997	0.130999997	200	0	0
17.6529999	6.91400099	0.158999994	200	0	0
17.5930004	6.91380024	0.108000003	200	0	0
17.6609993	6.91359997	0.0989999995	200	0	0
17.6660004	6.9121995	-0.0250000004	200	0	0
17.6539993	6.91400099	0.128000006	200	0	0
17.6560001	6.91359997	0.0680000037	200	0	0
17.6520004	6.91400099	0.0970000029	200	0	0
17.6130009	6.91380024	1.22500002	200	0	0
17.5970001	6.91380024	1.19599998	200	0	0
17.6679993	6.91789961	0.734000027	200	0	0
17.6429996	6.9178009	0.736000001	200	0	0
17.6730003	6.91770029	0.702000022	200	0	0
17.6520004	6.91750002	0.735000014	200	0	0
17.6700001	6.91750002	0.702000022	200	0	0
17.6550007	6.91770029	0.578999996	200	0	0
17.6669998	6.91770029	0.609000027	200	0	0
17.7029991	6.91719961	0.541999996	200	0	0
17.6889992	6.91750002	0.574999988	200	0	0
17.7040005	6.91750002	0.605000019	200	0	0
17.6700001	6.91770029	0.514999986	200	0	0
17.677	6.91770029	0.545000017	200	0	0
17.6800003	6.91719961	0.513999999	200	0	0
17.6660004	6.91750002	0.546000004	200	0	0
17.6499996	6.91539955	0.282000005	200	0	0
17.6660004	6.91530085	0.280000001	200	0	0
17.6590004	6.91590071	0.312000006	200	0	0
17.6580009	6.91610003	0.375	200	0	0
17.6529999	6.91539955	0.312999994	200	0	0
17.6779995	6.91530085	0.310000002	200	0	0
17.6690006	6.91590071	0.372999996	200	0	0
17.6919994	6.91719961	0.449999988	200	0	0
17.6819992	6.91680002	0.365999997	200	0	0
17.6700001	6.91680002	0.398999989	200	0	0
17.6650009	6.91530085	0.216999993	200	0	0
17.677	6.91530085	0.246999994	200	0	0
17.6410007	6.91140032	-0.074000001	200	0	0
17.6590004	6.91400099	0.064000003	200	0	0
17.6469994	6.91359997	0.00600000005	200	0	0
17.6450005	6.91359997	-0.0250000004	200	0	0
17.6550007	6.91400099	0.00200000009	200	0	0
17.6240005	6.91869974	0.707000017	200	0	0
17.6709995	6.91849995	0.671000004	200	0	0
17.6280003	6.91860008	0.70599997	200	0	0
17.6760006	6.91840076	0.670000017	200	0	0
17.6709995	6.91820002	0.671000004	200	0	0
17.6550007	6.91849995	0.703999996	200	0	0
17.6720009	6.91799974	0.671000004	200	0	0
17.6739998	6.91840076	0.702000022	200	0	0
17.6599998	6.91840076	0.734000027	200	0	0
17.6329994	6.9178009	0.768000007	200	0	0
17.6550007	6.91820002	0.703999996	200	0	0
17.6599998	6.91820002	0.734000027	200	0	0
17.6739998	6.91840076	0.513999999	200	0	0
17.6819992	6.91849995	0.606999993	200	0	0
17.6639996	6.91849995	0.546999991	200	0	0
17.6580009	6.91820002	0.515999973	200	0	0
17.6580009	6.91849995	0.578999996	200	0	0
17.6720009	6.91840076	0.60799998	200	0	0
17.6730003	6.91840076	0.577000022	200	0	0
17.6660004	6.91820002	0.546000004	200	0	0
17.6599998	6.91820002	0.610000014	200	0	0
17.6509991	6.91820002	0.578999996	200	0	0
17.6459999	6.91820002	0.455000013	200	0	0
17.6590004	6.91849995	0.515999973	200	0	0
17.6599998	6.91610003	0.217999995	200	0	0
17.6709995	6.91590071	0.216000006	200	0	0
17.6590004	6.91610003	0.248999998	200	0	0
17.6480007	6.91610003	0.312999994	200	0	0
17.6749992	6.91539955	0.216000006	200	0	0
17.6480007	6.91610003	0.282000005	200	0	0
17.6520004	6.91590071	0.25	200	0	0
17.6720009	6.91590071	0.279000014	200	0	0
17.6569996	6.91539955	0.25	200	0	0
17.6760006	6.91750002	0.294999987	200	0	0
17.6639996	6.91700029	0.270999998	200	0	0
17.6800003	6.91680002	0.272000015	200	0	0
17.6569996	6.91750002	0.360000014	200	0	0
17.6560001	6.91700029	0.303000003	200	0	0
17.6739998	6.91530085	0.122000001	200	0	0
17.6550007	6.91539955	0.123999998	200	0	0
17.6590004	6.91590071	0.155000001	200	0	0
17.6660004	6.91530085	0.153999999	200	0	0
17.6609993	6.91539955	0.155000001	200	0	0
17.6480007	6.91150093	-0.137999997	200	0	0
17.6229992	6.91140032	-0.135000005	200	0	0
17.6509991	6.91400099	-0.0289999992	200	0	0
17.6459999	6.91400099	-0.0909999982	200	0	0
17.6509991	6.91940022	0.739000022	200	0	0
17.6569996	6.91940022	0.707000017	200	0	0
17.6760006	6.91909981	0.670000017	200	0	0
17.6380005	6.91909981	0.768000007	200	0	0
17.6739998	6.91909981	0.702000022	200	0	0
17.6469994	6.91909981	0.736000001	200	0	0
17.6469994	6.91890001	0.704999983	200	0	0
17.6340008	6.91879988	0.70599997	200	0	0
17.6700001	6.91909981	0.609000027	200	0	0
17.6599998	6.91820002	0.421999991	200	0	0
17.6660004	6.91919994	0.546999991	200	0	0
17.6790009	6.91909981	0.545000017	200	0	0
17.6630001	6.91909981	0.515999973	200	0	0
17.6560001	6.91849995	0.453999996	200	0	0
17.6450005	6.91909981	0.579999983	200	0	0
17.6679993	6.91909981	0.421000004	200	0	0
17.6550007	6.91820002	0.360000014	200	0	0
17.6739998	6.91840076	0.388999999	200	0	0
17.7000008	6.91700029	0.234999999	200	0	0
17.6590004	6.91680002	0.149000004	200	0	0
17.6630001	6.91590071	0.123000003	200	0	0
17.6439991	6.91610003	0.126000002	200	0	0
17.6889992	6.91680002	0.208000004	200	0	0
17.6520004	6.91610003	0.156000003	200	0	0
17.6630001	6.91770029	0.202000007	200	0	0
17.6739998	6.91840076	0.263999999	200	0	0
17.6620007	6.91820002	0.233999997	200	0	0
17.6739998	6.91840076	0.294999987	200	0	0
17.6359997	6.91820002	0.300000012	200	0	0
17.6480007	6.91820002	0.26699999	200	0	0
17.6599998	6.91770029	0.266000003	200	0	0
17.6560001	6.91750002	0.266000003	200	0	0
17.6730003	6.91840076	0.35800001	200	0	0
17.6469994	6.91610003	0.0939999968	200	0	0
17.6639996	6.91590071	0.0920000002	200	0	0
17.6569996	6.91530085	0.0610000007	200	0	0
17.625	6.91539955	0.0970000029	200	0	0
17.6630001	6.91530085	0.0920000002	200	0	0
17.6509991	6.91610003	0.061999999	200	0	0
17.6609993	6.91680002	0.116999999	200	0	0
17.6790009	6.92010021	0.674000025	200	0	0
17.6660004	6.92020035	0.70599997	200	0	0
17.6730003	6.92010021	0.704999983	200	0	0
17.6520004	6.92010021	0.739000022	200	0	0
17.6879997	6.92020035	0.672999978	200	0	0
17.6580009	6.91909981	0.391000003	200	0	0
17.6709995	6.92010021	0.58099997	200	0	0
17.6749992	6.92010021	0.518000007	200	0	0
17.6660004	6.92010021	0.550000012	200	0	0
17.6539993	6.91909981	0.360000014	200	0	0
17.6609993	6.91849995	0.266000003	200	0	0
17.6800003	6.91849995	0.294999987	200	0	0
17.6630001	6.91680002	0.0540000014	200	0	0
17.6650009	6.91770029	0.138999999	200	0	0
17.6779995	6.91680002	0.0839999989	200	0	0
17.6609993	6.91840076	0.140000001	200	0	0
17.6420002	6.91820002	0.142000005	200	0	0
17.6639996	6.91849995	0.202000007	200	0	0
17.6709995	6.91840076	0.232999995	200	0	0
17.6520004	6.91820002	0.203999996	200	0	0
17.6429996	6.91909981	0.237000003	200	0	0
17.6739998	6.91909981	0.294999987	200	0	0
17.6580009	6.91909981	0.266000003	200	0	0
17.6700001	6.91849995	0.138999999	200	0	0
17.6359997	6.91610003	0.00100000005	200	0	0
17.6429996	6.91530085	-0.0309999995	200	0	0
17.6630001	6.91530085	-0.00300000003	200	0	0
17.6539993	6.91539955	-0.00100000005	200	0	0
17.6410007	6.91680002	-0.00600000005	200	0	0
17.6369991	6.91610003	-0.0299999993	200	0	0
17.6490002	6.91770029	0.0790000036	200	0	0
17.6590004	6.92080021	0.612999976	200	0	0
17.6630001	6.92020035	0.582000017	200	0	0
17.6720009	6.92070007	0.736999989	200	0	0
17.6730003	6.92070007	0.611999989	200	0	0
17.6690006	6.92080021	0.70599997	200	0	0
17.6539993	6.92039967	0.737999976	200	0	0
17.6509991	6.92039967	0.614000022	200	0	0
17.6809998	6.92080021	0.672999978	200	0	0
17.6790009	6.92070007	0.704999983	200	0	0
17.6679993	6.92010021	0.611999989	200	0	0
17.6369991	6.92039967	0.708999991	200	0	0
17.6459999	6.9204998	0.708000004	200	0	0
17.6760006	6.92070007	0.674000025	200	0	0
17.6359997	6.92039967	0.677999973	200	0	0
17.6760006	6.92070007	0.518000007	200	0	0
17.6340008	6.92080021	0.584999979	200	0	0
17.6599998	6.92039967	0.518999994	200	0	0
17.6900005	6.92020035	0.515999973	200	0	0
17.6760006	6.92070007	0.549000025	200	0	0
17.6630001	6.92070007	0.582000017	200	0	0
17.6219997	6.92039967	0.586000025	200	0	0
17.6940002	6.92039967	0.546999991	200	0	0
17.6620007	6.92020035	0.550999999	200	0	0
17.6490002	6.91849995	0.109999999	200	0	0
17.6450005	6.91820002	0.0790000036	200	0	0
17.6709995	6.91840076	0.107000001	200	0	0
17.6459999	6.91820002	0.111000001	200	0	0
17.6429996	6.91820002	0.0480000004	200	0	0
17.6569996	6.91840076	0.0460000001	200	0	0
17.6529999	6.91849995	0.0469999984	200	0	0
17.6550007	6.91849995	0.0780000016	200	0	0
17.6490002	6.91610003	-0.064000003	200	0	0
17.6679993	6.92159986	0.58099997	200	0	0
17.6709995	6.92159986	0.611999989	200	0	0
17.6599998	6.92159986	0.707000017	200	0	0
17.6450005	6.92159986	0.74000001	200	0	0
17.6739998	6.92159986	0.674000025	200	0	0
17.6690006	6.92159986	0.550000012	200	0	0
17.6700001	6.92159986	0.518999994	200	0	0
17.6520004	6.91840076	-0.0160000008	200	0	0
17.6369991	6.91820002	-0.0140000004	200	0	0
17.6450005	6.91849995	-0.0460000001	200	0	0
17.6369991	6.91820002	-0.0450000018	200	0	0
17.6590004	6.92180014	0.675999999	200	0	0
17.6569996	6.92250013	0.614000022	200	0	0
17.6520004	6.92250013	0.551999986	200	0	0
17.6520004	6.92250013	0.583000004	200	0	0
17.677	6.92229986	0.549000025	200	0	0
17.6690006	6.92229986	0.58099997	200	0	0
17.6730003	6.92180014	0.611999989	200	0	0
17.6580009	6.92180014	0.582000017	200	0	0
17.6630001	6.92180014	0.707000017	200	0	0
17.6650009	6.92229986	0.675000012	200	0	0
17.6340008	6.92250013	0.740999997	200	0	0
17.6410007	6.92250013	0.677999973	200	0	0
17.6529999	6.92250013	0.708000004	200	0	0
17.6529999	6.92229986	0.739000022	200	0	0
17.6350002	6.92219973	0.740999997	200	0	0
17.6329994	6.9217	0.772000015	200	0	0
17.6700001	6.92229986	0.70599997	200	0	0
17.6509991	6.92180014	0.739000022	200	0	0
17.6429996	6.91820002	-0.0780000016	200	0	0
17.6189995	6.92250013	0.523999989	200	0	0
17.6650009	6.92340088	0.582000017	200	0	0
17.6709995	6.92320013	0.550000012	200	0	0
17.6730003	6.92320013	0.674000025	200	0	0
17.6690006	6.92340088	0.611999989	200	0	0
17.6720009	6.92320013	0.58099997	200	0	0
17.6639996	6.92320013	0.612999976	200	0	0
17.6779995	6.92340088	0.549000025	200	0	0
17.6480007	6.92250013	0.458999991	200	0	0
17.6760006	6.92320013	0.518000007	200	0	0
17.6450005	6.92270041	0.74000001	200	0	0
17.6439991	6.92299986	0.74000001	200	0	0
17.6730003	6.92320013	0.70599997	200	0	0
17.6389999	6.92340088	0.708999991	200	0	0
17.6429996	6.92340088	0.74000001	200	0	0
17.6690006	6.92320013	0.736999989	200	0	0
17.6270008	6.92309999	0.740999997	200	0	0
17.6739998	6.92340088	0.674000025	200	0	0
17.6410007	6.91820002	-0.172000006	200	0	0
17.6520004	6.92409992	0.521000028	200	0	0
17.6690006	6.92390013	0.518999994	200	0	0
17.6879997	6.92409992	0.578999996	200	0	0
17.6709995	6.92390013	0.611999989	200	0	0
17.6679993	6.92390013	0.58099997	200	0	0
17.6630001	6.92390013	0.737999976	200	0	0
17.6399994	6.92379999	0.74000001	200	0	0
17.6369991	6.92400074	0.708999991	200	0	0
17.6800003	6.92409992	0.674000025	200	0	0
17.6620007	6.92390013	0.707000017	200	0	0
17.6639996	6.92390013	0.675000012	200	0	0
17.6660004	6.92229986	0.363000005	200	0	0
17.6630001	6.92250013	0.363000005	200	0	0
17.6560001	6.92250013	0.395000011	200	0	0
17.6679993	6.92229986	0.425000012	200	0	0
17.6289997	6.92369986	0.772000015	200	0	0
17.6389999	6.92409992	0.708999991	200	0	0
17.6280003	6.92409992	0.740999997	200	0	0
17.6599998	6.92479992	0.582000017	200	0	0
17.6660004	6.92490005	0.550000012	200	0	0
17.6369991	6.92460012	0.584999979	200	0	0
17.6299992	6.92460012	0.460999995	200	0	0
17.6650009	6.92479992	0.550000012	200	0	0
17.6490002	6.92460012	0.551999986	200	0	0
17.6599998	6.92460012	0.519999981	200	0	0
17.6429996	6.92490005	0.583999991	200	0	0
17.6749992	6.92479992	0.611999989	200	0	0
17.6450005	6.92460012	0.61500001	200	0	0
17.6529999	6.92460012	0.675999999	200	0	0
17.6660004	6.92479992	0.70599997	200	0	0
17.6620007	6.92479992	0.737999976	200	0	0
17.6229992	6.92469978	0.741999984	200	0	0
17.6270008	6.92460012	0.772000015	200	0	0
17.6429996	6.92460012	0.708999991	200	0	0
17.6550007	6.92460012	0.739000022	200	0	0
17.6590004	6.92439985	0.737999976	200	0	0
17.6560001	6.92490005	0.707000017	200	0	0
17.6509991	6.92479992	0.676999986	200	0	0
17.6399994	6.92250013	0.272000015	200	0	0
17.6650009	6.92159986	0.300000012	200	0	0
17.6609993	6.92229986	0.268999994	200	0	0
17.6590004	6.92320013	0.363999993	200	0	0
17.6720009	6.92159986	0.361999989	200	0	0
17.6450005	6.92250013	0.303000003	200	0	0
17.6730003	6.92229986	0.298999995	200	0	0
17.6560001	6.92320013	0.300999999	200	0	0
17.6399994	6.92500019	0.74000001	200	0	0
17.6690006	6.92549992	0.518999994	200	0	0
17.6590004	6.92560005	0.614000022	200	0	0
17.6550007	6.92560005	0.551999986	200	0	0
17.6580009	6.92560005	0.582000017	200	0	0
17.6690006	6.92549992	0.550000012	200	0	0
17.6550007	6.92549992	0.614000022	200	0	0
17.6669998	6.92549992	0.58099997	200	0	0
17.6259995	6.92490005	0.616999984	200	0	0
17.6539993	6.92460012	0.363999993	200	0	0
17.6499996	6.92460012	0.395999998	200	0	0
17.6529999	6.92460012	0.426999986	200	0	0
17.6690006	6.92549992	0.675000012	200	0	0
17.6669998	6.92549992	0.70599997	200	0	0
17.6569996	6.92560005	0.675999999	200	0	0
17.6439991	6.92560005	0.708999991	200	0	0
17.6550007	6.92549992	0.739000022	200	0	0
17.625	6.92530107	0.741999984	200	0	0
17.6490002	6.92340088	0.239999995	200	0	0
17.6539993	6.92320013	0.208000004	200	0	0
17.6459999	6.92159986	0.239999995	200	0	0
17.6569996	6.92159986	0.270000011	200	0	0
17.6490002	6.92320013	0.239999995	200	0	0
17.6730003	6.92229986	0.204999998	200	0	0
17.6650009	6.92320013	0.268999994	200	0	0
17.6560001	6.92250013	0.207000002	200	0	0
17.6679993	6.92229986	0.237000003	200	0	0
17.6509991	6.92250013	0.238999993	200	0	0
17.6539993	6.92070007	0.270000011	200	0	0
17.6620007	6.92159986	0.206	200	0	0
17.6560001	6.92070007	0.300999999	200	0	0
17.6529999	6.92080021	0.270000011	200	0	0
17.6819992	6.92080021	0.298000008	200	0	0
17.6660004	6.92409992	0.363000005	200	0	0
17.6669998	6.92390013	0.393999994	200	0	0
17.6700001	6.92390013	0.361999989	200	0	0
17.6639996	6.92070007	0.393999994	200	0	0
17.6669998	6.92070007	0.361999989	200	0	0
17.6879997	6.92080021	0.360000014	200	0	0
17.6660004	6.92409992	0.268999994	200	0	0
17.6529999	6.92409992	0.301999986	200	0	0
17.6630001	6.92390013	0.268999994	200	0	0
17.6459999	6.92619991	0.583999991	200	0	0
17.6700001	6.92630005	0.550000012	200	0	0
17.6650009	6.92630005	0.518999994	200	0	0
17.6599998	6.92560005	0.456999987	200	0	0
17.6550007	6.92630005	0.675999999	200	0	0
17.6439991	6.9265008	0.61500001	200	0	0
17.6389999	6.92619991	0.677999973	200	0	0
17.6469994	6.92630005	0.583999991	200	0	0
17.6550007	6.92630005	0.614000022	200	0	0
17.6480007	6.92619991	0.61500001	200	0	0
17.6459999	6.92460012	0.270999998	200	0	0
17.6609993	6.92549992	0.363000005	200	0	0
17.6380005	6.92460012	0.303000003	200	0	0
17.6560001	6.92619991	0.737999976	200	0	0
17.6340008	6.92630005	0.709999979	200	0	0
17.6490002	6.92619991	0.708000004	200	0	0
17.6450005	6.9265008	0.708000004	200	0	0
17.6350002	6.9265008	0.677999973	200	0	0
17.6529999	6.9265008	0.739000022	200	0	0
17.6259995	6.92640018	0.740999997	200	0	0
17.6539993	6.92320013	0.144999996	200	0	0
17.6590004	6.92409992	0.207000002	200	0	0
17.6469994	6.92409992	0.239999995	200	0	0
17.6679993	6.92390013	0.206	200	0	0
17.6700001	6.92390013	0.143000007	200	0	0
17.6480007	6.92250013	0.145999998	200	0	0
17.6580009	6.92159986	0.143999994	200	0	0
17.6800003	6.92070007	0.234999999	200	0	0
17.6499996	6.92080021	0.208000004	200	0	0
17.6630001	6.92080021	0.237000003	200	0	0
17.6380005	6.92250013	0.115000002	200	0	0
17.6650009	6.92229986	0.112000003	200	0	0
17.6650009	6.92229986	0.143000007	200	0	0
17.6509991	6.92039967	0.363999993	200	0	0
17.6800003	6.92010021	0.203999996	200	0	0
17.6480007	6.92020035	0.208000004	200	0	0
17.6749992	6.92010021	0.236000001	200	0	0
17.6760006	6.92070007	0.203999996	200	0	0
17.6499996	6.92039967	0.208000004	200	0	0
17.6690006	6.92010021	0.298999995	200	0	0
17.6809998	6.92020035	0.234999999	200	0	0
17.6800003	6.92010021	0.26699999	200	0	0
17.6539993	6.92020035	0.300999999	200	0	0
17.6679993	6.92020035	0.268000007	200	0	0
17.6499996	6.92039967	0.301999986	200	0	0
17.6550007	6.92039967	0.270000011	200	0	0
17.6550007	6.92159986	0.112999998	200	0	0
17.6580009	6.92039967	0.395000011	200	0	0
17.6690006	6.92010021	0.361999989	200	0	0
17.6730003	6.92020035	0.361999989	200	0	0
17.6700001	6.92010021	0.393000007	200	0	0
17.6420002	6.92460012	0.209000006	200	0	0
17.6450005	6.92460012	0.239999995	200	0	0
17.6639996	6.92710018	0.550999999	200	0	0
17.6550007	6.92710018	0.614000022	200	0	0
17.6560001	6.92710018	0.583000004	200	0	0
17.6350002	6.92679977	0.523000002	200	0	0
17.6219997	6.92679977	0.555000007	200	0	0
17.6429996	6.92679977	0.61500001	200	0	0
17.6480007	6.92679977	0.583000004	200	0	0
17.6410007	6.92719984	0.522000015	200	0	0
17.677	6.92719984	0.549000025	200	0	0
17.6580009	6.92560005	0.363999993	200	0	0
17.6539993	6.92619991	0.395000011	200	0	0
17.6590004	6.92719984	0.707000017	200	0	0
17.6420002	6.92719984	0.677999973	200	0	0
17.6599998	6.92689991	0.737999976	200	0	0
17.6539993	6.92710018	0.708000004	200	0	0
17.632	6.92679977	0.740999997	200	0	0
17.6569996	6.92710018	0.675999999	200	0	0
17.6289997	6.9265995	0.740999997	200	0	0
17.6240005	6.92679977	0.711000025	200	0	0
17.6270008	6.92679977	0.67900002	200	0	0
17.6359997	6.92719984	0.584999979	200	0	0
17.6550007	6.92719984	0.614000022	200	0	0
17.6520004	6.92549992	0.301999986	200	0	0
17.6599998	6.92549992	0.268999994	200	0	0
17.6599998	6.92619991	0.300999999	200	0	0
17.6490002	6.92560005	0.270999998	200	0	0
17.6580009	6.92619991	0.363999993	200	0	0
17.6399994	6.92560005	0.303000003	200	0	0
17.6569996	6.92719984	0.737999976	200	0	0
17.6259995	6.92710018	0.740999997	200	0	0
17.6259995	6.92740011	0.740999997	200	0	0
17.6200008	6.92710018	0.773000002	200	0	0
17.6450005	6.92729998	0.74000001	200	0	0
17.6709995	6.92409992	0.111000001	200	0	0
17.6399994	6.92250013	0.0839999989	200	0	0
17.6760006	6.92409992	0.142000005	200	0	0
17.6560001	6.92390013	0.112999998	200	0	0
17.6310005	6.92460012	0.148000002	200	0	0
17.6779995	6.92409992	0.0469999984	200	0	0
17.6459999	6.92460012	0.0829999968	200	0	0
17.6560001	6.92390013	0.0500000007	200	0	0
17.6399994	6.92460012	0.115000002	200	0	0
17.6650009	6.92409992	0.0810000002	200	0	0
17.6550007	6.92229986	0.0500000007	200	0	0
17.6439991	6.92250013	0.0520000011	200	0	0
17.6660004	6.92229986	0.0799999982	200	0	0
17.6359997	6.92070007	0.115000002	200	0	0
17.6580009	6.92070007	0.143999994	200	0	0
17.6639996	6.92010021	0.143000007	200	0	0
17.6709995	6.92020035	0.142000005	200	0	0
17.6480007	6.92039967	0.144999996	200	0	0
17.6749992	6.92020035	0.109999999	200	0	0
17.6639996	6.92010021	0.112000003	200	0	0
17.6469994	6.92039967	0.114	200	0	0
17.6450005	6.92070007	0.0829999968	200	0	0
17.6599998	6.92549992	0.207000002	200	0	0
17.6620007	6.92799997	0.51700002	200	0	0
17.6560001	6.92799997	0.579999983	200	0	0
17.6529999	6.92799997	0.611000001	200	0	0
17.6259995	6.92749977	0.67900002	200	0	0
17.6459999	6.92679977	0.428000003	200	0	0
17.6450005	6.92679977	0.36500001	200	0	0
17.6060009	6.92759991	0.771000028	200	0	0
17.6669998	6.92799997	0.671999991	200	0	0
17.6399994	6.92799997	0.736999989	200	0	0
17.6569996	6.92799997	0.703999996	200	0	0
