-9.44499969	6.62599993	2.78600001	0	200	0
-9.44900036	6.62590075	2.78800011	0	200	0
-9.56000042	6.62580013	2.62700009	0	200	0
-9.56400013	6.62580013	2.64400005	0	200	0
-9.56299973	6.62580013	2.66000009	0	200	0
-9.56200027	6.62580013	2.67700005	0	200	0
-9.42000008	6.62599993	2.671	0	200	0
-9.48799992	6.62599993	2.63899994	0	200	0
-9.38899994	6.62610006	2.80100012	0	200	0
-9.45800018	6.62599993	2.62199998	0	200	0
-9.35900021	6.62619972	2.62100005	0	200	0
-9.37899971	6.62619972	2.78399992	0	200	0
-9.41800022	6.62610006	2.62100005	0	200	0
-9.36100006	6.62619972	2.63700008	0	200	0
-9.34300041	6.62619972	2.75099993	0	200	0
-9.33899975	6.62610006	2.66899991	0	200	0
-9.40999985	6.62610006	2.63800001	0	200	0
-9.36400032	6.62610006	2.75099993	0	200	0
-9.34399986	6.62610006	2.71799994	0	200	0
-9.35599995	6.62610006	2.7349999	0	200	0
-9.41800022	6.62599993	2.65400004	0	200	0
-9.39900017	6.62610006	2.65400004	0	200	0
-9.36299992	6.62610006	2.7019999	0	200	0
-9.38899994	6.62610006	2.86599994	0	200	0
-9.40299988	6.62599993	2.8670001	0	200	0
-9.39400005	6.62599993	2.83400011	0	200	0
-9.40400028	6.62599993	2.81800008	0	200	0
-9.45100021	6.62590075	2.87100005	0	200	0
-9.34000015	6.62619972	2.86400008	0	200	0
-9.33199978	6.62619972	2.83200002	0	200	0
-9.33399963	6.62610006	2.83200002	0	200	0
-9.33500004	6.62610006	2.81500006	0	200	0
-9.31900024	6.62619972	2.81500006	0	200	0
-9.48200035	6.62599993	2.58899999	0	200	0
-9.4659996	6.62590075	2.62400007	0	200	0
-9.58399963	6.62590075	2.54200006	0	200	0
-9.56299973	6.62580013	2.54399991	0	200	0
-9.55500031	6.62580013	2.55999994	0	200	0
-9.56299973	6.62580013	2.5769999	0	200	0
-9.55799961	6.62580013	2.5940001	0	200	0
-9.41300011	6.62610006	2.57200003	0	200	0
-9.42099953	6.62610006	2.58899999	0	200	0
-9.46800041	6.62599993	2.55599999	0	200	0
-9.46800041	6.62599993	2.57299995	0	200	0
-9.46899986	6.62590075	2.57399988	0	200	0
-9.29399967	6.62629986	2.78200006	0	200	0
-9.30300045	6.62619972	2.7980001	0	200	0
-9.4119997	6.62610006	2.53900003	0	200	0
-9.47099972	6.62599993	2.53999996	0	200	0
-9.42399979	6.62610006	2.55599999	0	200	0
-9.30000019	6.62619972	2.70099998	0	200	0
-9.30799961	6.62629986	2.53900003	0	200	0
-9.28999996	6.62629986	2.55500007	0	200	0
-9.29300022	6.62629986	2.5710001	0	200	0
-9.36400032	6.62619972	2.53900003	0	200	0
-9.2840004	6.62629986	2.63599992	0	200	0
-9.29199982	6.62629986	2.58699989	0	200	0
-9.30700016	6.62619972	2.66799998	0	200	0
-9.36900043	6.62619972	2.55500007	0	200	0
-9.29399967	6.62629986	2.61999989	0	200	0
-9.31299973	6.62619972	2.65199995	0	200	0
-9.35400009	6.62619972	2.57200003	0	200	0
-9.36499977	6.62619972	2.58800006	0	200	0
-9.24699974	6.62629986	2.73200011	0	200	0
-9.2489996	6.62629986	2.74799991	0	200	0
-9.26399994	6.62629986	2.79699993	0	200	0
-9.25699997	6.62639999	2.74799991	0	200	0
-9.29599953	6.62619972	2.71700001	0	200	0
-9.29199982	6.62619972	2.73300004	0	200	0
-9.24800014	6.62629986	2.82800007	0	200	0
-9.24400043	6.62639999	2.87700009	0	200	0
-9.24499989	6.62629986	2.87700009	0	200	0
-9.26000023	6.62629986	2.86100006	0	200	0
-9.22000027	6.62629986	2.81100011	0	200	0
-9.45800018	6.62590075	2.5079999	0	200	0
-9.46800041	6.62599993	2.50699997	0	200	0
-9.56200027	6.62580013	2.46000004	0	200	0
-9.56299973	6.62580013	2.477	0	200	0
-9.59000015	6.62590075	2.4749999	0	200	0
-9.56499958	6.62580013	2.49399996	0	200	0
-9.56200027	6.62580013	2.50999999	0	200	0
-9.3579998	6.62619972	2.49000001	0	200	0
-9.41399956	6.62610006	2.47399998	0	200	0
-9.46100044	6.62599993	2.49000001	0	200	0
-9.45199966	6.62590075	2.4920001	0	200	0
-9.36400032	6.62619972	2.50600004	0	200	0
-9.40699959	6.62610006	2.49000001	0	200	0
-9.42099953	6.62610006	2.50699997	0	200	0
-9.45499992	6.62590075	2.45900011	0	200	0
-9.4659996	6.62599993	2.47399998	0	200	0
-9.23600006	6.62629986	2.71499991	0	200	0
-9.24499989	6.62639999	2.71600008	0	200	0
-9.23999977	6.62639999	2.73099995	0	200	0
-9.22099972	6.62639999	2.77900004	0	200	0
-9.38500023	6.62619972	2.45700002	0	200	0
-9.43099976	6.62610006	2.45700002	0	200	0
-9.36100006	6.62619972	2.47399998	0	200	0
-9.48799992	6.62599993	2.45700002	0	200	0
-9.2329998	6.62639999	2.63499999	0	200	0
-9.22799969	6.62639999	2.65100002	0	200	0
-9.23099995	6.62629986	2.65100002	0	200	0
-9.23200035	6.62629986	2.66700006	0	200	0
-9.23600006	6.62639999	2.66700006	0	200	0
-9.22900009	6.62629986	2.69899988	0	200	0
-9.23200035	6.62639999	2.69899988	0	200	0
-9.23999977	6.62639999	2.47399998	0	200	0
-9.23600006	6.62639999	2.49000001	0	200	0
-9.23600006	6.62639999	2.58699989	0	200	0
-9.23499966	6.62639999	2.50600004	0	200	0
-9.23499966	6.62639999	2.5539999	0	200	0
-9.24100018	6.62639999	2.5710001	0	200	0
-9.2840004	6.62629986	2.47399998	0	200	0
-9.23999977	6.62639999	2.53800011	0	200	0
-9.29100037	6.62629986	2.49000001	0	200	0
-9.28899956	6.62629986	2.50600004	0	200	0
-9.23400021	6.62639999	2.61899996	0	200	0
-9.15299988	6.62659979	2.74499989	0	200	0
-9.17700005	6.62650108	2.66599989	0	200	0
-9.18599987	6.62639999	2.79399991	0	200	0
-9.17099953	6.62650108	2.69799995	0	200	0
-9.18599987	6.62650108	2.77800012	0	200	0
-9.18200016	6.62650108	2.71399999	0	200	0
-9.18700027	6.62650108	2.73000002	0	200	0
-9.18999958	6.62650108	2.74600005	0	200	0
-9.16899967	6.62639999	2.82599998	0	200	0
-9.1590004	6.62639999	2.80900002	0	200	0
-9.18200016	6.62639999	2.85800004	0	200	0
-9.15299988	6.62650108	2.87299991	0	200	0
-9.13300037	6.62659979	2.77600002	0	200	0
-9.13799953	6.62650108	2.79299998	0	200	0
-9.41300011	6.62619972	2.42499995	0	200	0
-9.47299957	6.62599993	2.42400002	0	200	0
-9.46700001	6.62599993	2.40799999	0	200	0
-9.56499958	6.62580013	2.37700009	0	200	0
-9.58399963	6.62590075	2.39199996	0	200	0
-9.56299973	6.62580013	2.39400005	0	200	0
-9.57900047	6.62590075	2.40899992	0	200	0
-9.56000042	6.62580013	2.41000009	0	200	0
-9.41300011	6.62610006	2.40799999	0	200	0
-9.28499985	6.62629986	2.42499995	0	200	0
-9.35700035	6.62619972	2.39199996	0	200	0
-9.36999989	6.62619972	2.40899992	0	200	0
-9.4090004	6.62610006	2.375	0	200	0
-9.4090004	6.62610006	2.39199996	0	200	0
-9.46199989	6.62599993	2.375	0	200	0
-9.48200035	6.62599993	2.39100003	0	200	0
-9.18000031	6.62650108	2.6500001	0	200	0
-9.29800034	6.62629986	2.40899992	0	200	0
-9.36299992	6.62619972	2.37599993	0	200	0
-9.17700005	6.62650108	2.5539999	0	200	0
-9.18000031	6.62650108	2.56999993	0	200	0
-9.18099976	6.62650108	2.58599997	0	200	0
-9.17599964	6.62650108	2.63400006	0	200	0
-9.18700027	6.62650108	2.61800003	0	200	0
-9.29399967	6.62629986	2.39299989	0	200	0
-9.23999977	6.62639999	2.37700009	0	200	0
-9.17700005	6.62650108	2.41000009	0	200	0
-9.18900013	6.62650108	2.53800011	0	200	0
-9.23900032	6.62639999	2.39400005	0	200	0
-9.24199963	6.62639999	2.41000009	0	200	0
-9.18599987	6.62650108	2.50600004	0	200	0
-9.18000031	6.62650108	2.49000001	0	200	0
-9.21199989	6.62650108	2.42600012	0	200	0
-9.18500042	6.62650108	2.47399998	0	200	0
-9.19400024	6.62650108	2.45799994	0	200	0
-9.24600029	6.62639999	2.42600012	0	200	0
-9.24800014	6.62639999	2.45799994	0	200	0
-9.30300045	6.62629986	2.37700009	0	200	0
-9.11499977	6.62659979	2.66499996	0	200	0
-9.07199955	6.62669992	2.77399993	0	200	0
-9.08100033	6.62659979	2.79099989	0	200	0
-9.07199955	6.62669992	2.727	0	200	0
-9.10499954	6.62650108	2.80699992	0	200	0
-9.07499981	6.62669992	2.74300003	0	200	0
-9.09500027	6.62669992	2.71199989	0	200	0
-9.11400032	6.62659979	2.6960001	0	200	0
-9.12100029	6.62659979	2.71199989	0	200	0
-9.13099957	6.62659979	2.72900009	0	200	0
-9.12800026	6.62659979	2.58500004	0	200	0
-9.12300014	6.62659979	2.6170001	0	200	0
-9.12300014	6.62659979	2.6329999	0	200	0
-9.11999989	6.62659979	2.64899993	0	200	0
-9.08300018	6.62650108	2.82200003	0	200	0
-9.10000038	6.62659979	2.87100005	0	200	0
-9.09599972	6.62650108	2.85500002	0	200	0
-9.06900024	6.62659979	2.85299993	0	200	0
-9.05000019	6.62659979	2.8210001	0	200	0
-9.04800034	6.62659979	2.80500007	0	200	0
-9.05599976	6.62669992	2.78999996	0	200	0
-9.46199989	6.62599993	2.34200001	0	200	0
-9.40100002	6.62610006	2.34299994	0	200	0
-9.47900009	6.62599993	2.32500005	0	200	0
-9.4829998	6.62590075	2.3269999	0	200	0
-9.47299957	6.62590075	2.34299994	0	200	0
-9.4289999	6.62610006	2.32599998	0	200	0
-9.56299973	6.62580013	2.29399991	0	200	0
-9.56700039	6.62580013	2.30999994	0	200	0
-9.56299973	6.62580013	2.3269999	0	200	0
-9.56000042	6.62580013	2.3440001	0	200	0
-9.40499973	6.62610006	2.30999994	0	200	0
-9.35299969	6.62619972	2.34299994	0	200	0
-9.29199982	6.62629986	2.32800007	0	200	0
-9.23499966	6.62639999	2.34500003	0	200	0
-9.28999996	6.62629986	2.3440001	0	200	0
-9.3579998	6.62619972	2.29500008	0	200	0
-9.31099987	6.62629986	2.31200004	0	200	0
-9.35999966	6.62619972	2.31100011	0	200	0
-9.35000038	6.62619972	2.3269999	0	200	0
-9.45699978	6.62599993	2.29200006	0	200	0
-9.40999985	6.62610006	2.29299998	0	200	0
-9.45100021	6.62599993	2.30900002	0	200	0
-9.44099998	6.62590075	2.31100011	0	200	0
-9.47200012	6.62590075	2.29399991	0	200	0
-9.1239996	6.62659979	2.56900001	0	200	0
-9.12300014	6.62659979	2.47399998	0	200	0
-9.09599972	6.62669992	2.50600004	0	200	0
-9.12199974	6.62659979	2.49000001	0	200	0
-9.09599972	6.62669992	2.56900001	0	200	0
-9.12699986	6.62659979	2.50600004	0	200	0
-9.12100029	6.62659979	2.53800011	0	200	0
-9.12300014	6.62659979	2.5539999	0	200	0
-9.23700047	6.62639999	2.31299996	0	200	0
-9.28999996	6.62629986	2.296	0	200	0
-9.23600006	6.62639999	2.329	0	200	0
-9.18900013	6.62650108	2.31399989	0	200	0
-9.22700024	6.62639999	2.29699993	0	200	0
-9.17500019	6.62650108	2.32999992	0	200	0
-9.18299961	6.62650108	2.34599996	0	200	0
-9.17800045	6.62650108	2.39400005	0	200	0
-9.1789999	6.62650108	2.37800002	0	200	0
-9.08100033	6.62669992	2.42700005	0	200	0
-9.12199974	6.62659979	2.33100009	0	200	0
-9.12800026	6.62659979	2.34699988	0	200	0
-9.12300014	6.62659979	2.37899995	0	200	0
-9.12300014	6.62659979	2.39499998	0	200	0
-9.12300014	6.62659979	2.41100001	0	200	0
-9.13199997	6.62659979	2.42600012	0	200	0
-9.09899998	6.62669992	2.47399998	0	200	0
-9.06999969	6.62669992	2.58500004	0	200	0
-9.06499958	6.62669992	2.61599994	0	200	0
-9.05500031	6.62669992	2.69499993	0	200	0
-9.07199955	6.62669992	2.63199997	0	200	0
-9.0710001	6.62669992	2.648	0	200	0
-9.06799984	6.62669992	2.66400003	0	200	0
-9.04599953	6.62669992	2.86800003	0	200	0
-9.00599957	6.62680006	2.71000004	0	200	0
-8.98499966	6.62680006	2.78699994	0	200	0
-9.0340004	6.62669992	2.852	0	200	0
-9.0170002	6.62680006	2.72600007	0	200	0
-9.00300026	6.62680006	2.77200007	0	200	0
-9.01399994	6.62680006	2.74099994	0	200	0
-9.02299976	6.62669992	2.81999993	0	200	0
-9.02400017	6.62669992	2.8039999	0	200	0
-9.00399971	6.62680006	2.66199994	0	200	0
-9.00500011	6.62680006	2.69400001	0	200	0
-9.06599998	6.62669992	2.53699994	0	200	0
-9.06700039	6.62669992	2.55299997	0	200	0
-9.45800018	6.62599993	2.24300003	0	200	0
-9.4090004	6.62610006	2.26099992	0	200	0
-9.43900013	6.62590075	2.26200008	0	200	0
-9.46399975	6.62599993	2.25900006	0	200	0
-9.40999985	6.62610006	2.24399996	0	200	0
-9.36600018	6.62619972	2.26200008	0	200	0
-9.43900013	6.62590075	2.24499989	0	200	0
-9.5369997	6.62580013	2.21099997	0	200	0
-9.5710001	6.62590075	2.20799994	0	200	0
-9.57499981	6.62590075	2.2249999	0	200	0
-9.55599976	6.62580013	2.227	0	200	0
-9.53999996	6.62580013	2.24399996	0	200	0
-9.56400013	6.62580013	2.25999999	0	200	0
-9.41600037	6.62610006	2.21099997	0	200	0
-9.45899963	6.62599993	2.227	0	200	0
-9.36499977	6.62619972	2.22900009	0	200	0
-9.35400009	6.62619972	2.24600005	0	200	0
-9.4090004	6.62610006	2.22799993	0	200	0
-9.29599953	6.62629986	2.23099995	0	200	0
-9.23200035	6.62639999	2.2650001	0	200	0
-9.28800011	6.62629986	2.24699998	0	200	0
-9.2869997	6.62629986	2.26399994	0	200	0
-9.17800045	6.62650108	2.26600003	0	200	0
-9.22999954	6.62639999	2.24900007	0	200	0
-9.17800045	6.62650108	2.2980001	0	200	0
-9.36600018	6.62619972	2.21300006	0	200	0
-9.29199982	6.62629986	2.21499991	0	200	0
-9.47599983	6.62599993	2.21000004	0	200	0
-9.06799984	6.62669992	2.49000001	0	200	0
-9.06900024	6.62669992	2.39499998	0	200	0
-9.06700039	6.62669992	2.41100001	0	200	0
-9.06499958	6.62669992	2.45799994	0	200	0
-9.01099968	6.62680006	2.45900011	0	200	0
-9.01500034	6.62680006	2.55299997	0	200	0
-9.00699997	6.62680006	2.49000001	0	200	0
-9.01500034	6.62680006	2.47399998	0	200	0
-9.01500034	6.62680006	2.53699994	0	200	0
-9.01399994	6.62680006	2.50600004	0	200	0
-9.02400017	6.62680006	2.61599994	0	200	0
-9.01200008	6.62680006	2.56800008	0	200	0
-9.01500034	6.62680006	2.58400011	0	200	0
-9.18099976	6.62650108	2.23399997	0	200	0
-9.23900032	6.62639999	2.21600008	0	200	0
-9.1789999	6.62650108	2.25	0	200	0
-9.23400021	6.62639999	2.23300004	0	200	0
-9.18099976	6.62650108	2.21799994	0	200	0
-9.11800003	6.62659979	2.25200009	0	200	0
-9.12199974	6.62659979	2.26799989	0	200	0
-9.11699963	6.62659979	2.31500006	0	200	0
-9.12300014	6.62659979	2.29900002	0	200	0
-9.06499958	6.62669992	2.33200002	0	200	0
-9.01299953	6.62680006	2.38000011	0	200	0
-9.07199955	6.62669992	2.34800005	0	200	0
-9.01299953	6.62680006	2.39599991	0	200	0
-9.00899982	6.62680006	2.41199994	0	200	0
-9.01000023	6.62680006	2.42700005	0	200	0
-9.06499958	6.62669992	2.37899995	0	200	0
-9.06799984	6.62669992	2.25300002	0	200	0
-9.125	6.62659979	2.23600006	0	200	0
-9.05900002	6.62669992	2.26900005	0	200	0
-9.06799984	6.62669992	2.29999995	0	200	0
-9.06499958	6.62669992	2.31599998	0	200	0
-9.00500011	6.62680006	2.64700007	0	200	0
-9.00599957	6.62680006	2.63100004	0	200	0
-8.94900036	6.62680006	2.84899998	0	200	0
-8.95100021	6.62680006	2.86400008	0	200	0
-8.94999981	6.6269002	2.78600001	0	200	0
-8.95699978	6.6269002	2.63000011	0	200	0
-8.94699955	6.6269002	2.64599991	0	200	0
-8.95600033	6.6269002	2.77099991	0	200	0
-8.94799995	6.6269002	2.66100001	0	200	0
-8.94299984	6.6269002	2.70799994	0	200	0
-8.94699955	6.6269002	2.69300008	0	200	0
-8.94900036	6.6269002	2.72399998	0	200	0
-8.96199989	6.6269002	2.74000001	0	200	0
-8.89000034	6.6269002	2.81500006	0	200	0
-8.89999962	6.6269002	2.79999995	0	200	0
-8.94499969	6.62680006	2.81699991	0	200	0
-8.93900013	6.62680006	2.80100012	0	200	0
-8.95300007	6.6269002	2.58400011	0	200	0
-8.94999981	6.6269002	2.61500001	0	200	0
-9.45699978	6.62590075	2.14599991	0	200	0
-9.4119997	6.62610006	2.16199994	0	200	0
-9.45800018	6.62599993	2.16100001	0	200	0
-9.41300011	6.62610006	2.1789999	0	200	0
-9.45699978	6.62599993	2.17700005	0	200	0
-9.3579998	6.62619972	2.18000007	0	200	0
-9.40600014	6.62610006	2.14599991	0	200	0
-9.36600018	6.62619972	2.16400003	0	200	0
-9.47599983	6.62599993	2.14299989	0	200	0
-9.56000042	6.62580013	2.12700009	0	200	0
-9.5909996	6.62590075	2.15799999	0	200	0
-9.56000042	6.62580013	2.14400005	0	200	0
-9.58600044	6.62590075	2.17499995	0	200	0
-9.56299973	6.62580013	2.16000009	0	200	0
-9.56200027	6.62580013	2.17700005	0	200	0
-9.36400032	6.62619972	2.13100004	0	200	0
-9.45699978	6.62599993	2.12800002	0	200	0
-9.4460001	6.62590075	2.13000011	0	200	0
-9.35700035	6.62619972	2.148	0	200	0
-9.41300011	6.62610006	2.12899995	0	200	0
-9.29399967	6.62629986	2.18199992	0	200	0
-9.31700039	6.62629986	2.16499996	0	200	0
-9.23799992	6.62639999	2.15199995	0	200	0
-9.28499985	6.62629986	2.13400006	0	200	0
-9.22999954	6.62639999	2.16799998	0	200	0
-9.29100037	6.62629986	2.1500001	0	200	0
-9.23600006	6.62639999	2.18400002	0	200	0
-9.1789999	6.62650108	2.18600011	0	200	0
-9.11699963	6.62659979	2.18799996	0	200	0
-9.18799973	6.62650108	2.17000008	0	200	0
-9.12800026	6.62659979	2.22000003	0	200	0
-9.23900032	6.62639999	2.13599992	0	200	0
-8.98099995	6.6269002	2.45900011	0	200	0
-9.0170002	6.62680006	2.31699991	0	200	0
-9.00800037	6.62680006	2.33299994	0	200	0
-9.00699997	6.62680006	2.34899998	0	200	0
-8.95199966	6.6269002	2.38100004	0	200	0
-8.95300007	6.6269002	2.53699994	0	200	0
-8.94799995	6.6269002	2.39599991	0	200	0
-8.95499992	6.6269002	2.50600004	0	200	0
-8.95600033	6.6269002	2.41199994	0	200	0
-8.94099998	6.6269002	2.47399998	0	200	0
-8.94999981	6.6269002	2.42799997	0	200	0
-8.95400047	6.6269002	2.49000001	0	200	0
-8.95499992	6.6269002	2.55200005	0	200	0
-8.95800018	6.6269002	2.56800008	0	200	0
-9.1239996	6.62659979	2.1559999	0	200	0
-9.18099976	6.62650108	2.13800001	0	200	0
-9.12100029	6.62659979	2.17199993	0	200	0
-9.18299961	6.62650108	2.15400004	0	200	0
-9.12699986	6.62659979	2.1400001	0	200	0
-9.06499958	6.62669992	2.17400002	0	200	0
-9.06299973	6.62669992	2.19000006	0	200	0
-9.06499958	6.62669992	2.22199988	0	200	0
-9.06499958	6.62669992	2.23699999	0	200	0
-9.00899982	6.62680006	2.25500011	0	200	0
-9.00800037	6.62680006	2.26999998	0	200	0
-9.01000023	6.62680006	2.30200005	0	200	0
-8.95600033	6.6269002	2.30299997	0	200	0
-8.95300007	6.6269002	2.31800008	0	200	0
-8.95499992	6.6269002	2.33400011	0	200	0
-8.95899963	6.6269002	2.3499999	0	200	0
-9.00899982	6.62680006	2.17600012	0	200	0
-9.06499958	6.62669992	2.15799999	0	200	0
-9.01000023	6.62680006	2.19199991	0	200	0
-9.00300026	6.62680006	2.22300005	0	200	0
-9.00399971	6.62680006	2.23900008	0	200	0
-8.96899986	6.6269002	2.27099991	0	200	0
-8.89000034	6.6269002	2.84599996	0	200	0
-8.90999985	6.6269002	2.86299992	0	200	0
-8.87899971	6.62700033	2.72199988	0	200	0
-8.87199974	6.62700033	2.76799989	0	200	0
-8.89599991	6.62700033	2.73799992	0	200	0
-8.88300037	6.62700033	2.56699991	0	200	0
-8.86200047	6.62700033	2.62899995	0	200	0
-8.89099979	6.62700033	2.69099998	0	200	0
-8.85700035	6.62700033	2.61299992	0	200	0
-8.85700035	6.62700033	2.66000009	0	200	0
-8.8579998	6.62700033	2.64400005	0	200	0
-8.85400009	6.62700033	2.70600009	0	200	0
-8.81099987	6.62709999	2.76600003	0	200	0
-8.82699966	6.62700033	2.87400007	0	200	0
-8.82800007	6.62709999	2.78200006	0	200	0
-8.84700012	6.62700033	2.78299999	0	200	0
-8.84799957	6.62700033	2.7980001	0	200	0
-8.86100006	6.62700033	2.55200005	0	200	0
-8.89999962	6.62700033	2.50500011	0	200	0
-8.87100029	6.62700033	2.53600001	0	200	0
-8.86299992	6.62700033	2.58299994	0	200	0
-9.40999985	6.62610006	2.06399989	0	200	0
-9.40200043	6.62610006	2.07999992	0	200	0
-9.44900036	6.62599993	2.06200004	0	200	0
-9.47399998	6.62599993	2.0769999	0	200	0
-9.4119997	6.62610006	2.09599996	0	200	0
-9.43799973	6.62590075	2.08100009	0	200	0
-9.44900036	6.62599993	2.09500003	0	200	0
-9.36699963	6.62619972	2.08200002	0	200	0
-9.37199974	6.62619972	2.09800005	0	200	0
-9.40799999	6.62610006	2.04699993	0	200	0
-9.35499954	6.62619972	2.06599998	0	200	0
-9.54899979	6.62580013	2.0940001	0	200	0
-9.54500008	6.62580013	2.04399991	0	200	0
-9.58899975	6.62590075	2.05699992	0	200	0
-9.56200027	6.62580013	2.05999994	0	200	0
-9.59700012	6.62590075	2.09100008	0	200	0
-9.5539999	6.62580013	2.0769999	0	200	0
-9.30099964	6.62629986	2.06900001	0	200	0
-9.29300022	6.62629986	2.08500004	0	200	0
-9.37199974	6.62619972	2.04900002	0	200	0
-9.28800011	6.62629986	2.102	0	200	0
-9.43500042	6.62590075	2.0480001	0	200	0
-9.45499992	6.62599993	2.04500008	0	200	0
-9.23400021	6.62639999	2.10400009	0	200	0
-9.23600006	6.62639999	2.05500007	0	200	0
-9.19200039	6.62650108	2.07399988	0	200	0
-9.17700005	6.62650108	2.08999991	0	200	0
-9.23799992	6.62639999	2.0710001	0	200	0
-9.18599987	6.62650108	2.10599995	0	200	0
-9.23499966	6.62639999	2.08800006	0	200	0
-9.29599953	6.62629986	2.05299997	0	200	0
-9.11999989	6.62659979	2.10899997	0	200	0
-9.125	6.62659979	2.09200001	0	200	0
-9.06299973	6.62669992	2.11100006	0	200	0
-9.07199955	6.62669992	2.14199996	0	200	0
-9.18000031	6.62650108	2.05800009	0	200	0
-8.89000034	6.62700033	2.45900011	0	200	0
-8.95499992	6.6269002	2.24000001	0	200	0
-8.95300007	6.6269002	2.25600004	0	200	0
-8.8579998	6.62700033	2.41300011	0	200	0
-8.89000034	6.62700033	2.3039999	0	200	0
-8.86299992	6.62700033	2.35100007	0	200	0
-8.85999966	6.62700033	2.39700007	0	200	0
-8.85900021	6.62700033	2.38199997	0	200	0
-8.88599968	6.62700033	2.42799997	0	200	0
-8.89799976	6.62700033	2.33500004	0	200	0
-8.86200047	6.62700033	2.47399998	0	200	0
-8.86400032	6.62700033	2.49000001	0	200	0
-9.06700039	6.62669992	2.079	0	200	0
-9.12100029	6.62659979	2.06100011	0	200	0
-9.06299973	6.62669992	2.09500003	0	200	0
-9.11900043	6.62659979	2.0769999	0	200	0
-9.06799984	6.62669992	2.06299996	0	200	0
-9.0010004	6.62680006	2.09800005	0	200	0
-9.00899982	6.62680006	2.11299992	0	200	0
-9.00800037	6.62680006	2.14499998	0	200	0
-9.00800037	6.62680006	2.16000009	0	200	0
-8.95199966	6.6269002	2.17799997	0	200	0
-8.95600033	6.6269002	2.19400001	0	200	0
-8.96000004	6.6269002	2.2249999	0	200	0
-8.86299992	6.62700033	2.27399993	0	200	0
-8.89999962	6.62700033	2.22600007	0	200	0
-8.86600018	6.62700033	2.31999993	0	200	0
-9.01000023	6.62680006	2.08200002	0	200	0
-8.96800041	6.6269002	2.09899998	0	200	0
-8.95800018	6.6269002	2.11500001	0	200	0
-8.95300007	6.6269002	2.14700007	0	200	0
-8.95800018	6.6269002	2.16199994	0	200	0
-8.79800034	6.62700033	2.85800004	0	200	0
-8.79399967	6.62709999	2.68899989	0	200	0
-8.78999996	6.62709999	2.704	0	200	0
-8.79699993	6.62709999	2.72000003	0	200	0
-8.8210001	6.62709999	2.73600006	0	200	0
-8.79599953	6.62709999	2.61199999	0	200	0
-8.81000042	6.62709999	2.50500011	0	200	0
-8.78999996	6.62709999	2.58200002	0	200	0
-8.79199982	6.62709999	2.56599998	0	200	0
-8.79800034	6.62709999	2.55100012	0	200	0
-8.80799961	6.62709999	2.53600001	0	200	0
-8.79399967	6.62709999	2.65799999	0	200	0
-8.79300022	6.62709999	2.64299989	0	200	0
-8.80099964	6.62709999	2.62800002	0	200	0
-8.72099972	6.62729979	2.79399991	0	200	0
-8.72599983	6.62709999	2.79399991	0	200	0
-8.73900032	6.62719965	2.71799994	0	200	0
-8.77299976	6.62700033	2.84100008	0	200	0
-8.73799992	6.62719965	2.79399991	0	200	0
-8.74199963	6.62719965	2.76399994	0	200	0
-8.74699974	6.62719965	2.77900004	0	200	0
-8.76399994	6.62709999	2.81100011	0	200	0
-8.75599957	6.62719965	2.73399997	0	200	0
-8.77299976	6.62700033	2.81100011	0	200	0
-8.74300003	6.62709999	2.85599995	0	200	0
-8.75599957	6.62709999	2.87100005	0	200	0
-8.80099964	6.62709999	2.4749999	0	200	0
-8.79500008	6.62709999	2.49000001	0	200	0
-8.8380003	6.62709999	2.42799997	0	200	0
-9.40799999	6.62610006	1.96500003	0	200	0
-9.46000004	6.62590075	1.98099995	0	200	0
-9.35200024	6.62619972	1.98500001	0	200	0
-9.46100044	6.62599993	1.995	0	200	0
-9.41800022	6.62610006	1.98099995	0	200	0
-9.36400032	6.62619972	2	0	200	0
-9.36200047	6.62619972	2.01699996	0	200	0
-9.4090004	6.62610006	1.99800003	0	200	0
-9.4119997	6.62610006	2.01399994	0	200	0
-9.45400047	6.62599993	1.96300006	0	200	0
-9.47000027	6.62599993	1.97800004	0	200	0
-9.29500008	6.62629986	2.01999998	0	200	0
-9.3579998	6.62619972	1.96800005	0	200	0
-9.30300045	6.62629986	1.98699999	0	200	0
-9.29500008	6.62629986	2.00399995	0	200	0
-9.58399963	6.62590075	2.00699997	0	200	0
-9.56299973	6.62580013	2.00999999	0	200	0
-9.58699989	6.62590075	1.95700002	0	200	0
-9.56200027	6.62580013	1.96000004	0	200	0
-9.56200027	6.62580013	1.977	0	200	0
-9.56099987	6.62580013	1.99399996	0	200	0
-9.29500008	6.62629986	1.972	0	200	0
-9.24600029	6.62639999	1.99000001	0	200	0
-9.23799992	6.62639999	2.00699997	0	200	0
-9.23999977	6.62639999	2.023	0	200	0
-9.17800045	6.62650108	2.02600002	0	200	0
-9.18200016	6.62650108	1.97800004	0	200	0
-9.18000031	6.62650108	1.99399996	0	200	0
-9.24800014	6.62639999	1.97399998	0	200	0
-9.18400002	6.62650108	2.00999999	0	200	0
-9.11900043	6.62659979	2.01300001	0	200	0
-9.14000034	6.62659979	1.99600005	0	200	0
-9.12199974	6.62659979	2.02900004	0	200	0
-9.06200027	6.62669992	2.03200006	0	200	0
-9.0710001	6.62669992	2.01600003	0	200	0
-9.00800037	6.62680006	2.03500009	0	200	0
-9.00899982	6.62680006	2.06599998	0	200	0
-9.1239996	6.62659979	1.98099995	0	200	0
-8.87199974	6.62700033	2.1960001	0	200	0
-8.86600018	6.62700033	2.2579999	0	200	0
-8.87199974	6.62700033	2.24300003	0	200	0
-8.80000019	6.62709999	2.33699989	0	200	0
-8.78100014	6.62719965	2.45900011	0	200	0
-8.80500031	6.62709999	2.352	0	200	0
-8.79899979	6.62709999	2.398	0	200	0
-8.80099964	6.62709999	2.41300011	0	200	0
-8.81099987	6.62709999	2.3829999	0	200	0
-8.81099987	6.62709999	2.24399996	0	200	0
-8.80099964	6.62709999	2.2750001	0	200	0
-8.81000042	6.62709999	2.25999999	0	200	0
-8.80500031	6.62709999	2.3210001	0	200	0
-8.80700016	6.62709999	2.30599999	0	200	0
-9.00800037	6.62680006	2.00300002	0	200	0
-9.06700039	6.62669992	1.98399997	0	200	0
-9.00899982	6.62680006	2.01900005	0	200	0
-9.06200027	6.62669992	2	0	200	0
-9.02900028	6.62680006	1.98599994	0	200	0
-8.97299957	6.6269002	2.00500011	0	200	0
-8.95499992	6.6269002	2.02200007	0	200	0
-8.95499992	6.6269002	2.03699994	0	200	0
-8.95199966	6.6269002	2.08400011	0	200	0
-8.96500015	6.6269002	2.06800008	0	200	0
-8.8739996	6.62700033	2.11899996	0	200	0
-8.86499977	6.62700033	2.1500001	0	200	0
-8.86699963	6.62700033	2.18099999	0	200	0
-8.86800003	6.62700033	2.16499996	0	200	0
-8.81400013	6.62709999	2.19799995	0	200	0
-8.81400013	6.62709999	2.22900009	0	200	0
-8.8210001	6.62709999	2.16700006	0	200	0
-8.81900024	6.62709999	2.18300009	0	200	0
-8.87699986	6.62700033	2.07200003	0	200	0
-8.87899971	6.62700033	2.08800006	0	200	0
-8.86800003	6.62700033	2.10400009	0	200	0
-8.70199966	6.62719965	2.85400009	0	200	0
-8.71199989	6.62729979	2.86899996	0	200	0
-8.71800041	6.62709999	2.83899999	0	200	0
-8.74100018	6.62719965	2.61199999	0	200	0
-8.74100018	6.62719965	2.62700009	0	200	0
-8.73999977	6.62719965	2.64199996	0	200	0
-8.7329998	6.62719965	2.70300007	0	200	0
-8.74199963	6.62719965	2.65700006	0	200	0
-8.74199963	6.62719965	2.68799996	0	200	0
-8.73799992	6.62719965	2.53600001	0	200	0
-8.71199989	6.62729979	2.61100006	0	200	0
-8.73999977	6.62719965	2.55100012	0	200	0
-8.74400043	6.62719965	2.56599998	0	200	0
-8.7489996	6.62719965	2.58100009	0	200	0
-8.71399975	6.62729979	2.49000001	0	200	0
-8.74100018	6.62719965	2.49000001	0	200	0
-8.74800014	6.62719965	2.4749999	0	200	0
-8.74800014	6.62719965	2.50500011	0	200	0
-8.6960001	6.62729979	2.6559999	0	200	0
-8.69200039	6.62729979	2.7019999	0	200	0
-8.63700008	6.62739992	2.76099992	0	200	0
-8.63399982	6.62739992	2.77600002	0	200	0
-8.68799973	6.62729979	2.71700001	0	200	0
-8.68799973	6.62729979	2.73200011	0	200	0
-8.67000008	6.62719965	2.83699989	0	200	0
-8.65600014	6.62739992	2.79099989	0	200	0
-8.68400002	6.62729979	2.77699995	0	200	0
-8.69900036	6.62729979	2.76300001	0	200	0
-8.70100021	6.62719965	2.80800009	0	200	0
-8.67000008	6.62739992	2.6559999	0	200	0
-8.68700027	6.62729979	2.64100003	0	200	0
-8.68599987	6.62729979	2.68700004	0	200	0
-8.74400043	6.62719965	2.39899993	0	200	0
-8.72299957	6.62729979	2.4289999	0	200	0
-8.74800014	6.62719965	2.41400003	0	200	0
-9.45800018	6.62599993	1.88	0	200	0
-9.3579998	6.62619972	1.88600004	0	200	0
-9.46100044	6.62599993	1.89600003	0	200	0
-9.45899963	6.62590075	1.898	0	200	0
-9.40499973	6.62610006	1.88300002	0	200	0
-9.35700035	6.62619972	1.903	0	200	0
-9.35200024	6.62619972	1.91900003	0	200	0
-9.45100021	6.62599993	1.91299999	0	200	0
-9.41399956	6.62610006	1.89900005	0	200	0
-9.46100044	6.62599993	1.92900002	0	200	0
-9.43099976	6.62610006	1.91499996	0	200	0
-9.36699963	6.62619972	1.93499994	0	200	0
-9.41600037	6.62610006	1.93200004	0	200	0
-9.29599953	6.62629986	1.90699995	0	200	0
-9.3039999	6.62629986	1.92200005	0	200	0
-9.29599953	6.62629986	1.93900001	0	200	0
-9.24600029	6.62639999	1.94200003	0	200	0
-9.29699993	6.62629986	1.88999999	0	200	0
-9.24499989	6.62639999	1.90999997	0	200	0
-9.24199963	6.62639999	1.926	0	200	0
-9.55799961	6.62580013	1.92700005	0	200	0
-9.58399963	6.62590075	1.92400002	0	200	0
-9.56099987	6.62580013	1.87699997	0	200	0
-9.58300018	6.62590075	1.87399995	0	200	0
-9.54800034	6.62580013	1.89400005	0	200	0
-9.55700016	6.62580013	1.90999997	0	200	0
-9.58199978	6.62590075	1.90699995	0	200	0
-9.20600033	6.62650108	1.94400001	0	200	0
-9.24499989	6.62639999	1.89400005	0	200	0
-9.18500042	6.62650108	1.91299999	0	200	0
-9.18700027	6.62650108	1.92900002	0	200	0
-9.12899971	6.62659979	1.949	0	200	0
-9.12699986	6.62659979	1.90100002	0	200	0
-9.19499969	6.62650108	1.89699996	0	200	0
-9.13099957	6.62659979	1.91700006	0	200	0
-9.12800026	6.62659979	1.93299997	0	200	0
-9.06799984	6.62669992	1.93700004	0	200	0
-9.06999969	6.62669992	1.95200002	0	200	0
-9.00800037	6.62680006	1.95599997	0	200	0
-9.07400036	6.62669992	1.91999996	0	200	0
-9.01399994	6.62680006	1.94000006	0	200	0
-8.95100021	6.6269002	1.95899999	0	200	0
-8.95699978	6.6269002	1.99000001	0	200	0
-9.07199955	6.62669992	1.90499997	0	200	0
-8.81599998	6.62709999	2.12100005	0	200	0
-8.82400036	6.62709999	2.15199995	0	200	0
-8.72399998	6.62729979	2.38400006	0	200	0
-8.75300026	6.62719965	2.26099992	0	200	0
-8.75	6.62719965	2.27699995	0	200	0
-8.74600029	6.62719965	2.3829999	0	200	0
-8.74699974	6.62719965	2.35299993	0	200	0
-8.75399971	6.62719965	2.30699992	0	200	0
-8.75300026	6.62719965	2.33699989	0	200	0
-8.75699997	6.62719965	2.32200003	0	200	0
-8.69999981	6.62729979	2.41400003	0	200	0
-8.69200039	6.62729979	2.4749999	0	200	0
-8.76200008	6.62719965	2.16899991	0	200	0
-8.72700024	6.62729979	2.26200008	0	200	0
-8.76000023	6.62719965	2.18499994	0	200	0
-8.75699997	6.62719965	2.20000005	0	200	0
-8.75	6.62719965	2.24600005	0	200	0
-8.75599957	6.62719965	2.23099995	0	200	0
-9.02099991	6.62680006	1.90799999	0	200	0
-8.96000004	6.6269002	1.92700005	0	200	0
-8.95199966	6.6269002	1.94400001	0	200	0
-9.02200031	6.62680006	1.92400002	0	200	0
-8.8760004	6.62700033	2.00999999	0	200	0
-8.88000011	6.62700033	1.995	0	200	0
-8.96000004	6.6269002	1.91199994	0	200	0
-8.87699986	6.62700033	1.96399999	0	200	0
-8.86999989	6.62700033	2.04200006	0	200	0
-8.86999989	6.62700033	2.02600002	0	200	0
-8.78600025	6.62719965	2.09200001	0	200	0
-8.81900024	6.62709999	2.04399991	0	200	0
-8.81400013	6.62709999	2.07500005	0	200	0
-8.81499958	6.62709999	2.09100008	0	200	0
-8.81900024	6.62709999	2.10599995	0	200	0
-8.71899986	6.62729979	2.20099998	0	200	0
-8.75800037	6.62719965	2.12400007	0	200	0
-8.72999954	6.62729979	2.17000008	0	200	0
-8.76099968	6.62719965	2.15400004	0	200	0
-8.76000023	6.62719965	2.10800004	0	200	0
-8.81700039	6.62709999	1.99800003	0	200	0
-8.81900024	6.62709999	2.01300001	0	200	0
-8.82299995	6.62709999	2.02900004	0	200	0
-8.6079998	6.62729979	2.8499999	0	200	0
-8.61800003	6.62729979	2.83500004	0	200	0
-8.68599987	6.62729979	2.53500009	0	200	0
-8.65600014	6.62739992	2.6099999	0	200	0
-8.69499969	6.62729979	2.54999995	0	200	0
-8.68900013	6.62729979	2.56599998	0	200	0
-8.68999958	6.62729979	2.58100009	0	200	0
-8.69200039	6.62729979	2.62599993	0	200	0
-8.63799953	6.62739992	2.68499994	0	200	0
-8.65499973	6.62739992	2.49000001	0	200	0
-8.68799973	6.62729979	2.50500011	0	200	0
-8.64099979	6.62739992	2.54999995	0	200	0
-8.63700008	6.62739992	2.56500006	0	200	0
-8.63599968	6.62739992	2.6400001	0	200	0
-8.63700008	6.62739992	2.625	0	200	0
-8.64599991	6.62739992	2.57999992	0	200	0
-8.63000011	6.62739992	2.53500009	0	200	0
-8.69299984	6.62729979	2.39899993	0	200	0
-8.63700008	6.62750006	2.46000004	0	200	0
-8.63899994	6.62739992	2.46000004	0	200	0
-8.63700008	6.62739992	2.4749999	0	200	0
-8.67000008	6.62739992	2.4289999	0	200	0
-8.64299965	6.62739992	2.50500011	0	200	0
-8.63500023	6.62739992	2.73099995	0	200	0
-8.63300037	6.62739992	2.71499991	0	200	0
-8.63500023	6.62739992	2.70000005	0	200	0
-8.57199955	6.62739992	2.83299994	0	200	0
-8.6079998	6.62739992	2.80500007	0	200	0
-8.61100006	6.62729979	2.80500007	0	200	0
-8.68900013	6.62729979	2.32299995	0	200	0
-8.66800022	6.62739992	2.38400006	0	200	0
-8.6960001	6.62729979	2.33800006	0	200	0
-8.69099998	6.62729979	2.35400009	0	200	0
-8.63500023	6.62739992	2.4000001	0	200	0
-8.64099979	6.62739992	2.41499996	0	200	0
-9.40200043	6.62610006	1.801	0	200	0
-9.54500008	6.62580013	1.84399998	0	200	0
-9.39999962	6.62610006	1.81799996	0	200	0
-9.43799973	6.62599993	1.79900002	0	200	0
-9.46500015	6.62590075	1.79799998	0	200	0
-9.38700008	6.62619972	1.852	0	200	0
-9.40499973	6.62610006	1.83399999	0	200	0
-9.44799995	6.62599993	1.81400001	0	200	0
-9.47000027	6.62599993	1.829	0	200	0
-9.42000008	6.62610006	1.84899998	0	200	0
-9.45800018	6.62590075	1.83200002	0	200	0
-9.45800018	6.62599993	1.847	0	200	0
-9.30200005	6.62629986	1.80799997	0	200	0
-9.30000019	6.62629986	1.82500005	0	200	0
-9.30099964	6.62629986	1.84099996	0	200	0
-9.36299992	6.62619972	1.82000005	0	200	0
-9.30099964	6.62629986	1.85699999	0	200	0
-9.35400009	6.62619972	1.83700001	0	200	0
-9.25199986	6.62639999	1.82799995	0	200	0
-9.2510004	6.62639999	1.84500003	0	200	0
-9.24800014	6.62639999	1.86099994	0	200	0
-9.18799973	6.62650108	1.86500001	0	200	0
-9.25199986	6.62639999	1.81200004	0	200	0
-9.1960001	6.62650108	1.83200002	0	200	0
-9.18700027	6.62650108	1.84899998	0	200	0
-9.57999992	6.62590075	1.84000003	0	200	0
-9.55599976	6.62580013	1.79299998	0	200	0
-9.59200001	6.62590075	1.80599999	0	200	0
-9.55900002	6.62580013	1.80999994	0	200	0
-9.55900002	6.62580013	1.82700002	0	200	0
-9.14700031	6.62659979	1.86800003	0	200	0
-9.18799973	6.62650108	1.81700003	0	200	0
-9.13500023	6.62659979	1.83700001	0	200	0
-9.12800026	6.62659979	1.85300004	0	200	0
-9.06900024	6.62669992	1.87300003	0	200	0
-9.07600021	6.62669992	1.82500005	0	200	0
-9.13700008	6.62659979	1.82099998	0	200	0
-9.07600021	6.62669992	1.84099996	0	200	0
-9.07699966	6.62669992	1.85699999	0	200	0
-9.02099991	6.62680006	1.86099994	0	200	0
-9.01799965	6.62680006	1.87699997	0	200	0
-8.98099995	6.6269002	1.86300004	0	200	0
-8.9659996	6.6269002	1.88	0	200	0
-9.02299976	6.62680006	1.84500003	0	200	0
-8.86999989	6.62700033	1.91799998	0	200	0
-8.90699959	6.62700033	1.88399994	0	200	0
-8.87699986	6.62700033	1.93299997	0	200	0
-8.8760004	6.62700033	1.94799995	0	200	0
-9.02000046	6.62680006	1.829	0	200	0
-8.72599983	6.62729979	2.09500003	0	200	0
-8.76599979	6.62719965	2.04699993	0	200	0
-8.75899982	6.62719965	2.07800007	0	200	0
-8.63799953	6.62739992	2.33899999	0	200	0
-8.63500023	6.62739992	2.35500002	0	200	0
-8.69099998	6.62729979	2.30800009	0	200	0
-8.65699959	6.62739992	2.26399994	0	200	0
-8.69999981	6.62729979	2.18700004	0	200	0
-8.69799995	6.62729979	2.23200011	0	200	0
-8.69400024	6.62729979	2.24799991	0	200	0
-8.69699955	6.62729979	2.27800012	0	200	0
-8.70699978	6.62729979	2.11100006	0	200	0
-8.69499969	6.62729979	2.12599993	0	200	0
-8.69699955	6.62729979	2.15700006	0	200	0
-8.6420002	6.62739992	2.30900002	0	200	0
-8.63700008	6.62739992	2.23399997	0	200	0
-8.63500023	6.62739992	2.27900004	0	200	0
-8.63799953	6.62739992	2.24900007	0	200	0
-8.99300003	6.6269002	1.83099997	0	200	0
-8.96800041	6.6269002	1.84899998	0	200	0
-8.9090004	6.62700033	1.85300004	0	200	0
-8.90799999	6.62700033	1.86800003	0	200	0
-8.78999996	6.62719965	1.96899998	0	200	0
-8.82699966	6.62709999	1.93599999	0	200	0
-8.83399963	6.62709999	1.95099998	0	200	0
-8.8210001	6.62709999	1.96700001	0	200	0
-8.82600021	6.62709999	1.91999996	0	200	0
-8.91699982	6.62700033	1.83700001	0	200	0
-8.82499981	6.62709999	1.88999999	0	200	0
-8.76900005	6.62719965	2.00099993	0	200	0
-8.70199966	6.62729979	2.07999992	0	200	0
-8.72900009	6.62729979	2.03299999	0	200	0
-8.76299953	6.62719965	2.01600003	0	200	0
-8.76299953	6.62719965	2.03200006	0	200	0
-8.63599968	6.62739992	2.15899992	0	200	0
-8.63199997	6.62739992	2.18899989	0	200	0
-8.63700008	6.62739992	2.17400002	0	200	0
-8.64000034	6.62739992	2.204	0	200	0
-8.69400024	6.62729979	2.04999995	0	200	0
-8.73200035	6.62729979	1.972	0	200	0
-8.77000046	6.62719965	1.92400002	0	200	0
-8.76000023	6.62719965	1.94000006	0	200	0
-8.77600002	6.62719965	1.954	0	200	0
-8.53100014	6.62760019	2.87599993	0	200	0
-8.53100014	6.62760019	2.84699988	0	200	0
-8.55500031	6.62750006	2.87700009	0	200	0
-8.54699993	6.62739992	2.84699988	0	200	0
-8.63099957	6.62739992	2.32500005	0	200	0
-8.49800014	6.62750006	2.77099991	0	200	0
-8.48200035	6.62760019	2.85899997	0	200	0
-8.50199986	6.62760019	2.77099991	0	200	0
-8.49800014	6.62760019	2.80100012	0	200	0
-8.49699974	6.62750006	2.8599999	0	200	0
-8.49499989	6.62750006	2.82999992	0	200	0
-8.50300026	6.62750006	2.80100012	0	200	0
-8.49699974	6.62750006	2.84500003	0	200	0
-8.59399986	6.62750006	2.33999991	0	200	0
-8.59399986	6.62750006	2.30999994	0	200	0
-9.30799961	6.62629986	1.77499998	0	200	0
-9.34500027	6.62619972	1.72300005	0	200	0
-9.43500042	6.62599993	1.71599996	0	200	0
-9.45199966	6.62599993	1.73099995	0	200	0
-9.42000008	6.62610006	1.71700001	0	200	0
-9.45600033	6.62590075	1.74899995	0	200	0
-9.36200047	6.62619972	1.73800004	0	200	0
-9.44999981	6.62599993	1.74800003	0	200	0
-9.45899963	6.62599993	1.76400006	0	200	0
-9.35400009	6.62619972	1.755	0	200	0
-9.40299988	6.62610006	1.73500001	0	200	0
-9.40400028	6.62610006	1.75199997	0	200	0
-9.39799976	6.62610006	1.76900005	0	200	0
-9.58199978	6.62590075	1.75600004	0	200	0
-9.56299973	6.62580013	1.75899994	0	200	0
-9.27600002	6.62639999	1.72899997	0	200	0
-9.31799984	6.62629986	1.72599995	0	200	0
-9.25300026	6.62639999	1.74699998	0	200	0
-9.25	6.62639999	1.76400006	0	200	0
-9.31200027	6.62629986	1.74199998	0	200	0
-9.25199986	6.62639999	1.77999997	0	200	0
-9.30799961	6.62629986	1.75899994	0	200	0
-9.19499969	6.62650108	1.75199997	0	200	0
-9.19099998	6.62650108	1.76800001	0	200	0
-9.19499969	6.62650108	1.78400004	0	200	0
-9.1260004	6.62659979	1.78900003	0	200	0
-9.13099957	6.62659979	1.75699997	0	200	0
-9.12800026	6.62659979	1.773	0	200	0
-9.55900002	6.62580013	1.70899999	0	200	0
-9.58600044	6.62590075	1.722	0	200	0
-9.55799961	6.62580013	1.72599995	0	200	0
-9.55000019	6.62580013	1.74399996	0	200	0
-9.13599968	6.62659979	1.74100006	0	200	0
-9.07699966	6.62669992	1.76100004	0	200	0
-9.06999969	6.62669992	1.778	0	200	0
-9.06900024	6.62669992	1.79400003	0	200	0
-9.02299976	6.62680006	1.79700005	0	200	0
-9.0170002	6.62680006	1.75	0	200	0
-9.01900005	6.62680006	1.76600003	0	200	0
-9.0710001	6.62669992	1.74600005	0	200	0
-9.02200031	6.62680006	1.78199995	0	200	0
-8.96700001	6.6269002	1.78600001	0	200	0
-8.95899963	6.6269002	1.80200005	0	200	0
-8.9829998	6.6269002	1.76900005	0	200	0
-8.9119997	6.62700033	1.80599999	0	200	0
-8.79800034	6.62719965	1.86099994	0	200	0
-8.78800011	6.62719965	1.89199996	0	200	0
-8.82900047	6.62709999	1.84300005	0	200	0
-8.81599998	6.62709999	1.85899997	0	200	0
-8.82600021	6.62709999	1.87399995	0	200	0
-8.9119997	6.62700033	1.78999996	0	200	0
-8.96800041	6.6269002	1.75399995	0	200	0
-8.63399982	6.62739992	2.12899995	0	200	0
-8.63500023	6.62739992	2.11400008	0	200	0
-8.70100021	6.62729979	2.00500011	0	200	0
-8.63599968	6.62739992	2.08400011	0	200	0
-8.63599968	6.62739992	2.09899998	0	200	0
-8.70400047	6.62729979	2.01999998	0	200	0
-8.60099983	6.62750006	2.2349999	0	200	0
-8.63500023	6.62739992	2.05299997	0	200	0
-8.9090004	6.62700033	1.77499998	0	200	0
-8.8210001	6.62709999	1.81299996	0	200	0
-8.9119997	6.62700033	1.75899994	0	200	0
-8.85999966	6.62709999	1.77900004	0	200	0
-8.76500034	6.62719965	1.87800002	0	200	0
-8.69799995	6.62729979	1.95899999	0	200	0
-8.70100021	6.62729979	1.94400001	0	200	0
-8.70800018	6.62729979	1.92799997	0	200	0
-8.76200008	6.62719965	1.84800005	0	200	0
-8.82400036	6.62709999	1.79700005	0	200	0
-8.76900005	6.62719965	1.81700003	0	200	0
-8.63799953	6.62739992	2.0079999	0	200	0
-8.63700008	6.62739992	2.023	0	200	0
-8.63899994	6.62739992	2.03800011	0	200	0
-8.59500027	6.62750006	2.11500001	0	200	0
-8.60099983	6.62750006	2.0250001	0	200	0
-8.63500023	6.62739992	1.97800004	0	200	0
-8.64099979	6.62739992	1.94700003	0	200	0
-8.63899994	6.62739992	1.96300006	0	200	0
-8.70199966	6.62729979	1.88300002	0	200	0
-8.70400047	6.62729979	1.898	0	200	0
-8.70199966	6.62729979	1.852	0	200	0
-8.70699978	6.62729979	1.86699998	0	200	0
-8.47399998	6.62760019	2.829	0	200	0
-8.49100018	6.62760019	2.75600004	0	200	0
-8.49400043	6.62750006	2.75600004	0	200	0
-8.47799969	6.62750006	2.78500009	0	200	0
-8.47799969	6.62760019	2.78500009	0	200	0
-8.50199986	6.62760019	2.68199992	0	200	0
-8.48900032	6.62750006	2.68199992	0	200	0
-8.41399956	6.62770033	2.78299999	0	200	0
-8.48999977	6.62760019	2.69700003	0	200	0
-8.50199986	6.62750006	2.69700003	0	200	0
-8.47200012	6.62760019	2.71099997	0	200	0
-8.47999954	6.62750006	2.71099997	0	200	0
-8.48499966	6.62760019	2.72600007	0	200	0
-8.5	6.62750006	2.727	0	200	0
-8.40299988	6.62770033	2.9000001	0	200	0
-8.39400005	6.62770033	2.86999989	0	200	0
-8.41699982	6.62770033	2.91499996	0	200	0
-8.40799999	6.62770033	2.8269999	0	200	0
-8.4119997	6.62770033	2.84200001	0	200	0
-8.43000031	6.62770033	2.85700011	0	200	0
-8.49699974	6.62760019	2.34200001	0	200	0
-8.50199986	6.62750006	2.3269999	0	200	0
-8.50599957	6.62760019	2.31200004	0	200	0
-8.49800014	6.62750006	2.28299999	0	200	0
-9.32699966	6.62629986	1.69200003	0	200	0
-9.27900028	6.62639999	1.69599998	0	200	0
-9.41100025	6.62599993	1.65199995	0	200	0
-9.40400028	6.62610006	1.653	0	200	0
-9.42500019	6.62599993	1.68400002	0	200	0
-9.39299965	6.62599993	1.66999996	0	200	0
-9.56200027	6.62580013	1.65900004	0	200	0
-9.55300045	6.62580013	1.676	0	200	0
-9.23400021	6.62629986	1.66799998	0	200	0
-9.22399998	6.62650108	1.70099998	0	200	0
-9.24199963	6.62639999	1.68299997	0	200	0
-9.13399982	6.62659979	1.70899999	0	200	0
-9.1590004	6.62659979	1.69000006	0	200	0
-9.10599995	6.62669992	1.69500005	0	200	0
-9.10499954	6.62669992	1.71099997	0	200	0
-9.125	6.62659979	1.67700005	0	200	0
-9.55700016	6.62580013	1.64300001	0	200	0
-9.02999973	6.62669992	1.68599999	0	200	0
-9.0170002	6.62680006	1.71899998	0	200	0
-8.99600029	6.6269002	1.70500004	0	200	0
-8.96899986	6.6269002	1.72300005	0	200	0
-8.94200039	6.62700033	1.70899999	0	200	0
-8.90999985	6.62700033	1.72800004	0	200	0
-8.83300018	6.62709999	1.76499999	0	200	0
-8.76799965	6.62719965	1.77100003	0	200	0
-8.77099991	6.62719965	1.78600001	0	200	0
-8.77099991	6.62719965	1.801	0	200	0
-8.89099979	6.62709999	1.69799995	0	200	0
-8.63799953	6.62739992	1.93299997	0	200	0
-8.83699989	6.62709999	1.71899998	0	200	0
-8.82900047	6.62709999	1.73500001	0	200	0
-8.77000046	6.62719965	1.74000001	0	200	0
-8.70800018	6.62729979	1.80599999	0	200	0
-8.69699955	6.62729979	1.82200003	0	200	0
-8.63899994	6.62739992	1.88699996	0	200	0
-8.63399982	6.62739992	1.903	0	200	0
-8.63899994	6.62739992	1.87199998	0	200	0
-8.70400047	6.62729979	1.77600002	0	200	0
-8.70100021	6.62729979	1.79100001	0	200	0
-8.76399994	6.62719965	1.72500002	0	200	0
-8.70499992	6.62729979	1.745	0	200	0
-8.49800014	6.62750006	2.13400006	0	200	0
-8.50300026	6.62750006	2.10500002	0	200	0
-8.51599979	6.62750006	2.08899999	0	200	0
-8.60299969	6.62750006	1.88999999	0	200	0
-8.63300037	6.62739992	1.85699999	0	200	0
-8.63500023	6.62739992	1.81200004	0	200	0
-8.63500023	6.62739992	1.82700002	0	200	0
-8.63000011	6.62739992	1.79700005	0	200	0
-8.39999962	6.62770033	2.76799989	0	200	0
-8.39599991	6.62770033	2.79699993	0	200	0
-8.39099979	6.62770033	2.75300002	0	200	0
-8.46500015	6.62760019	2.60800004	0	200	0
-8.49300003	6.62750006	2.60800004	0	200	0
-8.47000027	6.62760019	2.62299991	0	200	0
-8.48099995	6.62750006	2.62299991	0	200	0
-8.49100018	6.62760019	2.63800001	0	200	0
-8.5010004	6.62750006	2.63800001	0	200	0
-8.49400043	6.62750006	2.65300012	0	200	0
-8.5	6.62760019	2.65300012	0	200	0
-8.40299988	6.62770033	2.69499993	0	200	0
-8.37800026	6.62770033	2.70900011	0	200	0
-8.39000034	6.62770033	2.72399998	0	200	0
-8.39400005	6.62770033	2.65100002	0	200	0
-8.38700008	6.62770033	2.68000007	0	200	0
-8.39999962	6.62770033	2.98799992	0	200	0
-8.39700031	6.62770033	2.97300005	0	200	0
-8.41699982	6.62770033	2.94499993	0	200	0
-8.38899994	6.62770033	2.92799997	0	200	0
-8.39599991	6.62770033	3.00200009	0	200	0
-8.42000008	6.62770033	2.38700008	0	200	0
-8.5010004	6.62750006	2.25300002	0	200	0
-8.5	6.62750006	2.43099999	0	200	0
-8.49100018	6.62760019	2.25300002	0	200	0
-8.49400043	6.62760019	2.43099999	0	200	0
-8.41300011	6.62770033	2.34299994	0	200	0
-8.42099953	6.62770033	2.35800004	0	200	0
-8.47500038	6.62760019	2.26799989	0	200	0
-8.48700047	6.62750006	2.41599989	0	200	0
-8.48600006	6.62760019	2.41599989	0	200	0
-8.49600029	6.62750006	2.26799989	0	200	0
-8.49699974	6.62750006	2.40100002	0	200	0
-8.49300003	6.62760019	2.28299999	0	200	0
-8.49699974	6.62760019	2.40100002	0	200	0
-8.48900032	6.62750006	2.38599992	0	200	0
-8.49800014	6.62760019	2.38599992	0	200	0
-8.47599983	6.62760019	2.35700011	0	200	0
-8.49100018	6.62750006	2.35700011	0	200	0
-8.48999977	6.62760019	2.3269999	0	200	0
-8.4989996	6.62760019	2.23799992	0	200	0
-8.4659996	6.62760019	2.19499993	0	200	0
-8.50599957	6.62750006	2.19300008	0	200	0
-8.49699974	6.62760019	2.20900011	0	200	0
-8.49300003	6.62750006	2.20900011	0	200	0
-8.76099968	6.62719965	1.71000004	0	200	0
-8.70199966	6.62729979	1.71500003	0	200	0
-8.70300007	6.62729979	1.73000002	0	200	0
-8.72000027	6.62719965	1.66700006	0	200	0
-8.6260004	6.62739992	1.75199997	0	200	0
-8.62899971	6.62739992	1.78199995	0	200	0
-8.62100029	6.62739992	1.722	0	200	0
-8.61800003	6.62739992	1.73800004	0	200	0
-8.41300011	6.62770033	2.0940001	0	200	0
-8.48200035	6.62760019	2.046	0	200	0
-8.49300003	6.62750006	2.046	0	200	0
-8.49699974	6.62760019	2.05999994	0	200	0
-8.49499989	6.62750006	2.05999994	0	200	0
-8.44699955	6.62770033	2.10700011	0	200	0
-8.47799969	6.62760019	2.09100008	0	200	0
-8.5	6.62760019	2.1789999	0	200	0
-8.50399971	6.62750006	2.1789999	0	200	0
-8.46899986	6.62760019	2.16499996	0	200	0
-8.49600029	6.62760019	2.10500002	0	200	0
-8.49300003	6.62750006	2.16400003	0	200	0
-8.47599983	6.62760019	2.12100005	0	200	0
-8.47500038	6.62760019	2.13499999	0	200	0
-8.49600029	6.62760019	2.01600003	0	200	0
-8.4989996	6.62750006	2.01600003	0	200	0
-8.48200035	6.62760019	2.0309999	0	200	0
-8.52000046	6.62750006	1.88100004	0	200	0
-8.38700008	6.62770033	2.62100005	0	200	0
-8.48499966	6.62750006	2.53399992	0	200	0
-8.47999954	6.62760019	2.53399992	0	200	0
-8.39700031	6.62770033	2.63599992	0	200	0
-8.49300003	6.62750006	2.54900002	0	200	0
-8.48600006	6.62760019	2.54900002	0	200	0
-8.49100018	6.62750006	2.56399989	0	200	0
-8.4829998	6.62760019	2.56399989	0	200	0
-8.48900032	6.62750006	2.57800007	0	200	0
-8.49100018	6.62760019	2.579	0	200	0
-8.41300011	6.62770033	3.0769999	0	200	0
-8.42599964	6.62780094	3.06299996	0	200	0
-8.40799999	6.62770033	3.06200004	0	200	0
-8.40999985	6.62770033	3.04699993	0	200	0
-8.42399979	6.62780094	3.01900005	0	200	0
-8.41100025	6.62770033	3.01799989	0	200	0
-8.42000008	6.62770033	3.09200001	0	200	0
-8.39999962	6.62770033	2.41700006	0	200	0
-8.4119997	6.62770033	2.40199995	0	200	0
-8.46500015	6.62760019	2.50500011	0	200	0
-8.4989996	6.62750006	2.50500011	0	200	0
-8.46399975	6.62760019	2.49000001	0	200	0
-8.49100018	6.62750006	2.49000001	0	200	0
-8.46700001	6.62760019	2.4749999	0	200	0
-8.49600029	6.62750006	2.4749999	0	200	0
-8.57900047	6.62739992	1.68099999	0	200	0
-8.55000019	6.62750006	1.66900003	0	200	0
-8.58699989	6.62739992	1.64999998	0	200	0
-8.51299953	6.62750006	1.95500004	0	200	0
-8.46199989	6.62760019	1.95899999	0	200	0
-8.5010004	6.62750006	1.97099996	0	200	0
-8.5	6.62760019	1.97099996	0	200	0
-8.50199986	6.62750006	1.98599994	0	200	0
-8.48099995	6.62760019	1.98699999	0	200	0
-8.49300003	6.62750006	1.94200003	0	200	0
-8.48799992	6.62760019	1.94200003	0	200	0
-8.50699997	6.62760019	1.79200006	0	200	0
-8.50800037	6.62750006	1.79200006	0	200	0
-8.5	6.62760019	1.80700004	0	200	0
-8.50899982	6.62750006	1.80700004	0	200	0
-8.49199963	6.62750006	1.82299995	0	200	0
-8.48400021	6.62760019	1.91299999	0	200	0
-8.48600006	6.62750006	1.91299999	0	200	0
-8.50599957	6.62750006	1.83700001	0	200	0
-8.50300026	6.62750006	1.86699998	0	200	0
-8.40699959	6.62770033	3.16499996	0	200	0
-8.4119997	6.62780094	3.1500001	0	200	0
-8.40699959	6.62770033	3.1500001	0	200	0
-8.43599987	6.62780094	3.13700008	0	200	0
-8.41800022	6.62770033	3.13599992	0	200	0
-8.39999962	6.62770033	3.11999989	0	200	0
-8.49300003	6.62760019	1.71899998	0	200	0
-8.5	6.62750006	1.68799996	0	200	0
-8.50599957	6.62760019	1.68799996	0	200	0
-8.51399994	6.62750006	1.71700001	0	200	0
-8.50899982	6.62760019	1.67200005	0	200	0
-8.53100014	6.62760019	1.63999999	0	200	0
-8.52600002	6.62760019	1.65600002	0	200	0
-8.49499989	6.62750006	1.74800003	0	200	0
-8.49199963	6.62750006	1.73399997	0	200	0
-8.49400043	6.62760019	1.73300004	0	200	0
-8.45699978	6.62760019	1.75199997	0	200	0
-8.45300007	6.62760019	1.76699996	0	200	0
-8.51200008	6.62750006	1.76199996	0	200	0
-8.42199993	6.62770033	3.24000001	0	200	0
-8.42000008	6.62770033	3.2249999	0	200	0
-8.41300011	6.62770033	3.20900011	0	200	0
-8.41699982	6.62770033	3.19499993	0	200	0
-8.43599987	6.62770033	3.31500006	0	200	0
-8.42800045	6.62770033	3.29900002	0	200	0
-8.40499973	6.62770033	3.28200006	0	200	0
