-2.43899989	6.96460009	-0.144999996	200	0	0
-2.44199991	6.96460009	-0.128999993	200	0	0
-2.43899989	6.96460009	-0.136000007	200	0	0
-2.44000006	6.96449995	-0.145999998	200	0	0
-2.43799996	6.96539974	-0.0900000036	200	0	0
-2.42400002	6.96619987	-0.157000005	200	0	0
-2.43099999	6.9659009	-0.182999998	200	0	0
-2.42799997	6.96630001	-0.134000003	200	0	0
-2.43099999	6.9659996	-0.173999995	200	0	0
-2.42400002	6.96619987	-0.147	200	0	0
-2.42799997	6.96630001	-0.125	200	0	0
-2.42600012	6.96609974	-0.159999996	200	0	0
-2.43099999	6.96630001	-0.119000003	200	0	0
-2.43099999	6.96630001	-0.0829999968	200	0	0
-2.43199992	6.9659009	-0.174999997	200	0	0
-2.42700005	6.96630001	-0.104999997	200	0	0
-2.43099999	6.96630001	-0.0920000002	200	0	0
-2.43099999	6.96619987	-0.136999995	200	0	0
-2.42799997	6.96609974	-0.151999995	200	0	0
-2.42600012	6.9659996	-0.158999994	200	0	0
-2.43099999	6.96580029	-0.173999995	200	0	0
-2.4289999	6.96619987	-0.126000002	200	0	0
-2.42600012	6.96619987	-0.114	200	0	0
-2.43099999	6.96619987	-0.0829999968	200	0	0
-2.42499995	6.96619987	-0.104000002	200	0	0
-2.43300009	6.96619987	-0.0939999968	200	0	0
-2.42600012	6.9659009	-0.159999996	200	0	0
-2.4289999	6.96570015	-0.172000006	200	0	0
-2.4289999	6.96609974	-0.135000005	200	0	0
-2.42499995	6.9659996	-0.149000004	200	0	0
-2.42799997	6.96609974	-0.125	200	0	0
-2.43499994	6.96609974	-0.0780000016	200	0	0
-2.42600012	6.96580029	-0.158999994	200	0	0
-2.42600012	6.9659009	-0.150000006	200	0	0
-2.42499995	6.96609974	-0.112000003	200	0	0
-2.43300009	6.96609974	-0.0839999989	200	0	0
-2.42400002	6.96560001	-0.165999994	200	0	0
-2.42799997	6.96609974	-0.107000001	200	0	0
-2.4289999	6.9659996	-0.135000005	200	0	0
-2.43199992	6.96609974	-0.0930000022	200	0	0
-2.42600012	6.96570015	-0.159999996	200	0	0
-2.43300009	6.9659996	-0.129999995	200	0	0
-2.4289999	6.96560001	-0.163000003	200	0	0
-2.42700005	6.96580029	-0.150999993	200	0	0
-2.4289999	6.96549988	-0.163000003	200	0	0
-2.43300009	6.9659009	-0.140000001	200	0	0
-2.4289999	6.9659996	-0.116999999	200	0	0
-2.42799997	6.96570015	-0.152999997	200	0	0
-2.43300009	6.9659996	-0.0850000009	200	0	0
-2.4289999	6.9659996	-0.107000001	200	0	0
-2.43099999	6.9659996	-0.0920000002	200	0	0
-2.43199992	6.9659009	-0.128999993	200	0	0
-2.42799997	6.96560001	-0.152999997	200	0	0
-2.43000007	6.96549988	-0.155000001	200	0	0
-2.43300009	6.96580029	-0.138999999	200	0	0
-2.42799997	6.9659009	-0.115999997	200	0	0
-2.43300009	6.9659009	-0.0839999989	200	0	0
-2.43499994	6.96580029	-0.131999999	200	0	0
-2.42600012	6.9659009	-0.104000002	200	0	0
-2.43300009	6.9659009	-0.0939999968	200	0	0
-2.43600011	6.96560001	-0.143000007	200	0	0
-2.43000007	6.96570015	-0.136000007	200	0	0
-2.43799996	6.96549988	-0.143999994	200	0	0
-2.43499994	6.96570015	-0.131999999	200	0	0
-2.42799997	6.96580029	-0.115999997	200	0	0
-2.43400002	6.96580029	-0.0860000029	200	0	0
-2.43000007	6.96580029	-0.108000003	200	0	0
-2.43300009	6.96580029	-0.0930000022	200	0	0
-2.43499994	6.96560001	-0.131999999	200	0	0
-2.43000007	6.96570015	-0.116999999	200	0	0
-2.43600011	6.96549988	-0.133000001	200	0	0
-2.43400002	6.96570015	-0.0860000029	200	0	0
-2.43000007	6.96570015	-0.108999997	200	0	0
-2.43400002	6.96570015	-0.0949999988	200	0	0
-2.43300009	6.96560001	-0.119999997	200	0	0
-2.43300009	6.96549988	-0.120999999	200	0	0
-2.43099999	6.96560001	-0.109999999	200	0	0
-2.43700004	6.96560001	-0.0890000015	200	0	0
-2.43400002	6.96560001	-0.0949999988	200	0	0
-2.43099999	6.96549988	-0.109999999	200	0	0
-2.43799996	6.96549988	-0.0900000036	200	0	0
-2.43899989	6.96549988	-0.100000001	200	0	0
-2.42799997	6.96609974	-0.171000004	200	0	0
-2.42799997	6.96609974	-0.180000007	200	0	0
-2.4230001	6.96609974	-0.194000006	200	0	0
-2.4289999	6.9659996	-0.181999996	200	0	0
-2.42400002	6.9659996	-0.194000006	200	0	0
-2.43199992	6.96530104	-0.211999997	200	0	0
-2.42799997	6.96520042	-0.208000004	200	0	0
-2.42400002	6.96630001	-0.148000002	200	0	0
-2.42000008	6.96630001	-0.199000001	200	0	0
-2.4230001	6.96630001	-0.194000006	200	0	0
-2.42700005	6.96630001	-0.179000005	200	0	0
-2.42799997	6.96630001	-0.171000004	200	0	0
-2.42600012	6.96630001	-0.158999994	200	0	0
-2.42199993	6.96619987	-0.202000007	200	0	0
-2.4230001	6.96619987	-0.194000006	200	0	0
-2.42799997	6.96619987	-0.180999994	200	0	0
-2.43000007	6.96619987	-0.172999993	200	0	0
-2.41799998	6.96710014	-0.197999999	200	0	0
-2.42199993	6.96700001	-0.101000004	200	0	0
-2.42799997	6.96689987	-0.0890000015	200	0	0
-2.4230001	6.96700001	-0.211999997	200	0	0
-2.42400002	6.96710014	-0.120999999	200	0	0
-2.4289999	6.96679974	-0.0810000002	200	0	0
-2.41799998	6.96710014	-0.187999994	200	0	0
-2.42400002	6.96710014	-0.129999995	200	0	0
-2.4230001	6.96700001	-0.111000001	200	0	0
-2.4230001	6.96710014	-0.175999999	200	0	0
-2.42000008	6.96710014	-0.143999994	200	0	0
-2.42499995	6.96689987	-0.215000004	200	0	0
-2.42799997	6.96679974	-0.0890000015	200	0	0
-2.41599989	6.96710014	-0.149000004	200	0	0
-2.41899991	6.96700001	-0.199000001	200	0	0
-2.421	6.96710014	-0.164000005	200	0	0
-2.43000007	6.9666996	-0.0820000023	200	0	0
-2.4230001	6.96689987	-0.101999998	200	0	0
-2.41899991	6.96700001	-0.188999996	200	0	0
-2.42700005	6.96700001	-0.125	200	0	0
-2.42000008	6.96689987	-0.108000003	200	0	0
-2.42700005	6.9666996	-0.0879999995	200	0	0
-2.43000007	6.96659994	-0.0820000023	200	0	0
-2.42700005	6.96700001	-0.133000001	200	0	0
-2.42400002	6.96679974	-0.214000002	200	0	0
-2.42499995	6.96700001	-0.178000003	200	0	0
-2.4230001	6.96679974	-0.101000004	200	0	0
-2.42799997	6.96700001	-0.171000004	200	0	0
-2.41700006	6.96689987	-0.196999997	200	0	0
-2.42400002	6.96700001	-0.148000002	200	0	0
-2.421	6.96700001	-0.155000001	200	0	0
-2.43199992	6.96650076	-0.0839999989	200	0	0
-2.42799997	6.96659994	-0.0890000015	200	0	0
-2.42600012	6.96689987	-0.123000003	200	0	0
-2.41700006	6.96689987	-0.187999994	200	0	0
-2.4230001	6.96679974	-0.111000001	200	0	0
-2.42700005	6.96650076	-0.0879999995	200	0	0
-2.42199993	6.9666996	-0.101000004	200	0	0
-2.42499995	6.96689987	-0.130999997	200	0	0
-2.421	6.96679974	-0.201000005	200	0	0
-2.4230001	6.9666996	-0.211999997	200	0	0
-2.42499995	6.96689987	-0.177000001	200	0	0
-2.42400002	6.96650076	-0.223000005	200	0	0
-2.42000008	6.96689987	-0.144999996	200	0	0
-2.4230001	6.96689987	-0.165999994	200	0	0
-2.42499995	6.96659994	-0.215000004	200	0	0
-2.42000008	6.96689987	-0.152999997	200	0	0
-2.4289999	6.96640015	-0.0900000036	200	0	0
-2.421	6.96679974	-0.192000002	200	0	0
-2.42199993	6.9666996	-0.108999997	200	0	0
-2.42700005	6.96679974	-0.123999998	200	0	0
-2.42400002	6.96659994	-0.101999998	200	0	0
-2.41899991	6.9666996	-0.199000001	200	0	0
-2.42499995	6.96650076	-0.215000004	200	0	0
-2.42700005	6.96679974	-0.133000001	200	0	0
-2.42700005	6.96679974	-0.179000005	200	0	0
-2.42400002	6.96650076	-0.101999998	200	0	0
-2.42199993	6.96659994	-0.109999999	200	0	0
-2.42600012	6.96679974	-0.169	200	0	0
-2.42199993	6.96679974	-0.145999998	200	0	0
-2.42600012	6.9666996	-0.123000003	200	0	0
-2.41899991	6.9666996	-0.189999998	200	0	0
-2.421	6.96679974	-0.155000001	200	0	0
-2.42400002	6.96640015	-0.101999998	200	0	0
-2.41899991	6.96659994	-0.199000001	200	0	0
-2.42400002	6.9666996	-0.129999995	200	0	0
-2.4230001	6.96630001	-0.211999997	200	0	0
-2.42499995	6.9666996	-0.178000003	200	0	0
-2.42499995	6.96650076	-0.112000003	200	0	0
-2.42199993	6.96659994	-0.193000004	200	0	0
-2.42700005	6.96659994	-0.123999998	200	0	0
-2.41899991	6.96650076	-0.199000001	200	0	0
-2.421	6.9666996	-0.144999996	200	0	0
-2.42499995	6.9666996	-0.167999998	200	0	0
-2.42000008	6.9666996	-0.153999999	200	0	0
-2.42499995	6.96640015	-0.112999998	200	0	0
-2.42600012	6.96659994	-0.131999999	200	0	0
-2.42000008	6.96640015	-0.199000001	200	0	0
-2.421	6.96650076	-0.192000002	200	0	0
-2.42499995	6.96659994	-0.178000003	200	0	0
-2.42700005	6.96650076	-0.125	200	0	0
-2.42499995	6.96659994	-0.167999998	200	0	0
-2.42199993	6.96659994	-0.147	200	0	0
-2.421	6.96659994	-0.155000001	200	0	0
-2.42799997	6.96650076	-0.134000003	200	0	0
-2.42799997	6.96640015	-0.125	200	0	0
-2.42700005	6.96650076	-0.179000005	200	0	0
-2.41799998	6.96640015	-0.187999994	200	0	0
-2.42600012	6.96650076	-0.169	200	0	0
-2.42400002	6.96650076	-0.148000002	200	0	0
-2.4230001	6.96650076	-0.156000003	200	0	0
-2.42799997	6.96640015	-0.135000005	200	0	0
-2.42499995	6.96640015	-0.177000001	200	0	0
-2.42700005	6.96640015	-0.170000002	200	0	0
-2.4230001	6.96640015	-0.147	200	0	0
-2.421	6.96640015	-0.155000001	200	0	0
-2.42700005	6.96710014	-0.0790000036	200	0	0
-2.42600012	6.9671998	-0.169	200	0	0
-2.4230001	6.9671998	-0.101000004	200	0	0
-2.42499995	6.96710014	-0.0860000029	200	0	0
-2.42400002	6.9671998	-0.112000003	200	0	0
-2.41899991	6.9671998	-0.151999995	200	0	0
-2.42000008	6.9671998	-0.143999994	200	0	0
-2.42600012	6.9671998	-0.123000003	200	0	0
-2.42700005	6.9671998	-0.133000001	200	0	0
-2.41899991	6.96710014	-0.0979999974	200	0	0
-2.4289999	6.96700001	-0.0810000002	200	0	0
-2.42000008	6.96710014	-0.108000003	200	0	0
-2.42700005	6.96700001	-0.0879999995	200	0	0
-2.42799997	6.96689987	-0.0799999982	200	0	0
-2.4289999	6.9671998	-0.0900000036	200	0	0
-2.4289999	6.9671998	-0.0810000002	200	0	0
-2.42000008	6.9671998	-0.191	200	0	0
-2.42600012	6.9671998	-0.179000005	200	0	0
-2.42400002	6.9671998	-0.214000002	200	0	0
-2.41799998	6.9671998	-0.199000001	200	0	0
-2.42199993	6.96710014	-0.211999997	200	0	0
-2.42199993	6.9677	-0.119000003	200	0	0
-2.41599989	6.9678998	-0.140000001	200	0	0
-2.42199993	6.96780109	-0.128999993	200	0	0
-2.41799998	6.96799994	-0.160999998	200	0	0
-2.41899991	6.96740007	-0.107000001	200	0	0
-2.41899991	6.96799994	-0.172000006	200	0	0
-2.41700006	6.9678998	-0.150000006	200	0	0
-2.421	6.9677	-0.127000004	200	0	0
-2.42000008	6.96729994	-0.108000003	200	0	0
-2.42400002	6.96759987	-0.120999999	200	0	0
-2.41700006	6.96799994	-0.216999993	200	0	0
-2.41400003	6.96799994	-0.185000002	200	0	0
-2.41700006	6.96799994	-0.207000002	200	0	0
-2.41599989	6.96799994	-0.195999995	200	0	0
-2.41899991	6.96780109	-0.143000007	200	0	0
-2.42199993	6.96750021	-0.119000003	200	0	0
-2.41899991	6.9678998	-0.162	200	0	0
-2.41300011	6.9678998	-0.230000004	200	0	0
-2.4230001	6.96759987	-0.128999993	200	0	0
-2.41700006	6.96780109	-0.150000006	200	0	0
-2.42199993	6.96740007	-0.119000003	200	0	0
-2.42000008	6.9678998	-0.172999993	200	0	0
-2.41700006	6.9677	-0.141000003	200	0	0
-2.41700006	6.9678998	-0.216000006	200	0	0
-2.41599989	6.9678998	-0.186000004	200	0	0
-2.42199993	6.96750021	-0.128000006	200	0	0
-2.4230001	6.96729994	-0.119999997	200	0	0
-2.41700006	6.9678998	-0.207000002	200	0	0
-2.41599989	6.9678998	-0.195999995	200	0	0
-2.421	6.96780109	-0.164000005	200	0	0
-2.41300011	6.96780109	-0.231000006	200	0	0
-2.41700006	6.9677	-0.150999993	200	0	0
-2.4230001	6.96740007	-0.128999993	200	0	0
-2.42000008	6.96780109	-0.172999993	200	0	0
-2.41899991	6.96759987	-0.143999994	200	0	0
-2.41300011	6.9677	-0.239999995	200	0	0
-2.41899991	6.96780109	-0.217999995	200	0	0
-2.4230001	6.96729994	-0.128999993	200	0	0
-2.41400003	6.96780109	-0.185000002	200	0	0
-2.41499996	6.96750021	-0.138999999	200	0	0
-2.41700006	6.96780109	-0.207000002	200	0	0
-2.41599989	6.96780109	-0.195999995	200	0	0
-2.41300011	6.9677	-0.231000006	200	0	0
-2.41700006	6.96759987	-0.150999993	200	0	0
-2.42199993	6.9677	-0.165000007	200	0	0
-2.42000008	6.9677	-0.172000006	200	0	0
-2.42000008	6.9677	-0.219999999	200	0	0
-2.41899991	6.96740007	-0.143000007	200	0	0
-2.41700006	6.96750021	-0.150000006	200	0	0
-2.41599989	6.9677	-0.187000006	200	0	0
-2.41799998	6.9677	-0.208000004	200	0	0
-2.421	6.96759987	-0.164000005	200	0	0
-2.41400003	6.9677	-0.194000006	200	0	0
-2.41300011	6.96759987	-0.231000006	200	0	0
-2.41799998	6.96729994	-0.142000005	200	0	0
-2.41599989	6.96740007	-0.149000004	200	0	0
-2.42199993	6.96759987	-0.173999995	200	0	0
-2.42000008	6.96759987	-0.219999999	200	0	0
-2.42000008	6.96750021	-0.163000003	200	0	0
-2.41300011	6.96750021	-0.231000006	200	0	0
-2.421	6.96759987	-0.210999995	200	0	0
-2.41799998	6.96729994	-0.150999993	200	0	0
-2.41799998	6.96759987	-0.188999996	200	0	0
-2.41599989	6.96759987	-0.195999995	200	0	0
-2.42199993	6.96750021	-0.173999995	200	0	0
-2.42000008	6.96750021	-0.219999999	200	0	0
-2.4230001	6.96740007	-0.165999994	200	0	0
-2.41899991	6.96750021	-0.209000006	200	0	0
-2.41799998	6.96750021	-0.187999994	200	0	0
-2.41599989	6.96750021	-0.195999995	200	0	0
-2.42000008	6.96740007	-0.172000006	200	0	0
-2.421	6.96729994	-0.164000005	200	0	0
-2.42000008	6.96740007	-0.219999999	200	0	0
-2.42000008	6.96729994	-0.172000006	200	0	0
-2.41599989	6.96740007	-0.186000004	200	0	0
-2.41899991	6.96740007	-0.209000006	200	0	0
-2.41599989	6.96740007	-0.195999995	200	0	0
-2.41899991	6.96729994	-0.217999995	200	0	0
-2.41499996	6.96729994	-0.185000002	200	0	0
-2.41899991	6.96729994	-0.209000006	200	0	0
-2.41799998	6.96729994	-0.197999999	200	0	0
-2.42400002	6.9678998	-0.130999997	200	0	0
-2.42600012	6.9678998	-0.0780000016	200	0	0
-2.42199993	6.9678998	-0.119000003	200	0	0
-2.4230001	6.9678998	-0.0839999989	200	0	0
-2.421	6.9678998	-0.108999997	200	0	0
-2.41899991	6.9678998	-0.0979999974	200	0	0
-2.42600012	6.96780109	-0.0790000036	200	0	0
-2.4230001	6.96780109	-0.120999999	200	0	0
-2.42499995	6.96780109	-0.0860000029	200	0	0
-2.42000008	6.96780109	-0.108000003	200	0	0
-2.41799998	6.96780109	-0.0970000029	200	0	0
-2.42799997	6.9677	-0.0799999982	200	0	0
-2.42700005	6.9677	-0.0890000015	200	0	0
-2.41899991	6.9677	-0.107000001	200	0	0
-2.42000008	6.9677	-0.0989999995	200	0	0
-2.42700005	6.96759987	-0.0790000036	200	0	0
-2.4230001	6.96759987	-0.0839999989	200	0	0
-2.41899991	6.96759987	-0.107000001	200	0	0
-2.41799998	6.96759987	-0.0970000029	200	0	0
-2.42499995	6.96750021	-0.0860000029	200	0	0
-2.41799998	6.96750021	-0.105999999	200	0	0
-2.41799998	6.96750021	-0.0960000008	200	0	0
-2.42799997	6.96740007	-0.0799999982	200	0	0
-2.42499995	6.96740007	-0.0860000029	200	0	0
-2.42199993	6.96740007	-0.101000004	200	0	0
-2.42700005	6.96729994	-0.0790000036	200	0	0
-2.42400002	6.96729994	-0.0839999989	200	0	0
-2.41899991	6.96729994	-0.0979999974	200	0	0
-2.42600012	6.96799994	-0.0790000036	200	0	0
-2.42499995	6.96799994	-0.0860000029	200	0	0
-2.41700006	6.96799994	-0.150000006	200	0	0
-2.41899991	6.96799994	-0.0979999974	200	0	0
-2.41499996	6.96799994	-0.138999999	200	0	0
-2.41899991	6.96799994	-0.107000001	200	0	0
-2.42199993	6.96799994	-0.128000006	200	0	0
-2.421	6.96799994	-0.118000001	200	0	0
-2.41599989	6.96810007	-0.149000004	200	0	0
-2.42000008	6.96810007	-0.163000003	200	0	0
-2.42600012	6.96810007	-0.0780000016	200	0	0
-2.42199993	6.96810007	-0.128000006	200	0	0
-2.41700006	6.96810007	-0.206	200	0	0
-2.41599989	6.96810007	-0.140000001	200	0	0
-2.41400003	6.96810007	-0.194000006	200	0	0
-2.41400003	6.96810007	-0.184	200	0	0
-2.421	6.96810007	-0.172999993	200	0	0
-2.42199993	6.96810007	-0.119000003	200	0	0
-2.4230001	6.96810007	-0.0839999989	200	0	0
-2.41700006	6.96810007	-0.104999997	200	0	0
-2.41899991	6.96810007	-0.0970000029	200	0	0
-2.41300011	6.96810007	-0.231000006	200	0	0
-2.41700006	6.96810007	-0.216000006	200	0	0
-2.4230001	6.96869993	-0.119000003	200	0	0
-2.41599989	6.96820021	-0.204999998	200	0	0
-2.42600012	6.9685998	-0.0769999996	200	0	0
-2.41899991	6.9685998	-0.160999998	200	0	0
-2.421	6.9685998	-0.0810000002	200	0	0
-2.41499996	6.96830034	-0.194999993	200	0	0
-2.41499996	6.9685998	-0.148000002	200	0	0
-2.41199994	6.96840096	-0.180999994	200	0	0
-2.41700006	6.96849966	-0.167999998	200	0	0
-2.41700006	6.9685998	-0.0939999968	200	0	0
-2.41499996	6.9685998	-0.137999997	200	0	0
-2.41499996	6.96820021	-0.194999993	200	0	0
-2.41899991	6.9685998	-0.105999999	200	0	0
-2.42000008	6.9685998	-0.125	200	0	0
-2.42000008	6.9685998	-0.115999997	200	0	0
-2.41700006	6.96849966	-0.158999994	200	0	0
-2.41499996	6.96830034	-0.185000002	200	0	0
-2.42400002	6.96849966	-0.0839999989	200	0	0
-2.41499996	6.96849966	-0.147	200	0	0
-2.41499996	6.96840096	-0.165000007	200	0	0
-2.41499996	6.96820021	-0.186000004	200	0	0
-2.41899991	6.96849966	-0.0970000029	200	0	0
-2.41700006	6.96849966	-0.140000001	200	0	0
-2.42000008	6.96840096	-0.162	200	0	0
-2.41700006	6.96849966	-0.104000002	200	0	0
-2.42199993	6.96849966	-0.127000004	200	0	0
-2.42199993	6.96849966	-0.118000001	200	0	0
-2.41899991	6.96830034	-0.171000004	200	0	0
-2.42199993	6.96840096	-0.0820000023	200	0	0
-2.41700006	6.96840096	-0.150000006	200	0	0
-2.41899991	6.96830034	-0.162	200	0	0
-2.41799998	6.96840096	-0.0960000008	200	0	0
-2.41499996	6.96840096	-0.137999997	200	0	0
-2.42000008	6.96820021	-0.172000006	200	0	0
-2.42799997	6.96830034	-0.0790000036	200	0	0
-2.41799998	6.96840096	-0.104000002	200	0	0
-2.42400002	6.96840096	-0.128999993	200	0	0
-2.4230001	6.96840096	-0.119000003	200	0	0
-2.42600012	6.96830034	-0.0860000029	200	0	0
-2.42000008	6.96820021	-0.163000003	200	0	0
-2.41400003	6.96830034	-0.145999998	200	0	0
-2.42600012	6.96820021	-0.0769999996	200	0	0
-2.41899991	6.96830034	-0.0970000029	200	0	0
-2.41599989	6.96830034	-0.138999999	200	0	0
-2.41799998	6.96830034	-0.104999997	200	0	0
-2.42199993	6.96820021	-0.0829999968	200	0	0
-2.42000008	6.96830034	-0.126000002	200	0	0
-2.421	6.96830034	-0.118000001	200	0	0
-2.41599989	6.96820021	-0.149000004	200	0	0
-2.41700006	6.96820021	-0.0949999988	200	0	0
-2.41400003	6.96820021	-0.137999997	200	0	0
-2.41799998	6.96820021	-0.104999997	200	0	0
-2.42199993	6.96820021	-0.128000006	200	0	0
-2.42199993	6.96820021	-0.119000003	200	0	0
-2.4230001	6.96869993	-0.0829999968	200	0	0
-2.41199994	6.96830034	-0.229000002	200	0	0
-2.41700006	6.96880007	-0.104000002	200	0	0
-2.41700006	6.96849966	-0.215000004	200	0	0
-2.421	6.96880007	-0.172000006	200	0	0
-2.41100001	6.96869993	-0.189999998	200	0	0
-2.41499996	6.9685998	-0.202999994	200	0	0
-2.421	6.96880007	-0.163000003	200	0	0
-2.4230001	6.96880007	-0.119000003	200	0	0
-2.41599989	6.96869993	-0.0939999968	200	0	0
-2.42199993	6.96880007	-0.127000004	200	0	0
-2.41300011	6.96869993	-0.182999998	200	0	0
-2.41599989	6.96880007	-0.148000002	200	0	0
-2.41700006	6.96880007	-0.140000001	200	0	0
-2.41700006	6.96869993	-0.104000002	200	0	0
-2.41599989	6.96849966	-0.203999996	200	0	0
-2.41300011	6.96840096	-0.210999995	200	0	0
-2.41300011	6.9685998	-0.191	200	0	0
-2.41700006	6.96869993	-0.167999998	200	0	0
-2.42000008	6.96869993	-0.162	200	0	0
-2.41499996	6.9685998	-0.184	200	0	0
-2.41899991	6.96869993	-0.125	200	0	0
-2.41599989	6.96840096	-0.203999996	200	0	0
-2.41400003	6.96869993	-0.145999998	200	0	0
-2.41400003	6.96849966	-0.193000004	200	0	0
-2.41499996	6.96869993	-0.137999997	200	0	0
-2.41899991	6.9685998	-0.171000004	200	0	0
-2.41599989	6.96830034	-0.204999998	200	0	0
-2.41400003	6.96840096	-0.193000004	200	0	0
-2.40899992	6.96849966	-0.178000003	200	0	0
-2.42199993	6.9689002	-0.118000001	200	0	0
-2.41199994	6.96849966	-0.246999994	200	0	0
-2.41300011	6.96840096	-0.248999998	200	0	0
-2.41700006	6.96880007	-0.215000004	200	0	0
-2.41100001	6.96869993	-0.226999998	200	0	0
-2.42400002	6.9689002	-0.128999993	200	0	0
-2.40899992	6.9685998	-0.234999999	200	0	0
-2.41499996	6.9689002	-0.193000004	200	0	0
-2.41499996	6.9689002	-0.185000002	200	0	0
-2.42000008	6.9689002	-0.143000007	200	0	0
-2.41599989	6.96880007	-0.204999998	200	0	0
-2.421	6.9689002	-0.172999993	200	0	0
-2.41899991	6.9689002	-0.150999993	200	0	0
-2.41100001	6.9685998	-0.228	200	0	0
-2.421	6.9689002	-0.162	200	0	0
-2.41000009	6.96849966	-0.234999999	200	0	0
-2.41700006	6.96869993	-0.215000004	200	0	0
-2.41700006	6.96880007	-0.195999995	200	0	0
-2.41100001	6.96849966	-0.228	200	0	0
-2.41400003	6.96880007	-0.184	200	0	0
-2.41700006	6.96869993	-0.206	200	0	0
-2.41499996	6.9685998	-0.213	200	0	0
-2.41300011	6.96840096	-0.229000002	200	0	0
-2.41300011	6.96880007	-0.230000004	200	0	0
-2.41899991	6.9689002	-0.208000004	200	0	0
-2.41000009	6.96869993	-0.236000001	200	0	0
-2.41300011	6.96840096	-0.257999986	200	0	0
-2.41300011	6.9689002	-0.238999993	200	0	0
-2.41499996	6.9689002	-0.231999993	200	0	0
-2.421	6.9689002	-0.218999997	200	0	0
-2.41199994	6.96880007	-0.238000005	200	0	0
-2.41799998	6.96880007	-0.0960000008	200	0	0
-2.42700005	6.96869993	-0.0780000016	200	0	0
-2.42400002	6.96880007	-0.0839999989	200	0	0
-2.42799997	6.96880007	-0.0790000036	200	0	0
-2.41799998	6.9689002	-0.104000002	200	0	0
-2.41899991	6.9689002	-0.0960000008	200	0	0
-2.42400002	6.9689002	-0.0839999989	200	0	0
-2.42700005	6.9689002	-0.0780000016	200	0	0
-2.41899991	6.96900082	-0.105999999	200	0	0
-2.41499996	6.96900082	-0.184	200	0	0
-2.421	6.96900082	-0.116999999	200	0	0
-2.421	6.96900082	-0.126000002	200	0	0
-2.41899991	6.96900082	-0.170000002	200	0	0
-2.421	6.96900082	-0.163000003	200	0	0
-2.41599989	6.96900082	-0.138999999	200	0	0
-2.41499996	6.96900082	-0.148000002	200	0	0
-2.41599989	6.96900082	-0.194999993	200	0	0
-2.41700006	6.96900082	-0.0949999988	200	0	0
-2.4230001	6.96900082	-0.0829999968	200	0	0
-2.42600012	6.96900082	-0.0780000016	200	0	0
-2.41300011	6.96900082	-0.230000004	200	0	0
-2.41700006	6.96900082	-0.215000004	200	0	0
-2.41799998	6.96900082	-0.207000002	200	0	0
-2.41300011	6.96909952	-0.182999998	200	0	0
-2.42499995	6.9696002	-0.0759999976	200	0	0
-2.41899991	6.9696002	-0.160999998	200	0	0
-2.41499996	6.96919966	-0.203999996	200	0	0
-2.421	6.9696002	-0.0810000002	200	0	0
-2.41499996	6.96939993	-0.184	200	0	0
-2.41400003	6.9696002	-0.145999998	200	0	0
-2.41499996	6.9696002	-0.0920000002	200	0	0
-2.41499996	6.96909952	-0.203999996	200	0	0
-2.41499996	6.96950006	-0.165000007	200	0	0
-2.40899992	6.96929979	-0.187999994	200	0	0
-2.42199993	6.96950006	-0.0729999989	200	0	0
-2.41199994	6.9696002	-0.135000005	200	0	0
-2.42000008	6.9696002	-0.107000001	200	0	0
-2.41799998	6.9696002	-0.123000003	200	0	0
-2.421	6.9696002	-0.116999999	200	0	0
-2.41799998	6.96950006	-0.0780000016	200	0	0
-2.41799998	6.96950006	-0.159999996	200	0	0
-2.41300011	6.96919966	-0.192000002	200	0	0
-2.41300011	6.96929979	-0.182999998	200	0	0
-2.42000008	6.96939993	-0.171000004	200	0	0
-2.41300011	6.96950006	-0.144999996	200	0	0
-2.41300011	6.96909952	-0.192000002	200	0	0
-2.41199994	6.96950006	-0.0989999995	200	0	0
-2.41300011	6.96950006	-0.136000007	200	0	0
-2.41400003	6.96919966	-0.182999998	200	0	0
-2.41700006	6.96939993	-0.158999994	200	0	0
-2.41700006	6.96950006	-0.112000003	200	0	0
-2.41799998	6.96950006	-0.123000003	200	0	0
-2.42000008	6.96939993	-0.0799999982	200	0	0
-2.41700006	6.96929979	-0.167999998	200	0	0
-2.41499996	6.96939993	-0.147	200	0	0
-2.41700006	6.96939993	-0.0939999968	200	0	0
-2.41300011	6.96939993	-0.0989999995	200	0	0
-2.41899991	6.96929979	-0.160999998	200	0	0
-2.41400003	6.96939993	-0.136999995	200	0	0
-2.42000008	6.96929979	-0.0790000036	200	0	0
-2.421	6.96939993	-0.126000002	200	0	0
-2.41700006	6.96919966	-0.167999998	200	0	0
-2.41899991	6.96939993	-0.115000002	200	0	0
-2.41300011	6.96929979	-0.0900000036	200	0	0
-2.41400003	6.96929979	-0.145999998	200	0	0
-2.41899991	6.96919966	-0.159999996	200	0	0
-2.41400003	6.96929979	-0.100000001	200	0	0
-2.41300011	6.96929979	-0.136000007	200	0	0
-2.421	6.96919966	-0.0810000002	200	0	0
-2.41499996	6.96909952	-0.165000007	200	0	0
-2.41700006	6.96929979	-0.122000001	200	0	0
-2.41899991	6.96929979	-0.114	200	0	0
-2.41400003	6.96919966	-0.145999998	200	0	0
-2.41899991	6.96909952	-0.159999996	200	0	0
-2.41499996	6.96919966	-0.0920000002	200	0	0
-2.41599989	6.96919966	-0.138999999	200	0	0
-2.41499996	6.96919966	-0.101000004	200	0	0
-2.41799998	6.96919966	-0.114	200	0	0
-2.41799998	6.96919966	-0.123000003	200	0	0
-2.41400003	6.96909952	-0.147	200	0	0
-2.41700006	6.96909952	-0.0939999968	200	0	0
-2.41499996	6.96909952	-0.137999997	200	0	0
-2.41400003	6.96909952	-0.101000004	200	0	0
-2.41799998	6.96909952	-0.114	200	0	0
-2.41799998	6.96909952	-0.123000003	200	0	0
-2.41199994	6.96909952	-0.229000002	200	0	0
-2.41499996	6.96909952	-0.213	200	0	0
-2.41300011	6.96950006	-0.202000007	200	0	0
-2.41499996	6.96939993	-0.211999997	200	0	0
-2.41100001	6.96950006	-0.188999996	200	0	0
-2.41799998	6.96939993	-0.207000002	200	0	0
-2.40899992	6.96950006	-0.178000003	200	0	0
-2.41100001	6.96919966	-0.226999998	200	0	0
-2.41700006	6.96929979	-0.215000004	200	0	0
-2.41100001	6.96939993	-0.189999998	200	0	0
-2.41799998	6.96929979	-0.207000002	200	0	0
-2.41700006	6.96919966	-0.215000004	200	0	0
-2.41400003	6.96969986	-0.147	200	0	0
-2.41400003	6.96969986	-0.136999995	200	0	0
-2.42499995	6.96969986	-0.0759999976	200	0	0
-2.421	6.96969986	-0.0810000002	200	0	0
-2.41799998	6.96969986	-0.123000003	200	0	0
-2.421	6.96969986	-0.116999999	200	0	0
-2.41300011	6.96969986	-0.0909999982	200	0	0
-2.41700006	6.96969986	-0.104000002	200	0	0
-2.41499996	6.96969986	-0.203999996	200	0	0
-2.41199994	6.96969986	-0.191	200	0	0
-2.41499996	6.96969986	-0.184	200	0	0
-2.41899991	6.96969986	-0.160999998	200	0	0
-2.41499996	6.96969986	-0.165999994	200	0	0
-2.41499996	6.9696002	-0.213	200	0	0
-2.41700006	6.9696002	-0.204999998	200	0	0
-2.41300011	6.9696002	-0.191	200	0	0
-2.41400003	6.9696002	-0.184	200	0	0
-2.41499996	6.96950006	-0.211999997	200	0	0
-2.41799998	6.9696002	-0.169	200	0	0
-2.42199993	6.9698	-0.118000001	200	0	0
-2.41599989	6.9698	-0.158999994	200	0	0
-2.421	6.9698	-0.0810000002	200	0	0
-2.41300011	6.9698	-0.144999996	200	0	0
-2.41499996	6.9698	-0.0920000002	200	0	0
-2.41499996	6.9698	-0.137999997	200	0	0
-2.41300011	6.9698	-0.100000001	200	0	0
-2.42000008	6.9698	-0.126000002	200	0	0
-2.41700006	6.9698	-0.167999998	200	0	0
-2.41300011	6.9698	-0.181999996	200	0	0
-2.41199994	6.9698	-0.191	200	0	0
-2.41400003	6.96990013	-0.147	200	0	0
-2.41400003	6.96990013	-0.136999995	200	0	0
-2.42499995	6.96990013	-0.0769999996	200	0	0
-2.42000008	6.96990013	-0.0810000002	200	0	0
-2.41700006	6.96990013	-0.123000003	200	0	0
-2.41700006	6.96990013	-0.0949999988	200	0	0
-2.42000008	6.96990013	-0.116999999	200	0	0
-2.41199994	6.96990013	-0.0989999995	200	0	0
-2.41199994	6.96999979	-0.182999998	200	0	0
-2.41599989	6.96990013	-0.158000007	200	0	0
-2.41499996	6.96990013	-0.203999996	200	0	0
-2.41499996	6.96990013	-0.165999994	200	0	0
-2.41100001	6.96990013	-0.191	200	0	0
-2.41300011	6.96990013	-0.182999998	200	0	0
-2.42000008	6.96999979	-0.116999999	200	0	0
-2.41899991	6.96999979	-0.125	200	0	0
-2.41799998	6.96999979	-0.170000002	200	0	0
-2.41400003	6.96999979	-0.137999997	200	0	0
-2.42000008	6.96999979	-0.0810000002	200	0	0
-2.41599989	6.96999979	-0.216000006	200	0	0
-2.41000009	6.96999979	-0.143000007	200	0	0
-2.41700006	6.96999979	-0.159999996	200	0	0
-2.41199994	6.96999979	-0.191	200	0	0
-2.42400002	6.97060013	-0.0759999976	200	0	0
-2.41799998	6.97049999	-0.115000002	200	0	0
-2.41599989	6.97030067	-0.141000003	200	0	0
-2.41499996	6.97020006	-0.149000004	200	0	0
-2.41499996	6.97049999	-0.103	200	0	0
-2.41799998	6.97039986	-0.125	200	0	0
-2.41599989	6.97049999	-0.0949999988	200	0	0
-2.42400002	6.97049999	-0.0860000029	200	0	0
-2.41700006	6.97009993	-0.150999993	200	0	0
-2.41700006	6.97039986	-0.114	200	0	0
-2.41499996	6.97020006	-0.140000001	200	0	0
-2.421	6.97030067	-0.128000006	200	0	0
-2.41300011	6.97039986	-0.100000001	200	0	0
-2.41199994	6.97039986	-0.0909999982	200	0	0
-2.42000008	6.97030067	-0.118000001	200	0	0
-2.41499996	6.97009993	-0.140000001	200	0	0
-2.421	6.97039986	-0.0829999968	200	0	0
-2.41899991	6.97020006	-0.126000002	200	0	0
-2.41499996	6.97030067	-0.103	200	0	0
-2.41400003	6.97030067	-0.0930000022	200	0	0
-2.41799998	6.97020006	-0.115000002	200	0	0
-2.41899991	6.97009993	-0.126000002	200	0	0
-2.421	6.97030067	-0.0829999968	200	0	0
-2.41499996	6.97020006	-0.103	200	0	0
-2.41899991	6.97009993	-0.115999997	200	0	0
-2.41700006	6.97020006	-0.0960000008	200	0	0
-2.421	6.97020006	-0.0829999968	200	0	0
-2.41499996	6.97009993	-0.103	200	0	0
-2.41400003	6.97009993	-0.0930000022	200	0	0
-2.421	6.97009993	-0.0829999968	200	0	0
-2.4230001	6.97009993	-0.0759999976	200	0	0
-2.41300011	6.96999979	-0.101000004	200	0	0
-2.41199994	6.96999979	-0.0909999982	200	0	0
-2.41899991	6.97060013	-0.162	200	0	0
-2.41400003	6.97049999	-0.194000006	200	0	0
-2.421	6.97049999	-0.128000006	200	0	0
-2.41400003	6.97039986	-0.213	200	0	0
-2.41499996	6.97049999	-0.186000004	200	0	0
-2.41700006	6.97049999	-0.142000005	200	0	0
-2.41599989	6.97039986	-0.206	200	0	0
-2.41499996	6.97049999	-0.149000004	200	0	0
-2.41799998	6.97049999	-0.171000004	200	0	0
-2.421	6.97049999	-0.165000007	200	0	0
-2.41400003	6.97030067	-0.214000002	200	0	0
-2.41100001	6.97039986	-0.191	200	0	0
-2.41300011	6.97039986	-0.137999997	200	0	0
-2.41599989	6.97030067	-0.206	200	0	0
-2.41100001	6.97039986	-0.181999996	200	0	0
-2.41199994	6.97039986	-0.145999998	200	0	0
-2.41599989	6.97020006	-0.216000006	200	0	0
-2.41799998	6.97039986	-0.171000004	200	0	0
-2.41799998	6.97039986	-0.160999998	200	0	0
-2.41400003	6.97030067	-0.194000006	200	0	0
-2.41499996	6.97020006	-0.204999998	200	0	0
-2.41000009	6.97030067	-0.180999994	200	0	0
-2.41400003	6.97030067	-0.148000002	200	0	0
-2.41599989	6.97030067	-0.169	200	0	0
-2.41700006	6.97030067	-0.159999996	200	0	0
-2.41400003	6.97020006	-0.194000006	200	0	0
-2.41599989	6.97009993	-0.206	200	0	0
-2.41199994	6.97020006	-0.182999998	200	0	0
-2.41799998	6.97020006	-0.170000002	200	0	0
-2.41700006	6.97020006	-0.159999996	200	0	0
-2.41100001	6.97009993	-0.191	200	0	0
-2.41199994	6.97009993	-0.182999998	200	0	0
-2.41700006	6.97009993	-0.169	200	0	0
-2.42000008	6.97009993	-0.164000005	200	0	0
-2.421	6.97060013	-0.0829999968	200	0	0
-2.41300011	6.97060013	-0.147	200	0	0
-2.42000008	6.97060013	-0.118000001	200	0	0
-2.41199994	6.97060013	-0.181999996	200	0	0
-2.42000008	6.97060013	-0.172999993	200	0	0
-2.41899991	6.97060013	-0.126000002	200	0	0
-2.41599989	6.97060013	-0.141000003	200	0	0
-2.41599989	6.97060013	-0.0949999988	200	0	0
-2.41499996	6.97060013	-0.103	200	0	0
-2.41599989	6.97060013	-0.216000006	200	0	0
-2.41400003	6.97060013	-0.194999993	200	0	0
-2.41599989	6.97060013	-0.206	200	0	0
-2.42000008	6.97049999	-0.209999993	200	0	0
-2.42400002	6.97070026	-0.0769999996	200	0	0
-2.4230001	6.97070026	-0.0839999989	200	0	0
-2.41599989	6.97070026	-0.150000006	200	0	0
-2.41599989	6.97070026	-0.141000003	200	0	0
-2.41899991	6.97070026	-0.0979999974	200	0	0
-2.41899991	6.97070026	-0.107000001	200	0	0
-2.421	6.97070026	-0.128000006	200	0	0
-2.4230001	6.97070026	-0.120999999	200	0	0
-2.41199994	6.97070026	-0.202000007	200	0	0
-2.41300011	6.97070026	-0.193000004	200	0	0
-2.41400003	6.97070026	-0.185000002	200	0	0
-2.42000008	6.97070026	-0.172000006	200	0	0
-2.42000008	6.97070026	-0.163000003	200	0	0
-2.41700006	6.9708004	-0.104999997	200	0	0
-2.41400003	6.9708004	-0.185000002	200	0	0
-2.421	6.9708004	-0.118000001	200	0	0
-2.42000008	6.9708004	-0.172000006	200	0	0
-2.42000008	6.9708004	-0.126000002	200	0	0
-2.42000008	6.9708004	-0.163000003	200	0	0
-2.41599989	6.9708004	-0.141000003	200	0	0
-2.41599989	6.9708004	-0.150000006	200	0	0
-2.41700006	6.9708004	-0.0960000008	200	0	0
-2.42400002	6.9708004	-0.0860000029	200	0	0
-2.4289999	6.9708004	-0.0729999989	200	0	0
-2.42400002	6.9708004	-0.0759999976	200	0	0
-2.41599989	6.97090101	-0.141000003	200	0	0
-2.41899991	6.97090101	-0.152999997	200	0	0
-2.41799998	6.97090101	-0.208000004	200	0	0
-2.42000008	6.97090101	-0.163000003	200	0	0
-2.41700006	6.97090101	-0.197999999	200	0	0
-2.42000008	6.97090101	-0.172999993	200	0	0
-2.41599989	6.97090101	-0.187999994	200	0	0
-2.41599989	6.9708004	-0.206	200	0	0
-2.41499996	6.9708004	-0.194999993	200	0	0
-2.42499995	6.97090101	-0.0780000016	200	0	0
-2.42600012	6.97090101	-0.0879999995	200	0	0
-2.41799998	6.97090101	-0.0979999974	200	0	0
-2.41700006	6.97090101	-0.104999997	200	0	0
-2.42000008	6.97090101	-0.126000002	200	0	0
-2.4230001	6.97090101	-0.120999999	200	0	0
-2.421	6.97099972	-0.165000007	200	0	0
-2.4230001	6.97140026	-0.130999997	200	0	0
-2.42000008	6.97150087	-0.109999999	200	0	0
-2.41700006	6.97119999	-0.150999993	200	0	0
-2.41400003	6.97130013	-0.138999999	200	0	0
-2.41799998	6.97150087	-0.0989999995	200	0	0
-2.4230001	6.97150087	-0.0860000029	200	0	0
-2.43099999	6.97150087	-0.0759999976	200	0	0
-2.42600012	6.97150087	-0.0799999982	200	0	0
-2.41899991	6.97140026	-0.116999999	200	0	0
-2.41499996	6.97109985	-0.149000004	200	0	0
-2.42499995	6.97140026	-0.114	200	0	0
-2.42199993	6.97130013	-0.128999993	200	0	0
-2.41400003	6.97119999	-0.138999999	200	0	0
-2.41499996	6.97099972	-0.149000004	200	0	0
-2.41799998	6.97140026	-0.0979999974	200	0	0
-2.42000008	6.97130013	-0.118000001	200	0	0
-2.41499996	6.97109985	-0.138999999	200	0	0
-2.42400002	6.97140026	-0.0860000029	200	0	0
-2.42700005	6.97140026	-0.0810000002	200	0	0
-2.42199993	6.97119999	-0.128999993	200	0	0
-2.41700006	6.97130013	-0.105999999	200	0	0
-2.41499996	6.97099972	-0.140000001	200	0	0
-2.42199993	6.97119999	-0.120999999	200	0	0
-2.41799998	6.97130013	-0.0979999974	200	0	0
-2.42199993	6.97109985	-0.128999993	200	0	0
-2.42000008	6.97130013	-0.0820000023	200	0	0
-2.42499995	6.97130013	-0.0780000016	200	0	0
-2.41700006	6.97119999	-0.105999999	200	0	0
-2.42199993	6.97099972	-0.128999993	200	0	0
-2.42000008	6.97109985	-0.118000001	200	0	0
-2.41899991	6.97119999	-0.0989999995	200	0	0
-2.42400002	6.97099972	-0.122000001	200	0	0
-2.421	6.97119999	-0.0829999968	200	0	0
-2.42400002	6.97119999	-0.0769999996	200	0	0
-2.41700006	6.97109985	-0.105999999	200	0	0
-2.41599989	6.97109985	-0.0960000008	200	0	0
-2.41899991	6.97099972	-0.107000001	200	0	0
-2.4230001	6.97109985	-0.0850000009	200	0	0
-2.42499995	6.97109985	-0.0780000016	200	0	0
-2.41899991	6.97099972	-0.0979999974	200	0	0
-2.4230001	6.97099972	-0.0850000009	200	0	0
-2.42400002	6.97099972	-0.0769999996	200	0	0
-2.41400003	6.97109985	-0.194000006	200	0	0
-2.42000008	6.97130013	-0.172999993	200	0	0
-2.41300011	6.97119999	-0.184	200	0	0
-2.41700006	6.97140026	-0.151999995	200	0	0
-2.41799998	6.97140026	-0.143999994	200	0	0
-2.41400003	6.97099972	-0.194999993	200	0	0
-2.41599989	6.97109985	-0.187000006	200	0	0
-2.41799998	6.97130013	-0.162	200	0	0
-2.42000008	6.97119999	-0.173999995	200	0	0
-2.41499996	6.97130013	-0.149000004	200	0	0
-2.41499996	6.97099972	-0.186000004	200	0	0
-2.42000008	6.97119999	-0.164000005	200	0	0
-2.42000008	6.97109985	-0.172999993	200	0	0
-2.421	6.97099972	-0.173999995	200	0	0
-2.41899991	6.97109985	-0.163000003	200	0	0
-2.41599989	6.97099972	-0.206	200	0	0
-2.4230001	6.97150087	-0.122000001	200	0	0
-2.41700006	6.97140026	-0.217999995	200	0	0
-2.41400003	6.97150087	-0.195999995	200	0	0
-2.421	6.97150087	-0.128999993	200	0	0
-2.41599989	6.97150087	-0.188999996	200	0	0
-2.42000008	6.97140026	-0.210999995	200	0	0
-2.41400003	6.97150087	-0.140000001	200	0	0
-2.41799998	6.97150087	-0.172000006	200	0	0
-2.41799998	6.97150087	-0.152999997	200	0	0
-2.41799998	6.97130013	-0.218999997	200	0	0
-2.42000008	6.97150087	-0.165000007	200	0	0
-2.41300011	6.97140026	-0.194000006	200	0	0
-2.41799998	6.97130013	-0.209000006	200	0	0
-2.41599989	6.97140026	-0.187999994	200	0	0
-2.41700006	6.97119999	-0.216999993	200	0	0
-2.421	6.97140026	-0.174999997	200	0	0
-2.41899991	6.97140026	-0.164000005	200	0	0
-2.421	6.97119999	-0.211999997	200	0	0
-2.41199994	6.97130013	-0.192000002	200	0	0
-2.41799998	6.97109985	-0.216999993	200	0	0
-2.41300011	6.97130013	-0.185000002	200	0	0
-2.41499996	6.97119999	-0.195999995	200	0	0
-2.41599989	6.97109985	-0.207000002	200	0	0
-2.41599989	6.97150087	-0.208000004	200	0	0
-2.41899991	6.97159958	-0.173999995	200	0	0
-2.41499996	6.97159958	-0.141000003	200	0	0
-2.41400003	6.97159958	-0.195999995	200	0	0
-2.41599989	6.97159958	-0.208000004	200	0	0
-2.41899991	6.97159958	-0.108999997	200	0	0
-2.41700006	6.97159958	-0.0979999974	200	0	0
-2.42199993	6.97159958	-0.0850000009	200	0	0
-2.42499995	6.97159958	-0.0799999982	200	0	0
-2.42199993	6.97159958	-0.120999999	200	0	0
-2.41599989	6.97169971	-0.150999993	200	0	0
-2.41599989	6.97159958	-0.188999996	200	0	0
-2.4230001	6.97159958	-0.130999997	200	0	0
-2.421	6.97159958	-0.165999994	200	0	0
-2.41599989	6.97159958	-0.150999993	200	0	0
-2.41899991	6.97169971	-0.100000001	200	0	0
-2.41700006	6.97169971	-0.107000001	200	0	0
-2.421	6.97169971	-0.129999995	200	0	0
-2.421	6.97169971	-0.120999999	200	0	0
-2.41700006	6.97159958	-0.218999997	200	0	0
-2.41400003	6.97169971	-0.187000006	200	0	0
-2.41799998	6.97169971	-0.143999994	200	0	0
-2.42700005	6.97169971	-0.0810000002	200	0	0
-2.42400002	6.97169971	-0.0869999975	200	0	0
-2.41300011	6.97179985	-0.186000004	200	0	0
-2.41599989	6.97169971	-0.217999995	200	0	0
-2.41799998	6.97169971	-0.209999993	200	0	0
-2.4230001	6.97169971	-0.167999998	200	0	0
-2.41899991	6.97169971	-0.173999995	200	0	0
-2.41499996	6.97169971	-0.196999997	200	0	0
-2.4230001	6.97179985	-0.0860000029	200	0	0
-2.41700006	6.97189999	-0.143999994	200	0	0
-2.421	6.97179985	-0.101999998	200	0	0
-2.42000008	6.97179985	-0.174999997	200	0	0
-2.41899991	6.97179985	-0.108999997	200	0	0
-2.42199993	6.97179985	-0.167999998	200	0	0
-2.4230001	6.97179985	-0.123000003	200	0	0
-2.41799998	6.97179985	-0.153999999	200	0	0
-2.421	6.97179985	-0.129999995	200	0	0
-2.41700006	6.97179985	-0.143999994	200	0	0
-2.41599989	6.97189999	-0.151999995	200	0	0
-2.41700006	6.97189999	-0.209000006	200	0	0
-2.41799998	6.97179985	-0.219999999	200	0	0
-2.41499996	6.97179985	-0.197999999	200	0	0
-2.41799998	6.97179985	-0.209999993	200	0	0
-2.42000008	6.97189999	-0.165000007	200	0	0
-2.41400003	6.97189999	-0.195999995	200	0	0
-2.41899991	6.97189999	-0.173999995	200	0	0
-2.41300011	6.97189999	-0.186000004	200	0	0
-2.42499995	6.97189999	-0.0799999982	200	0	0
-2.42499995	6.97179985	-0.0799999982	200	0	0
-2.4230001	6.97189999	-0.0860000029	200	0	0
-2.41799998	6.97189999	-0.100000001	200	0	0
-2.41700006	6.97189999	-0.107000001	200	0	0
-2.4230001	6.97189999	-0.123000003	200	0	0
-2.42400002	6.97189999	-0.133000001	200	0	0
-2.41499996	6.97219992	-0.188999996	200	0	0
-2.42700005	6.97229958	-0.0920000002	200	0	0
-2.421	6.97229958	-0.166999996	200	0	0
-2.41199994	6.97210026	-0.194999993	200	0	0
-2.42000008	6.97229958	-0.101999998	200	0	0
-2.42600012	6.97219992	-0.0810000002	200	0	0
-2.41700006	6.97229958	-0.153999999	200	0	0
-2.42199993	6.97219992	-0.178000003	200	0	0
-2.4230001	6.97229958	-0.115000002	200	0	0
-2.41899991	6.97229958	-0.145999998	200	0	0
-2.41499996	6.97210026	-0.188999996	200	0	0
-2.4230001	6.97219992	-0.0869999975	200	0	0
-2.42199993	6.97229958	-0.122000001	200	0	0
-2.42400002	6.97229958	-0.133000001	200	0	0
-2.42799997	6.97210026	-0.075000003	200	0	0
-2.41400003	6.97200012	-0.196999997	200	0	0
-2.42000008	6.97219992	-0.165999994	200	0	0
-2.42700005	6.97210026	-0.0820000023	200	0	0
-2.42000008	6.97219992	-0.101999998	200	0	0
-2.41499996	6.97200012	-0.188999996	200	0	0
-2.421	6.97210026	-0.177000001	200	0	0
-2.41700006	6.97219992	-0.153999999	200	0	0
-2.4230001	6.97219992	-0.114	200	0	0
-2.41700006	6.97219992	-0.143999994	200	0	0
-2.42499995	6.97210026	-0.0900000036	200	0	0
-2.42199993	6.97219992	-0.122000001	200	0	0
-2.42199993	6.97219992	-0.131999999	200	0	0
-2.42199993	6.97210026	-0.167999998	200	0	0
-2.42400002	6.97200012	-0.0799999982	200	0	0
-2.41700006	6.97210026	-0.0989999995	200	0	0
-2.42700005	6.97189999	-0.0729999989	200	0	0
-2.41899991	6.97210026	-0.156000003	200	0	0
-2.41899991	6.97200012	-0.173999995	200	0	0
-2.42499995	6.97200012	-0.0900000036	200	0	0
-2.42400002	6.97210026	-0.115000002	200	0	0
-2.41700006	6.97210026	-0.144999996	200	0	0
-2.42199993	6.97200012	-0.167999998	200	0	0
-2.42400002	6.97210026	-0.123999998	200	0	0
-2.42199993	6.97210026	-0.130999997	200	0	0
-2.41799998	6.97200012	-0.100000001	200	0	0
-2.41599989	6.97200012	-0.152999997	200	0	0
-2.41799998	6.97200012	-0.108999997	200	0	0
-2.41899991	6.97200012	-0.145999998	200	0	0
-2.4230001	6.97200012	-0.123000003	200	0	0
-2.42400002	6.97200012	-0.133000001	200	0	0
-2.421	6.97249985	-0.112999998	200	0	0
-2.41799998	6.97239971	-0.145999998	200	0	0
-2.42700005	6.97239971	-0.0820000023	200	0	0
-2.42499995	6.97239971	-0.135000005	200	0	0
-2.42700005	6.97239971	-0.0920000002	200	0	0
-2.4230001	6.97239971	-0.123999998	200	0	0
-2.42199993	6.97239971	-0.104000002	200	0	0
-2.421	6.97239971	-0.112999998	200	0	0
-2.42700005	6.97229958	-0.0820000023	200	0	0
-2.41799998	6.97189999	-0.219999999	200	0	0
-2.4289999	6.97249985	-0.0759999976	200	0	0
-2.42199993	6.97200012	-0.224000007	200	0	0
-2.41799998	6.97200012	-0.210999995	200	0	0
-2.41700006	6.97219992	-0.209999993	200	0	0
-2.42000008	6.97210026	-0.222000003	200	0	0
-2.41400003	6.97219992	-0.196999997	200	0	0
-2.41799998	6.97210026	-0.210999995	200	0	0
-2.41700006	6.97239971	-0.153999999	200	0	0
-2.41700006	6.97229958	-0.191	200	0	0
-2.42000008	6.97229958	-0.175999999	200	0	0
-2.42400002	6.97249985	-0.125	200	0	0
-2.41599989	6.97229958	-0.199000001	200	0	0
-2.42000008	6.97229958	-0.213	200	0	0
-2.41799998	6.97229958	-0.221000001	200	0	0
-2.41300011	6.97219992	-0.233999997	200	0	0
-2.41599989	6.97219992	-0.217999995	200	0	0
-2.41199994	6.97210026	-0.232999995	200	0	0
-2.41400003	6.97249985	-0.197999999	200	0	0
-2.41300011	6.97239971	-0.234999999	200	0	0
-2.421	6.97239971	-0.167999998	200	0	0
-2.41899991	6.97239971	-0.222000003	200	0	0
-2.42000008	6.97239971	-0.175999999	200	0	0
-2.42000008	6.97239971	-0.214000002	200	0	0
-2.41700006	6.97239971	-0.191	200	0	0
-2.41400003	6.97239971	-0.197999999	200	0	0
-2.41599989	6.97249985	-0.189999998	200	0	0
-2.41899991	6.97249985	-0.156000003	200	0	0
-2.421	6.97249985	-0.167999998	200	0	0
-2.421	6.97249985	-0.215000004	200	0	0
-2.42400002	6.97249985	-0.134000003	200	0	0
-2.41700006	6.97249985	-0.143999994	200	0	0
-2.42199993	6.97249985	-0.178000003	200	0	0
-2.42000008	6.97249985	-0.103	200	0	0
-2.41100001	6.97249985	-0.231999993	200	0	0
-2.41899991	6.97249985	-0.223000005	200	0	0
-2.41499996	6.97249985	-0.246000007	200	0	0
-2.4289999	6.97249985	-0.0939999968	200	0	0
-2.41499996	6.97259998	-0.188999996	200	0	0
-2.4230001	6.97259998	-0.115000002	200	0	0
-2.42199993	6.97259998	-0.178000003	200	0	0
-2.42400002	6.97259998	-0.125	200	0	0
-2.42499995	6.97259998	-0.135000005	200	0	0
-2.421	6.97259998	-0.167999998	200	0	0
-2.41899991	6.97259998	-0.157000005	200	0	0
-2.41899991	6.97259998	-0.147	200	0	0
-2.42700005	6.97259998	-0.0829999968	200	0	0
-2.42700005	6.97259998	-0.0920000002	200	0	0
-2.42000008	6.97259998	-0.103	200	0	0
-2.41400003	6.97249985	-0.254999995	200	0	0
-2.41899991	6.97259998	-0.222000003	200	0	0
-2.421	6.97259998	-0.215000004	200	0	0
-2.41499996	6.97259998	-0.199000001	200	0	0
-2.41300011	6.97259998	-0.244000003	200	0	0
-2.42000008	6.97270012	-0.148000002	200	0	0
-2.41899991	6.97270012	-0.222000003	200	0	0
-2.41799998	6.97270012	-0.155000001	200	0	0
-2.41899991	6.97270012	-0.211999997	200	0	0
-2.41400003	6.97259998	-0.234999999	200	0	0
-2.421	6.97270012	-0.167999998	200	0	0
-2.41599989	6.97270012	-0.199000001	200	0	0
-2.42199993	6.97270012	-0.178000003	200	0	0
-2.41400003	6.97270012	-0.187999994	200	0	0
-2.42600012	6.97270012	-0.127000004	200	0	0
-2.41899991	6.97270012	-0.111000001	200	0	0
-2.4230001	6.97270012	-0.105999999	200	0	0
-2.42799997	6.97270012	-0.0930000022	200	0	0
-2.42799997	6.97270012	-0.0839999989	200	0	0
-2.42199993	6.97280073	-0.104000002	200	0	0
-2.42400002	6.97280073	-0.180000007	200	0	0
-2.41899991	6.97280073	-0.109999999	200	0	0
-2.4230001	6.97280073	-0.170000002	200	0	0
-2.4230001	6.97280073	-0.123000003	200	0	0
-2.4230001	6.97280073	-0.133000001	200	0	0
-2.41499996	6.97280073	-0.151999995	200	0	0
-2.41899991	6.97280073	-0.147	200	0	0
-2.42199993	6.97270012	-0.131999999	200	0	0
-2.41599989	6.97280073	-0.189999998	200	0	0
-2.41300011	6.97280073	-0.233999997	200	0	0
-2.41899991	6.97280073	-0.222000003	200	0	0
-2.41599989	6.97280073	-0.200000003	200	0	0
-2.41899991	6.97280073	-0.211999997	200	0	0
-2.41100001	6.97270012	-0.231999993	200	0	0
-2.42700005	6.97280073	-0.0909999982	200	0	0
-2.43199992	6.97280073	-0.0790000036	200	0	0
-2.42799997	6.97280073	-0.0829999968	200	0	0
-2.4230001	6.97310019	-0.150000006	200	0	0
-2.42600012	6.97300005	-0.136000007	200	0	0
-2.42400002	6.97289991	-0.125	200	0	0
-2.42199993	6.97310019	-0.158999994	200	0	0
-2.42199993	6.97310019	-0.215000004	200	0	0
-2.41100001	6.97280073	-0.25999999	200	0	0
-2.41499996	6.97300005	-0.236000001	200	0	0
-2.42600012	6.97310019	-0.172999993	200	0	0
-2.42199993	6.97310019	-0.177000001	200	0	0
-2.41899991	6.97310019	-0.202000007	200	0	0
-2.42000008	6.97310019	-0.194000006	200	0	0
-2.42199993	6.97300005	-0.150000006	200	0	0
-2.42499995	6.97289991	-0.135000005	200	0	0
-2.42199993	6.97300005	-0.224999994	200	0	0
-2.41799998	6.97300005	-0.155000001	200	0	0
-2.42199993	6.97300005	-0.216000006	200	0	0
-2.42499995	6.97300005	-0.172000006	200	0	0
-2.41899991	6.97289991	-0.145999998	200	0	0
-2.42199993	6.97300005	-0.177000001	200	0	0
-2.41799998	6.97300005	-0.202000007	200	0	0
-2.41899991	6.97300005	-0.193000004	200	0	0
-2.42000008	6.97289991	-0.222000003	200	0	0
-2.41899991	6.97289991	-0.156000003	200	0	0
-2.421	6.97289991	-0.214000002	200	0	0
-2.421	6.97289991	-0.166999996	200	0	0
-2.42199993	6.97289991	-0.178000003	200	0	0
-2.41599989	6.97289991	-0.199000001	200	0	0
-2.41799998	6.97289991	-0.192000002	200	0	0
-2.42799997	6.97319984	-0.128000006	200	0	0
-2.4230001	6.97319984	-0.114	200	0	0
-2.42600012	6.97310019	-0.136000007	200	0	0
-2.42400002	6.97319984	-0.105999999	200	0	0
-2.43300009	6.97319984	-0.0790000036	200	0	0
-2.43000007	6.97319984	-0.0860000029	200	0	0
-2.4289999	6.97319984	-0.0939999968	200	0	0
-2.42700005	6.97310019	-0.127000004	200	0	0
-2.4230001	6.97310019	-0.114	200	0	0
-2.42499995	6.97310019	-0.107000001	200	0	0
-2.43300009	6.97310019	-0.0879999995	200	0	0
-2.43099999	6.97310019	-0.0949999988	200	0	0
-2.42499995	6.97300005	-0.125	200	0	0
-2.4230001	6.97300005	-0.114	200	0	0
-2.42499995	6.97300005	-0.108000003	200	0	0
-2.43300009	6.97300005	-0.0799999982	200	0	0
-2.43099999	6.97300005	-0.0869999975	200	0	0
-2.4289999	6.97300005	-0.0930000022	200	0	0
-2.42400002	6.97289991	-0.115000002	200	0	0
-2.42199993	6.97289991	-0.104000002	200	0	0
-2.4289999	6.97289991	-0.0850000009	200	0	0
-2.4289999	6.97289991	-0.0930000022	200	0	0
-2.42199993	6.97319984	-0.195999995	200	0	0
-2.43000007	6.97319984	-0.140000001	200	0	0
-2.4230001	6.97319984	-0.150999993	200	0	0
-2.42600012	6.97319984	-0.181999996	200	0	0
-2.42700005	6.97319984	-0.172999993	200	0	0
-2.4230001	6.97319984	-0.159999996	200	0	0
-2.42499995	6.97340107	-0.151999995	200	0	0
-2.43300009	6.97340107	-0.0790000036	200	0	0
-2.43099999	6.97340107	-0.141000003	200	0	0
-2.43099999	6.97340107	-0.0869999975	200	0	0
-2.43099999	6.97340107	-0.131999999	200	0	0
-2.42199993	6.97329998	-0.158999994	200	0	0
-2.43199992	6.97340107	-0.0970000029	200	0	0
-2.42799997	6.97340107	-0.109999999	200	0	0
-2.42499995	6.97340107	-0.116999999	200	0	0
-2.42499995	6.97329998	-0.151999995	200	0	0
-2.43199992	6.97329998	-0.0780000016	200	0	0
-2.43000007	6.97329998	-0.140000001	200	0	0
-2.43099999	6.97329998	-0.0869999975	200	0	0
-2.43199992	6.97329998	-0.0970000029	200	0	0
-2.42799997	6.97329998	-0.128000006	200	0	0
-2.42400002	6.97329998	-0.105999999	200	0	0
-2.42600012	6.97329998	-0.116999999	200	0	0
-2.42499995	6.97329998	-0.180999994	200	0	0
-2.42799997	6.97329998	-0.173999995	200	0	0
-2.41700006	6.97310019	-0.238000005	200	0	0
-2.42199993	6.97329998	-0.195999995	200	0	0
-2.42499995	6.97340107	-0.162	200	0	0
-2.42799997	6.97340107	-0.173999995	200	0	0
-2.42499995	6.97340107	-0.217999995	200	0	0
-2.42600012	6.97340107	-0.181999996	200	0	0
-2.421	6.97340107	-0.203999996	200	0	0
-2.42199993	6.97340107	-0.195999995	200	0	0
-2.42700005	6.97349977	-0.155000001	200	0	0
-2.42499995	6.97349977	-0.218999997	200	0	0
-2.42499995	6.97349977	-0.163000003	200	0	0
-2.4289999	6.97349977	-0.175999999	200	0	0
-2.42199993	6.97349977	-0.206	200	0	0
-2.42799997	6.97349977	-0.184	200	0	0
-2.42199993	6.97349977	-0.195999995	200	0	0
-2.43199992	6.97349977	-0.0780000016	200	0	0
-2.43099999	6.97349977	-0.0869999975	200	0	0
-2.43000007	6.97349977	-0.140000001	200	0	0
-2.43300009	6.97349977	-0.0970000029	200	0	0
-2.43099999	6.97349977	-0.131999999	200	0	0
-2.42600012	6.97349977	-0.108999997	200	0	0
-2.42600012	6.97349977	-0.116999999	200	0	0
-2.43000007	6.97359991	-0.186000004	200	0	0
-2.4289999	6.97359991	-0.111000001	200	0	0
-2.43099999	6.97359991	-0.178000003	200	0	0
-2.4289999	6.97359991	-0.119999997	200	0	0
-2.43199992	6.97359991	-0.133000001	200	0	0
