-9.15600014	6.63719988	2.76999998	200	0	0
-9.12300014	6.63770008	2.84699988	200	0	0
-9.13500023	6.63739967	2.86299992	200	0	0
-9.12199974	6.63780069	2.704	200	0	0
-9.12899971	6.63759995	2.68799996	200	0	0
-9.13899994	6.63730001	2.86299992	200	0	0
-9.12699986	6.63759995	2.84699988	200	0	0
-9.13099957	6.63749981	2.68799996	200	0	0
-9.1239996	6.63770008	2.704	200	0	0
-9.13000011	6.63739967	2.68799996	200	0	0
-9.11699963	6.63780069	2.7190001	200	0	0
-9.12899971	6.63749981	2.84699988	200	0	0
-9.11299992	6.63780069	2.81500006	200	0	0
-9.13300037	6.63730001	2.68799996	200	0	0
-9.12899971	6.63739967	2.84699988	200	0	0
-9.12699986	6.63759995	2.704	200	0	0
-9.14099979	6.63719988	2.69000006	200	0	0
-9.11400032	6.63780069	2.7349999	200	0	0
-9.14299965	6.63730001	2.84800005	200	0	0
-9.12300014	6.63770008	2.72000003	200	0	0
-9.13000011	6.63749981	2.704	200	0	0
-9.1239996	6.63770008	2.81500006	200	0	0
-9.12300014	6.63780069	2.79900002	200	0	0
-9.11699963	6.63780069	2.78299999	200	0	0
-9.13500023	6.63739967	2.704	200	0	0
-9.1260004	6.63759995	2.72000003	200	0	0
-9.12199974	6.63770008	2.7349999	200	0	0
-9.13700008	6.63730001	2.704	200	0	0
-9.12199974	6.63780069	2.76699996	200	0	0
-9.1260004	6.63759995	2.81500006	200	0	0
-9.1239996	6.63770008	2.79900002	200	0	0
-9.14999962	6.63719988	2.70600009	200	0	0
-9.13000011	6.63749981	2.72000003	200	0	0
-9.1260004	6.63770008	2.78299999	200	0	0
-9.13199997	6.63749981	2.81500006	200	0	0
-9.1260004	6.63770008	2.76699996	200	0	0
-9.13399982	6.63739967	2.72000003	200	0	0
-9.13199997	6.63759995	2.73600006	200	0	0
-9.12800026	6.63739967	2.81500006	200	0	0
-9.12899971	6.63759995	2.79900002	200	0	0
-9.13599968	6.63730001	2.72000003	200	0	0
-9.1260004	6.63759995	2.78299999	200	0	0
-9.125	6.63759995	2.76699996	200	0	0
-9.13599968	6.63730001	2.81500006	200	0	0
-9.13500023	6.63749981	2.73600006	200	0	0
-9.13199997	6.63749981	2.79900002	200	0	0
-9.15600014	6.63719988	2.72199988	200	0	0
-9.13500023	6.63739967	2.73600006	200	0	0
-9.13000011	6.63739967	2.79900002	200	0	0
-9.13399982	6.63749981	2.78399992	200	0	0
-9.13799953	6.63730001	2.73600006	200	0	0
-9.13099957	6.63749981	2.76799989	200	0	0
-9.13599968	6.63730001	2.79999995	200	0	0
-9.15400028	6.63719988	2.73799992	200	0	0
-9.13599968	6.63739967	2.78399992	200	0	0
-9.13500023	6.63739967	2.76799989	200	0	0
-9.13700008	6.63730001	2.78399992	200	0	0
-9.14299965	6.63730001	2.76799989	200	0	0
-9.13000011	6.63749981	2.94300008	200	0	0
-9.15600014	6.63719988	2.76999998	200	0	0
-9.12800026	6.63759995	2.94300008	200	0	0
-9.1260004	6.63770008	2.94300008	200	0	0
-9.12199974	6.63780069	2.94199991	200	0	0
-9.13199997	6.63730001	2.92700005	200	0	0
-9.13700008	6.63739967	2.92700005	200	0	0
-9.13700008	6.63749981	2.92700005	200	0	0
-9.12800026	6.63759995	2.92700005	200	0	0
-9.11900043	6.63780069	2.92600012	200	0	0
-9.12199974	6.63770008	2.92600012	200	0	0
-9.14099979	6.63730001	2.89499998	200	0	0
-9.13899994	6.63739967	2.89499998	200	0	0
-9.14099979	6.63730001	2.87899995	200	0	0
-9.13199997	6.63749981	2.89499998	200	0	0
-9.12800026	6.63759995	2.89499998	200	0	0
-9.1239996	6.63780069	2.89499998	200	0	0
-9.12699986	6.63770008	2.89499998	200	0	0
-9.13599968	6.63739967	2.87899995	200	0	0
-9.13199997	6.63749981	2.87899995	200	0	0
-9.125	6.63759995	2.87899995	200	0	0
-9.1239996	6.63780069	2.87899995	200	0	0
-9.12100029	6.63770008	2.87899995	200	0	0
-9.13000011	6.63749981	2.86299992	200	0	0
-9.12899971	6.63759995	2.86299992	200	0	0
-9.11600018	6.63780069	2.86199999	200	0	0
-9.1260004	6.63770008	2.86299992	200	0	0
-9.11900043	6.63780069	2.84699988	200	0	0
-9.12899971	6.63759995	2.95900011	200	0	0
-9.13799953	6.63730001	2.95900011	200	0	0
-9.13399982	6.63749981	2.95900011	200	0	0
-9.13899994	6.63739967	2.95900011	200	0	0
-9.13500023	6.63730001	2.94300008	200	0	0
-9.14000034	6.63739967	2.94300008	200	0	0
-9.125	6.63759995	2.60800004	200	0	0
-9.12699986	6.63770008	2.60800004	200	0	0
-9.12100029	6.63780069	2.60800004	200	0	0
-9.13599968	6.63730001	2.62400007	200	0	0
-9.14799976	6.63719988	2.64199996	200	0	0
-9.13000011	6.63739967	2.62400007	200	0	0
-9.12800026	6.63749981	2.62400007	200	0	0
-9.12800026	6.63759995	2.62400007	200	0	0
-9.13700008	6.63730001	2.6400001	200	0	0
-9.1239996	6.63770008	2.62400007	200	0	0
-9.12199974	6.63780069	2.62400007	200	0	0
-9.14599991	6.63719988	2.65799999	200	0	0
-9.13199997	6.63739967	2.6400001	200	0	0
-9.13199997	6.63749981	2.6400001	200	0	0
-9.13599968	6.63730001	2.6559999	200	0	0
-9.12800026	6.63759995	2.6400001	200	0	0
-9.11999989	6.63770008	2.6400001	200	0	0
-9.125	6.63780069	2.6400001	200	0	0
-9.13199997	6.63739967	2.6559999	200	0	0
-9.12800026	6.63749981	2.6559999	200	0	0
-9.1239996	6.63759995	2.6559999	200	0	0
-9.11900043	6.63770008	2.6559999	200	0	0
-9.11999989	6.63780069	2.6559999	200	0	0
-9.125	6.63770008	2.68799996	200	0	0
-9.12199974	6.63780069	2.68799996	200	0	0
-9.1420002	6.63719988	2.6099999	200	0	0
-9.13700008	6.63730001	2.60800004	200	0	0
-9.13399982	6.63739967	2.60800004	200	0	0
-9.13000011	6.63749981	2.60800004	200	0	0
-9.14500046	6.63719988	2.62599993	200	0	0
-9.1239996	6.63780069	3.03800011	200	0	0
-9.14299965	6.63730001	3.03900003	200	0	0
-9.12800026	6.63770008	3.03800011	200	0	0
-9.13399982	6.63759995	3.03900003	200	0	0
-9.13199997	6.63749981	3.03900003	200	0	0
-9.12100029	6.63780069	3.02200007	200	0	0
-9.13899994	6.63730001	3.023	200	0	0
-9.12300014	6.63770008	3.02200007	200	0	0
-9.13399982	6.63739967	3.023	200	0	0
-9.13099957	6.63759995	3.023	200	0	0
-9.13000011	6.63749981	3.02200007	200	0	0
-9.11999989	6.63780069	3.00600004	200	0	0
-9.14099979	6.63730001	3.00699997	200	0	0
-9.13099957	6.63770008	3.00699997	200	0	0
-9.13399982	6.63739967	3.00699997	200	0	0
-9.13399982	6.63749981	3.00699997	200	0	0
-9.13000011	6.63759995	3.00600004	200	0	0
-9.1239996	6.63780069	2.97399998	200	0	0
-9.13899994	6.63730001	2.9749999	200	0	0
-9.12699986	6.63770008	2.97399998	200	0	0
-9.12199974	6.63780069	2.95799994	200	0	0
-9.13500023	6.63739967	2.9749999	200	0	0
-9.13099957	6.63759995	2.9749999	200	0	0
-9.13000011	6.63749981	2.9749999	200	0	0
-9.12300014	6.63770008	2.95799994	200	0	0
-9.1239996	6.63780069	3.0539999	200	0	0
-9.13199997	6.63770008	3.05500007	200	0	0
-9.13300037	6.63759995	3.05500007	200	0	0
-9.13099957	6.63749981	3.0539999	200	0	0
-9.14000034	6.63730001	3.05500007	200	0	0
-9.1420002	6.63719988	2.52999997	200	0	0
-9.13199997	6.63730001	2.52900004	200	0	0
-9.13399982	6.63739967	2.52900004	200	0	0
-9.12300014	6.63780069	2.52900004	200	0	0
-9.13300037	6.63749981	2.52900004	200	0	0
-9.1239996	6.63770008	2.52900004	200	0	0
-9.12699986	6.63759995	2.52900004	200	0	0
-9.13799953	6.63719988	2.546	200	0	0
-9.13399982	6.63730001	2.54500008	200	0	0
-9.11499977	6.63780069	2.54500008	200	0	0
-9.13000011	6.63739967	2.54500008	200	0	0
-9.13500023	6.63749981	2.54500008	200	0	0
-9.12100029	6.63770008	2.54500008	200	0	0
-9.1420002	6.63719988	2.56200004	200	0	0
-9.12199974	6.63759995	2.54500008	200	0	0
-9.13199997	6.63730001	2.56100011	200	0	0
-9.14400005	6.63719988	2.57800007	200	0	0
-9.13199997	6.63739967	2.56100011	200	0	0
-9.12100029	6.63780069	2.56100011	200	0	0
-9.12800026	6.63749981	2.56100011	200	0	0
-9.12699986	6.63770008	2.56100011	200	0	0
-9.1260004	6.63759995	2.56100011	200	0	0
-9.13399982	6.63730001	2.5769999	200	0	0
-9.13599968	6.63739967	2.5769999	200	0	0
-9.11800003	6.63780069	2.57599998	200	0	0
-9.12100029	6.63770008	2.57599998	200	0	0
-9.12699986	6.63749981	2.5769999	200	0	0
-9.13000011	6.63759995	2.5769999	200	0	0
-9.13399982	6.63759995	3.13499999	200	0	0
-9.1420002	6.63730001	3.11899996	200	0	0
-9.12699986	6.63770008	3.13400006	200	0	0
-9.12300014	6.63780069	3.13400006	200	0	0
-9.14599991	6.63739967	3.11899996	200	0	0
-9.13399982	6.63749981	3.11899996	200	0	0
-9.13899994	6.63730001	3.10299993	200	0	0
-9.13099957	6.63759995	3.11800003	200	0	0
-9.12899971	6.63770008	3.11800003	200	0	0
-9.12699986	6.63780069	3.11800003	200	0	0
-9.13199997	6.63739967	3.102	200	0	0
-9.14400005	6.63730001	3.08699989	200	0	0
-9.13199997	6.63749981	3.102	200	0	0
-9.13300037	6.63759995	3.102	200	0	0
-9.125	6.63770008	3.102	200	0	0
-9.1239996	6.63780069	3.102	200	0	0
-9.13300037	6.63739967	3.08699989	200	0	0
-9.13000011	6.63749981	3.08599997	200	0	0
-9.125	6.63759995	3.08599997	200	0	0
-9.12699986	6.63770008	3.08599997	200	0	0
-9.12199974	6.63780069	3.08599997	200	0	0
-9.13500023	6.63749981	3.13499999	200	0	0
-9.1420002	6.63730001	3.13499999	200	0	0
-9.1260004	6.63770008	2.44899988	200	0	0
-9.11600018	6.63780069	2.46499991	200	0	0
-9.13000011	6.63759995	2.44899988	200	0	0
-9.125	6.63770008	2.46499991	200	0	0
-9.13599968	6.63739967	2.44899988	200	0	0
-9.13899994	6.63730001	2.44899988	200	0	0
-9.125	6.63780069	2.48099995	200	0	0
-9.12800026	6.63759995	2.46499991	200	0	0
-9.1239996	6.63770008	2.48099995	200	0	0
-9.13399982	6.63749981	2.46499991	200	0	0
-9.12199974	6.63780069	2.49699998	200	0	0
-9.13599968	6.63739967	2.46499991	200	0	0
-9.13599968	6.63730001	2.46499991	200	0	0
-9.12899971	6.63759995	2.48099995	200	0	0
-9.14299965	6.63719988	2.46700001	200	0	0
-9.1239996	6.63770008	2.49699998	200	0	0
-9.12899971	6.63749981	2.48099995	200	0	0
-9.13500023	6.63739967	2.48099995	200	0	0
-9.13000011	6.63759995	2.49699998	200	0	0
-9.13399982	6.63730001	2.48099995	200	0	0
-9.14299965	6.63719988	2.48300004	200	0	0
-9.13000011	6.63749981	2.49699998	200	0	0
-9.13399982	6.63739967	2.49699998	200	0	0
-9.13599968	6.63730001	2.49699998	200	0	0
-9.14700031	6.63719988	2.49900007	200	0	0
-9.11999989	6.63780069	2.44899988	200	0	0
-9.14000034	6.63730001	3.21499991	200	0	0
-9.14000034	6.63739967	3.21499991	200	0	0
-9.125	6.63780069	3.21399999	200	0	0
-9.13799953	6.63749981	3.21499991	200	0	0
-9.13899994	6.63759995	3.21499991	200	0	0
-9.125	6.63770008	3.21399999	200	0	0
-9.14700031	6.63730001	3.20000005	200	0	0
-9.13899994	6.63739967	3.19899988	200	0	0
-9.1260004	6.63780069	3.19799995	200	0	0
-9.13799953	6.63749981	3.19899988	200	0	0
-9.12899971	6.63770008	3.19799995	200	0	0
-9.12899971	6.63759995	3.19799995	200	0	0
-9.1420002	6.63730001	3.18300009	200	0	0
-9.1239996	6.63780069	3.18199992	200	0	0
-9.13500023	6.63739967	3.18300009	200	0	0
-9.13700008	6.63749981	3.18300009	200	0	0
-9.1260004	6.63770008	3.18199992	200	0	0
-9.13500023	6.63759995	3.18300009	200	0	0
-9.12100029	6.63730001	3.16599989	200	0	0
-9.12300014	6.63780069	3.16599989	200	0	0
-9.13799953	6.63739967	3.16700006	200	0	0
-9.12199974	6.63770008	3.16599989	200	0	0
-9.13399982	6.63749981	3.16599989	200	0	0
-9.13300037	6.63759995	3.16599989	200	0	0
-9.1420002	6.63719988	2.37100005	200	0	0
-9.13199997	6.63730001	2.36999989	200	0	0
-9.13399982	6.63739967	2.36999989	200	0	0
-9.13000011	6.63749981	2.36999989	200	0	0
-9.14099979	6.63719988	2.38700008	200	0	0
-9.12300014	6.63780069	2.36999989	200	0	0
-9.125	6.63759995	2.36999989	200	0	0
-9.12300014	6.63770008	2.36999989	200	0	0
-9.13199997	6.63730001	2.38599992	200	0	0
-9.13500023	6.63739967	2.38599992	200	0	0
-9.14099979	6.63719988	2.40300012	200	0	0
-9.13000011	6.63749981	2.38599992	200	0	0
-9.11999989	6.63780069	2.38599992	200	0	0
-9.12300014	6.63759995	2.38599992	200	0	0
-9.13899994	6.63730001	2.40199995	200	0	0
-9.1260004	6.63770008	2.38599992	200	0	0
-9.13700008	6.63719988	2.41899991	200	0	0
-9.13000011	6.63739967	2.40199995	200	0	0
-9.14400005	6.63730001	2.41700006	200	0	0
-9.12899971	6.63749981	2.40199995	200	0	0
-9.11699963	6.63780069	2.40199995	200	0	0
-9.13099957	6.63759995	2.40199995	200	0	0
-9.12100029	6.63770008	2.40199995	200	0	0
-9.13799953	6.63739967	2.41700006	200	0	0
-9.13799953	6.63749981	2.41700006	200	0	0
-9.12899971	6.63759995	2.41799998	200	0	0
-9.1260004	6.63770008	2.41799998	200	0	0
-9.12800026	6.63780069	3.29399991	200	0	0
-9.12699986	6.63770008	3.29399991	200	0	0
-9.13300037	6.63759995	3.29500008	200	0	0
-9.13899994	6.63749981	3.29500008	200	0	0
-9.125	6.63780069	3.27800012	200	0	0
-9.13899994	6.63739967	3.29500008	200	0	0
-9.14000034	6.63730001	3.29500008	200	0	0
-9.12800026	6.63770008	3.27800012	200	0	0
-9.13399982	6.63759995	3.27900004	200	0	0
-9.1260004	6.63780069	3.26200008	200	0	0
-9.12899971	6.63749981	3.27800012	200	0	0
-9.1420002	6.63739967	3.27900004	200	0	0
-9.1420002	6.63730001	3.27900004	200	0	0
-9.1260004	6.63770008	3.26200008	200	0	0
-9.12100029	6.63780069	3.24499989	200	0	0
-9.13199997	6.63759995	3.26200008	200	0	0
-9.12899971	6.63770008	3.24600005	200	0	0
-9.13300037	6.63739967	3.26200008	200	0	0
-9.13899994	6.63730001	3.26300001	200	0	0
-9.13199997	6.63759995	3.24600005	200	0	0
-9.13500023	6.63749981	3.24699998	200	0	0
-9.13599968	6.63739967	3.24699998	200	0	0
-9.13899994	6.63730001	3.24699998	200	0	0
-9.12100029	6.63770008	2.29099989	200	0	0
-9.125	6.63759995	2.28999996	200	0	0
-9.11900043	6.63780069	2.30599999	200	0	0
-9.12699986	6.63749981	2.28999996	200	0	0
-9.11999989	6.63770008	2.30599999	200	0	0
-9.13000011	6.63739967	2.28999996	200	0	0
-9.12899971	6.63730001	2.28999996	200	0	0
-9.11600018	6.63780069	2.32200003	200	0	0
-9.12300014	6.63759995	2.30599999	200	0	0
-9.12199974	6.63749981	2.30599999	200	0	0
-9.11900043	6.63770008	2.32200003	200	0	0
-9.11999989	6.63780069	2.33800006	200	0	0
-9.13300037	6.63739967	2.30599999	200	0	0
-9.13099957	6.63730001	2.30599999	200	0	0
-9.12699986	6.63759995	2.32200003	200	0	0
-9.14299965	6.63719988	2.30699992	200	0	0
-9.1239996	6.63770008	2.33800006	200	0	0
-9.1260004	6.63749981	2.32200003	200	0	0
-9.12800026	6.63739967	2.32200003	200	0	0
-9.12800026	6.63759995	2.33800006	200	0	0
-9.13199997	6.63730001	2.32200003	200	0	0
-9.13500023	6.63749981	2.33800006	200	0	0
-9.12699986	6.63739967	2.33800006	200	0	0
-9.12800026	6.63730001	2.33800006	200	0	0
-9.1420002	6.63719988	2.33899999	200	0	0
-9.11600018	6.63780069	2.29099989	200	0	0
-9.13799953	6.63730001	3.34299994	200	0	0
-9.14500046	6.63739967	3.3440001	200	0	0
-9.14299965	6.63730001	3.32800007	200	0	0
-9.13599968	6.63749981	3.34299994	200	0	0
-9.13700008	6.63759995	3.34299994	200	0	0
-9.14099979	6.63739967	3.3269999	200	0	0
-9.14299965	6.63770008	3.3440001	200	0	0
-9.12699986	6.63780069	3.34200001	200	0	0
-9.13700008	6.63749981	3.3269999	200	0	0
-9.13599968	6.63759995	3.3269999	200	0	0
-9.12899971	6.63770008	3.32599998	200	0	0
-9.12300014	6.63780069	3.32599998	200	0	0
-9.13799953	6.63719988	2.21199989	200	0	0
-9.13500023	6.63730001	2.21099997	200	0	0
-9.13199997	6.63739967	2.21099997	200	0	0
-9.12100029	6.63749981	2.21099997	200	0	0
-9.11699963	6.63780069	2.21099997	200	0	0
-9.1239996	6.63759995	2.21099997	200	0	0
-9.12199974	6.63770008	2.21099997	200	0	0
-9.13300037	6.63730001	2.227	200	0	0
-9.13000011	6.63739967	2.227	200	0	0
-9.14000034	6.63719988	2.24399996	200	0	0
-9.12699986	6.63749981	2.227	200	0	0
-9.11499977	6.63780069	2.227	200	0	0
-9.1239996	6.63759995	2.227	200	0	0
-9.13500023	6.63730001	2.2420001	200	0	0
-9.12300014	6.63770008	2.227	200	0	0
-9.13399982	6.63719988	2.25999999	200	0	0
-9.12699986	6.63739967	2.24300003	200	0	0
-9.13399982	6.63730001	2.2579999	200	0	0
-9.12300014	6.63749981	2.24300003	200	0	0
-9.11699963	6.63780069	2.24300003	200	0	0
-9.11999989	6.63759995	2.24300003	200	0	0
-9.11999989	6.63770008	2.24300003	200	0	0
-9.13199997	6.63739967	2.2579999	200	0	0
-9.12899971	6.63749981	2.25900006	200	0	0
-9.11600018	6.63780069	2.25900006	200	0	0
-9.1239996	6.63759995	2.25900006	200	0	0
-9.12199974	6.63770008	2.25900006	200	0	0
-9.125	6.63770008	2.13100004	200	0	0
-9.1239996	6.63759995	2.13100004	200	0	0
-9.11699963	6.63780069	2.148	200	0	0
-9.12899971	6.63749981	2.13100004	200	0	0
-9.13099957	6.63739967	2.13100004	200	0	0
-9.12300014	6.63770008	2.14700007	200	0	0
-9.13300037	6.63730001	2.13100004	200	0	0
-9.1420002	6.63719988	2.13199997	200	0	0
-9.12100029	6.63780069	2.16300011	200	0	0
-9.125	6.63759995	2.14700007	200	0	0
-9.1260004	6.63749981	2.14700007	200	0	0
-9.12100029	6.63770008	2.16300011	200	0	0
-9.11999989	6.63780069	2.1789999	200	0	0
-9.12699986	6.63739967	2.14700007	200	0	0
-9.13199997	6.63730001	2.14700007	200	0	0
-9.1260004	6.63759995	2.16300011	200	0	0
-9.13599968	6.63719988	2.148	200	0	0
-9.12300014	6.63770008	2.1789999	200	0	0
-9.125	6.63749981	2.16300011	200	0	0
-9.13000011	6.63739967	2.16300011	200	0	0
-9.1260004	6.63759995	2.1789999	200	0	0
-9.12800026	6.63730001	2.16300011	200	0	0
-9.13599968	6.63719988	2.16400003	200	0	0
-9.12899971	6.63749981	2.1789999	200	0	0
-9.13399982	6.63739967	2.1789999	200	0	0
-9.13300037	6.63730001	2.1789999	200	0	0
-9.14299965	6.63719988	2.18000007	200	0	0
-9.12300014	6.63780069	2.13100004	200	0	0
-9.13700008	6.63719988	2.05299997	200	0	0
-9.13199997	6.63730001	2.05100012	200	0	0
-9.13300037	6.63739967	2.05100012	200	0	0
-9.14099979	6.63719988	2.06800008	200	0	0
-9.12800026	6.63749981	2.05200005	200	0	0
-9.11699963	6.63759995	2.05200005	200	0	0
-9.11900043	6.63780069	2.05200005	200	0	0
-9.12100029	6.63770008	2.05200005	200	0	0
-9.13300037	6.63730001	2.06699991	200	0	0
-9.13099957	6.63739967	2.06699991	200	0	0
-9.125	6.63749981	2.06800008	200	0	0
-9.10999966	6.63780069	2.06800008	200	0	0
-9.1260004	6.63759995	2.06800008	200	0	0
-9.11900043	6.63770008	2.06800008	200	0	0
-9.13000011	6.63730001	2.08299994	200	0	0
-9.13700008	6.63719988	2.0999999	200	0	0
-9.13300037	6.63739967	2.08299994	200	0	0
-9.13300037	6.63730001	2.09899998	200	0	0
-9.125	6.63749981	2.08400011	200	0	0
-9.12699986	6.63759995	2.08299994	200	0	0
-9.12100029	6.63780069	2.08400011	200	0	0
-9.12100029	6.63770008	2.08400011	200	0	0
-9.13099957	6.63739967	2.09899998	200	0	0
-9.12800026	6.63749981	2.09899998	200	0	0
-9.11499977	6.63780069	2.0999999	200	0	0
-9.12100029	6.63759995	2.0999999	200	0	0
-9.12199974	6.63770008	2.0999999	200	0	0
-9.11800003	6.63770008	1.972	200	0	0
-9.12300014	6.63759995	1.972	200	0	0
-9.11800003	6.63780069	1.98800004	200	0	0
-9.1260004	6.63749981	1.972	200	0	0
-9.11900043	6.63770008	1.98800004	200	0	0
-9.13300037	6.63739967	1.972	200	0	0
-9.13099957	6.63730001	1.972	200	0	0
-9.13599968	6.63719988	1.97300005	200	0	0
-9.11800003	6.63780069	2.00399995	200	0	0
-9.1239996	6.63759995	1.98800004	200	0	0
-9.12899971	6.63749981	1.98800004	200	0	0
-9.11600018	6.63780069	2.01999998	200	0	0
-9.12300014	6.63770008	2.00399995	200	0	0
-9.1260004	6.63739967	1.98800004	200	0	0
-9.15100002	6.63719988	1.98800004	200	0	0
-9.12800026	6.63730001	1.98800004	200	0	0
-9.11999989	6.63759995	2.00399995	200	0	0
-9.12199974	6.63770008	2.01999998	200	0	0
-9.125	6.63749981	2.00399995	200	0	0
-9.12699986	6.63739967	2.00399995	200	0	0
-9.12699986	6.63759995	2.01999998	200	0	0
-9.13399982	6.63730001	2.00300002	200	0	0
-9.13199997	6.63719988	2.00500011	200	0	0
-9.12699986	6.63749981	2.01999998	200	0	0
-9.13099957	6.63739967	2.01999998	200	0	0
-9.13399982	6.63730001	2.01900005	200	0	0
-9.13599968	6.63719988	2.02099991	200	0	0
-9.11299992	6.63780069	1.97300005	200	0	0
-9.13099957	6.63719988	1.89300001	200	0	0
-9.13500023	6.63730001	1.89199996	200	0	0
-9.1260004	6.63739967	1.89199996	200	0	0
-9.1260004	6.63749981	1.89199996	200	0	0
-9.13399982	6.63719988	1.90900004	200	0	0
-9.12300014	6.63759995	1.89199996	200	0	0
-9.12300014	6.63770008	1.89199996	200	0	0
-9.11800003	6.63780069	1.89300001	200	0	0
-9.13399982	6.63730001	1.90799999	200	0	0
-9.12899971	6.63739967	1.90799999	200	0	0
-9.13199997	6.63719988	1.92499995	200	0	0
-9.125	6.63749981	1.90799999	200	0	0
-9.12300014	6.63759995	1.90799999	200	0	0
-9.11900043	6.63780069	1.90900004	200	0	0
-9.12899971	6.63730001	1.92400002	200	0	0
-9.11699963	6.63770008	1.90900004	200	0	0
-9.13300037	6.63719988	1.94099998	200	0	0
-9.1239996	6.63739967	1.92400002	200	0	0
-9.13099957	6.63730001	1.94000006	200	0	0
-9.12300014	6.63749981	1.92400002	200	0	0
-9.12100029	6.63759995	1.92400002	200	0	0
-9.11299992	6.63780069	1.92499995	200	0	0
-9.11999989	6.63770008	1.92400002	200	0	0
-9.12300014	6.63739967	1.94000006	200	0	0
-9.1239996	6.63749981	1.94000006	200	0	0
-9.12699986	6.63759995	1.94000006	200	0	0
-9.11400032	6.63780069	1.94099998	200	0	0
-9.12300014	6.63770008	1.94000006	200	0	0
-9.11900043	6.63770008	1.81299996	200	0	0
-9.1260004	6.63759995	1.81200004	200	0	0
-9.11900043	6.63780069	1.829	200	0	0
-9.12899971	6.63749981	1.81200004	200	0	0
-9.12800026	6.63739967	1.81200004	200	0	0
-9.14099979	6.63730001	1.81099999	200	0	0
-9.12100029	6.63770008	1.829	200	0	0
-9.13599968	6.63719988	1.81299996	200	0	0
-9.11600018	6.63780069	1.84500003	200	0	0
-9.12199974	6.63759995	1.829	200	0	0
-9.1260004	6.63749981	1.82799995	200	0	0
-9.11499977	6.63770008	1.84500003	200	0	0
-9.11900043	6.63780069	1.86099994	200	0	0
-9.12899971	6.63739967	1.82799995	200	0	0
-9.13099957	6.63730001	1.82799995	200	0	0
-9.13500023	6.63719988	1.829	200	0	0
-9.1239996	6.63759995	1.84399998	200	0	0
-9.11900043	6.63770008	1.86099994	200	0	0
-9.12300014	6.63749981	1.84500003	200	0	0
-9.1239996	6.63739967	1.84399998	200	0	0
-9.125	6.63759995	1.86000001	200	0	0
-9.12699986	6.63730001	1.84399998	200	0	0
-9.13700008	6.63719988	1.84500003	200	0	0
-9.12800026	6.63749981	1.86000001	200	0	0
-9.1239996	6.63739967	1.86000001	200	0	0
-9.13199997	6.63730001	1.86000001	200	0	0
-9.13700008	6.63719988	1.86099994	200	0	0
-9.11800003	6.63780069	1.81299996	200	0	0
-9.13399982	6.63719988	1.73300004	200	0	0
-9.12800026	6.63730001	1.73199999	200	0	0
-9.1260004	6.63739967	1.73199999	200	0	0
-9.1239996	6.63749981	1.73300004	200	0	0
-9.13199997	6.63719988	1.74899995	200	0	0
-9.11499977	6.63780069	1.73300004	200	0	0
-9.12199974	6.63759995	1.73300004	200	0	0
-9.12199974	6.63770008	1.73300004	200	0	0
-9.13700008	6.63730001	1.74800003	200	0	0
-9.125	6.63739967	1.74800003	200	0	0
-9.13099957	6.63719988	1.76499999	200	0	0
-9.12699986	6.63749981	1.74800003	200	0	0
-9.12800026	6.63759995	1.74800003	200	0	0
-9.11800003	6.63780069	1.74899995	200	0	0
-9.11699963	6.63770008	1.74899995	200	0	0
-9.12800026	6.63730001	1.76400006	200	0	0
-9.13599968	6.63719988	1.78100002	200	0	0
-9.13000011	6.63739967	1.76400006	200	0	0
-9.13099957	6.63730001	1.77999997	200	0	0
-9.12199974	6.63749981	1.76499999	200	0	0
-9.1239996	6.63759995	1.76499999	200	0	0
-9.11600018	6.63780069	1.76499999	200	0	0
-9.11800003	6.63770008	1.76499999	200	0	0
-9.12100029	6.63739967	1.78100002	200	0	0
-9.12800026	6.63749981	1.77999997	200	0	0
-9.11299992	6.63780069	1.78100002	200	0	0
-9.11600018	6.63759995	1.78100002	200	0	0
-9.11600018	6.63770008	1.78100002	200	0	0
-9.11999989	6.63770008	1.653	200	0	0
-9.11999989	6.63759995	1.653	200	0	0
-9.11299992	6.63780069	1.66900003	200	0	0
-9.1239996	6.63749981	1.653	200	0	0
-9.13000011	6.63739967	1.65199995	200	0	0
-9.11600018	6.63770008	1.66900003	200	0	0
-9.13000011	6.63730001	1.65199995	200	0	0
-9.13099957	6.63719988	1.653	200	0	0
-9.11400032	6.63780069	1.68499994	200	0	0
-9.11800003	6.63759995	1.66900003	200	0	0
-9.12800026	6.63749981	1.66799998	200	0	0
-9.11600018	6.63770008	1.68499994	200	0	0
-9.11600018	6.63780069	1.70099998	200	0	0
-9.12899971	6.63739967	1.66799998	200	0	0
-9.13099957	6.63730001	1.66799998	200	0	0
-9.13199997	6.63719988	1.66900003	200	0	0
-9.12300014	6.63759995	1.68499994	200	0	0
-9.11900043	6.63770008	1.70099998	200	0	0
-9.12300014	6.63749981	1.68499994	200	0	0
-9.1260004	6.63739967	1.68400002	200	0	0
-9.12300014	6.63759995	1.70099998	200	0	0
-9.13099957	6.63730001	1.68400002	200	0	0
-9.13300037	6.63719988	1.68499994	200	0	0
-9.1239996	6.63749981	1.70099998	200	0	0
-9.1239996	6.63739967	1.70099998	200	0	0
-9.13000011	6.63730001	1.70000005	200	0	0
-9.13399982	6.63719988	1.70099998	200	0	0
-9.11400032	6.63780069	1.653	200	0	0
-9.12899971	6.63719988	1.57299995	200	0	0
-9.12699986	6.63730001	1.57200003	200	0	0
-9.11999989	6.63739967	1.57299995	200	0	0
-9.12300014	6.63749981	1.57200003	200	0	0
-9.13000011	6.63719988	1.58899999	200	0	0
-9.11600018	6.63780069	1.57299995	200	0	0
-9.12100029	6.63759995	1.57299995	200	0	0
-9.11699963	6.63770008	1.57299995	200	0	0
-9.13199997	6.63730001	1.58800006	200	0	0
-9.13000011	6.63739967	1.58800006	200	0	0
-9.13199997	6.63719988	1.60500002	200	0	0
-9.11499977	6.63749981	1.58899999	200	0	0
-9.11499977	6.63780069	1.58899999	200	0	0
-9.12199974	6.63759995	1.58899999	200	0	0
-9.11699963	6.63770008	1.58899999	200	0	0
-9.1260004	6.63730001	1.60399997	200	0	0
-9.125	6.63719988	1.62199998	200	0	0
-9.12100029	6.63739967	1.60500002	200	0	0
-9.125	6.63749981	1.60399997	200	0	0
-9.1260004	6.63730001	1.62	200	0	0
-9.1079998	6.63780069	1.60599995	200	0	0
-9.12199974	6.63759995	1.60500002	200	0	0
-9.11600018	6.63770008	1.60500002	200	0	0
-9.11900043	6.63739967	1.62100005	200	0	0
-9.12699986	6.63749981	1.62	200	0	0
-9.11600018	6.63780069	1.62100005	200	0	0
-9.11999989	6.63759995	1.62100005	200	0	0
-9.11900043	6.63770008	1.62100005	200	0	0
-9.11699963	6.63770008	1.49300003	200	0	0
-9.12199974	6.63759995	1.49199998	200	0	0
-9.11200047	6.63780069	1.50899994	200	0	0
-9.12800026	6.63749981	1.49199998	200	0	0
-9.125	6.63739967	1.49199998	200	0	0
-9.11699963	6.63770008	1.50899994	200	0	0
-9.12699986	6.63730001	1.49199998	200	0	0
-9.13000011	6.63719988	1.49300003	200	0	0
-9.11400032	6.63780069	1.52499998	200	0	0
-9.11999989	6.63759995	1.50800002	200	0	0
-9.11800003	6.63749981	1.50899994	200	0	0
-9.11299992	6.63770008	1.52499998	200	0	0
-9.11499977	6.63780069	1.54100001	200	0	0
-9.12300014	6.63739967	1.50800002	200	0	0
-9.12699986	6.63730001	1.50800002	200	0	0
-9.13199997	6.63719988	1.50899994	200	0	0
-9.11900043	6.63759995	1.52499998	200	0	0
-9.11499977	6.63770008	1.54100001	200	0	0
-9.11999989	6.63749981	1.52499998	200	0	0
-9.12199974	6.63739967	1.52400005	200	0	0
-9.11800003	6.63759995	1.54100001	200	0	0
-9.12800026	6.63730001	1.52400005	200	0	0
-9.12800026	6.63719988	1.52499998	200	0	0
-9.1239996	6.63749981	1.53999996	200	0	0
-9.125	6.63739967	1.53999996	200	0	0
-9.13199997	6.63730001	1.53900003	200	0	0
-9.125	6.63719988	1.54100001	200	0	0
-9.11900043	6.63780069	1.49300003	200	0	0
-9.12300014	6.63719988	1.41299999	200	0	0
-9.125	6.63730001	1.41100001	200	0	0
-9.12300014	6.63739967	1.41199994	200	0	0
-9.12199974	6.63749981	1.41199994	200	0	0
-9.1260004	6.63719988	1.42900002	200	0	0
-9.12100029	6.63759995	1.41199994	200	0	0
-9.11600018	6.63780069	1.41199994	200	0	0
-9.11600018	6.63770008	1.41199994	200	0	0
-9.13500023	6.63730001	1.426	200	0	0
-9.14099979	6.63719988	1.44299996	200	0	0
-9.1239996	6.63739967	1.42799997	200	0	0
-9.11999989	6.63749981	1.42799997	200	0	0
-9.11800003	6.63759995	1.42799997	200	0	0
-9.11699963	6.63770008	1.42799997	200	0	0
-9.11400032	6.63780069	1.42900002	200	0	0
-9.125	6.63730001	1.44400001	200	0	0
-9.12899971	6.63719988	1.46099997	200	0	0
-9.12699986	6.63739967	1.44299996	200	0	0
-9.13000011	6.63730001	1.45899999	200	0	0
-9.11800003	6.63749981	1.44400001	200	0	0
-9.11900043	6.63759995	1.44400001	200	0	0
-9.10999966	6.63780069	1.44500005	200	0	0
-9.11499977	6.63770008	1.44500005	200	0	0
-9.11999989	6.63739967	1.46000004	200	0	0
-9.11999989	6.63749981	1.46000004	200	0	0
-9.11999989	6.63759995	1.46000004	200	0	0
-9.11400032	6.63780069	1.46099997	200	0	0
-9.11499977	6.63770008	1.46099997	200	0	0
-9.12300014	6.63770008	1.33099997	200	0	0
-9.11999989	6.63759995	1.33099997	200	0	0
-9.11600018	6.63780069	1.34800005	200	0	0
-9.1239996	6.63749981	1.33099997	200	0	0
-9.125	6.63739967	1.33099997	200	0	0
-9.12899971	6.63730001	1.33000004	200	0	0
-9.11200047	6.63770008	1.34800005	200	0	0
-9.12800026	6.63719988	1.33200002	200	0	0
-9.11999989	6.63780069	1.36399996	200	0	0
-9.11800003	6.63759995	1.34800005	200	0	0
-9.12100029	6.63749981	1.347	200	0	0
-9.11499977	6.63770008	1.36399996	200	0	0
-9.1420002	6.63719988	1.34599996	200	0	0
-9.1260004	6.63739967	1.347	200	0	0
-9.11299992	6.63780069	1.38100004	200	0	0
-9.12699986	6.63730001	1.347	200	0	0
-9.11699963	6.63759995	1.36399996	200	0	0
-9.11299992	6.63770008	1.38100004	200	0	0
-9.12300014	6.63749981	1.36300004	200	0	0
-9.12100029	6.63739967	1.36399996	200	0	0
-9.11400032	6.63759995	1.38	200	0	0
-9.125	6.63730001	1.36300004	200	0	0
-9.13000011	6.63719988	1.36399996	200	0	0
-9.1239996	6.63749981	1.37899995	200	0	0
-9.1420002	6.63719988	1.37800002	200	0	0
-9.125	6.63739967	1.37899995	200	0	0
-9.12300014	6.63730001	1.37899995	200	0	0
-9.10900021	6.63780069	1.33299994	200	0	0
-9.1260004	6.63719988	1.25100005	200	0	0
-9.125	6.63730001	1.25	200	0	0
-9.1239996	6.63739967	1.25	200	0	0
-9.11999989	6.63749981	1.25100005	200	0	0
-9.11600018	6.63780069	1.25100005	200	0	0
-9.11699963	6.63759995	1.25100005	200	0	0
-9.11400032	6.63770008	1.25100005	200	0	0
-9.12300014	6.63719988	1.26800001	200	0	0
-9.12699986	6.63730001	1.26600003	200	0	0
-9.12100029	6.63739967	1.26699996	200	0	0
-9.1239996	6.63719988	1.28400004	200	0	0
-9.12199974	6.63749981	1.26600003	200	0	0
-9.11600018	6.63780069	1.26699996	200	0	0
-9.11600018	6.63759995	1.26699996	200	0	0
-9.11400032	6.63770008	1.26699996	200	0	0
-9.12199974	6.63730001	1.28299999	200	0	0
-9.1260004	6.63719988	1.29999995	200	0	0
-9.125	6.63739967	1.28199995	200	0	0
-9.13399982	6.63730001	1.29700005	200	0	0
-9.12300014	6.63749981	1.28199995	200	0	0
-9.11699963	6.63759995	1.28299999	200	0	0
-9.11299992	6.63780069	1.28400004	200	0	0
-9.11299992	6.63770008	1.28400004	200	0	0
-9.12300014	6.63739967	1.29900002	200	0	0
-9.12199974	6.63749981	1.29900002	200	0	0
-9.11600018	6.63780069	1.29999995	200	0	0
-9.11600018	6.63759995	1.29999995	200	0	0
-9.11499977	6.63770008	1.29999995	200	0	0
-9.11600018	6.63770008	1.16999996	200	0	0
-9.11499977	6.63759995	1.16999996	200	0	0
-9.10400009	6.63780069	1.18799996	200	0	0
-9.11900043	6.63749981	1.16999996	200	0	0
-9.12100029	6.63739967	1.16900003	200	0	0
-9.11499977	6.63770008	1.18599999	200	0	0
-9.125	6.63730001	1.16900003	200	0	0
-9.13000011	6.63719988	1.16999996	200	0	0
-9.10999966	6.63780069	1.20299995	200	0	0
-9.11299992	6.63759995	1.18700004	200	0	0
-9.11999989	6.63749981	1.18599999	200	0	0
-9.11600018	6.63770008	1.20299995	200	0	0
-9.11100006	6.63780069	1.21899998	200	0	0
-9.12100029	6.63739967	1.18599999	200	0	0
-9.11999989	6.63730001	1.18599999	200	0	0
-9.12699986	6.63719988	1.18599999	200	0	0
-9.11299992	6.63759995	1.20299995	200	0	0
-9.11499977	6.63770008	1.21899998	200	0	0
-9.12100029	6.63749981	1.20200002	200	0	0
-9.12100029	6.63739967	1.20200002	200	0	0
-9.11800003	6.63759995	1.21800005	200	0	0
-9.11699963	6.63730001	1.20200002	200	0	0
-9.1239996	6.63719988	1.20299995	200	0	0
-9.11800003	6.63749981	1.21800005	200	0	0
-9.11999989	6.63739967	1.21800005	200	0	0
-9.1239996	6.63730001	1.21800005	200	0	0
-9.12899971	6.63719988	1.21800005	200	0	0
-9.1079998	6.63780069	1.171	200	0	0
-9.12100029	6.63719988	1.09000003	200	0	0
-9.11499977	6.63730001	1.08899999	200	0	0
-9.11699963	6.63739967	1.08899999	200	0	0
-9.11400032	6.63749981	1.08899999	200	0	0
-9.11299992	6.63759995	1.08899999	200	0	0
-9.11999989	6.63719988	1.10599995	200	0	0
-9.11299992	6.63770008	1.08899999	200	0	0
-9.11200047	6.63780069	1.09000003	200	0	0
-9.11600018	6.63730001	1.10500002	200	0	0
-9.11800003	6.63739967	1.10500002	200	0	0
-9.11699963	6.63719988	1.12300003	200	0	0
-9.11800003	6.63749981	1.10500002	200	0	0
-9.11400032	6.63759995	1.10500002	200	0	0
-9.11299992	6.63780069	1.10599995	200	0	0
-9.11200047	6.63770008	1.10599995	200	0	0
-9.11800003	6.63730001	1.12100005	200	0	0
-9.12199974	6.63719988	1.13800001	200	0	0
-9.11600018	6.63739967	1.12100005	200	0	0
-9.11600018	6.63749981	1.12100005	200	0	0
-9.11600018	6.63730001	1.13800001	200	0	0
-9.11499977	6.63759995	1.12199998	200	0	0
-9.10900021	6.63780069	1.12300003	200	0	0
-9.11299992	6.63770008	1.12199998	200	0	0
-9.11600018	6.63739967	1.13800001	200	0	0
-9.11699963	6.63749981	1.13800001	200	0	0
-9.10499954	6.63780069	1.13900006	200	0	0
-9.11400032	6.63759995	1.13800001	200	0	0
-9.10700035	6.63770008	1.13900006	200	0	0
-9.11800003	6.63759995	1.05599999	200	0	0
-9.11800003	6.63719988	1.05799997	200	0	0
-9.11499977	6.63739967	0.958999991	200	0	0
-9.10499954	6.63780069	0.959999979	200	0	0
-9.11499977	6.63749981	0.958999991	200	0	0
-9.11200047	6.63759995	0.958999991	200	0	0
-9.10700035	6.63770008	0.959999979	200	0	0
-9.11400032	6.63719988	0.976999998	200	0	0
-9.11699963	6.63730001	0.975000024	200	0	0
-9.11299992	6.63739967	0.975000024	200	0	0
-9.10900021	6.63780069	0.976000011	200	0	0
-9.10999966	6.63770008	0.976000011	200	0	0
-9.11100006	6.63749981	0.976000011	200	0	0
-9.10900021	6.63759995	0.976000011	200	0	0
-9.11400032	6.63730001	0.958999991	200	0	0
-9.11699963	6.63719988	0.959999979	200	0	0
-9.11800003	6.63719988	0.861999989	200	0	0
-9.11299992	6.63749981	0.861000001	200	0	0
-9.11100006	6.63739967	0.861000001	200	0	0
-9.10599995	6.63730001	0.861999989	200	0	0
-9.10099983	6.63780069	0.879999995	200	0	0
-9.10400009	6.63770008	0.879000008	200	0	0
-9.10599995	6.63759995	0.879000008	200	0	0
-9.11299992	6.63730001	0.876999974	200	0	0
-9.11100006	6.63719988	0.879000008	200	0	0
-9.10499954	6.63749981	0.879000008	200	0	0
-9.10700035	6.63739967	0.879000008	200	0	0
-9.10700035	6.63780069	0.894999981	200	0	0
-9.10200024	6.63770008	0.896000028	200	0	0
-9.10700035	6.63759995	0.894999981	200	0	0
-9.11200047	6.63719988	0.894999981	200	0	0
-9.10499954	6.63749981	0.894999981	200	0	0
-9.10700035	6.63730001	0.894999981	200	0	0
-9.10299969	6.63739967	0.894999981	200	0	0
-9.10900021	6.63780069	0.926999986	200	0	0
-9.10900021	6.63770008	0.926999986	200	0	0
-9.10999966	6.63780069	0.943000019	200	0	0
-9.11400032	6.63759995	0.925999999	200	0	0
-9.11400032	6.63719988	0.927999973	200	0	0
-9.11299992	6.63770008	0.943000019	200	0	0
-9.11200047	6.63730001	0.926999986	200	0	0
-9.11299992	6.63749981	0.926999986	200	0	0
-9.11499977	6.63739967	0.925999999	200	0	0
-9.11100006	6.63759995	0.943000019	200	0	0
-9.11800003	6.63719988	0.943000019	200	0	0
-9.11800003	6.63730001	0.941999972	200	0	0
-9.11400032	6.63749981	0.943000019	200	0	0
-9.11600018	6.63739967	0.941999972	200	0	0
-9.10999966	6.63780069	0.861999989	200	0	0
-9.10400009	6.63770008	0.862999976	200	0	0
-9.11200047	6.63759995	0.861000001	200	0	0
-9.10200024	6.63770008	0.847000003	200	0	0
-9.08199978	6.63739967	0.850000024	200	0	0
