-3.16000009	6.9890008	2.10400009	0	200	0
-3.06900001	6.98939991	2.09299994	0	200	0
-3.0710001	6.98939991	2.125	0	200	0
-3.16000009	6.9890008	2.10400009	0	200	0
-2.98699999	6.98969984	2.1400001	0	200	0
-3.00900006	6.98950005	2.0150001	0	200	0
-2.99399996	6.98969984	2.1500001	0	200	0
-3.023	6.98950005	2.1789999	0	200	0
-3.06699991	6.98939991	1.99600005	0	200	0
-2.98699999	6.98969984	2.13000011	0	200	0
-2.98699999	6.98969984	2.05599999	0	200	0
-2.99000001	6.98969984	2.13499999	0	200	0
-3.00300002	6.98950005	2.02699995	0	200	0
-3.00999999	6.98950005	2.02099991	0	200	0
-3.06900001	6.98939991	2.18499994	0	200	0
-2.98900008	6.98969984	2.06100011	0	200	0
-2.98900008	6.98969984	2.12400007	0	200	0
-3.02900004	6.98950005	2.1730001	0	200	0
-2.98699999	6.98969984	2.11400008	0	200	0
-2.98699999	6.98969984	2.10899997	0	200	0
-2.98699999	6.98969984	2.10299993	0	200	0
-2.98699999	6.98969984	2.09800005	0	200	0
-3.06599998	6.98939991	2.18000007	0	200	0
-3.0710001	6.98939991	2.00600004	0	200	0
-3.0079999	6.98950005	2.03200006	0	200	0
-2.98799992	6.98969984	2.08800006	0	200	0
-2.98900008	6.98969984	2.08200002	0	200	0
-2.99099994	6.98969984	2.0769999	0	200	0
-2.99300003	6.98969984	2.0710001	0	200	0
-3.06699991	6.98939991	2.17400002	0	200	0
-3.06699991	6.98939991	2.01200008	0	200	0
-3.0079999	6.98950005	2.04200006	0	200	0
-3.00600004	6.98950005	2.0480001	0	200	0
-3.07399988	6.98939991	2.01600003	0	200	0
-3.03500009	6.98950005	2.16100001	0	200	0
-3.06699991	6.98939991	2.16899991	0	200	0
-3.02399993	6.98950005	2.15199995	0	200	0
-3.046	6.98939991	2.02600002	0	200	0
-3.02800012	6.98950005	2.14599991	0	200	0
-3.06900001	6.98939991	2.15799999	0	200	0
-3.02099991	6.98950005	2.05100012	0	200	0
-3.01900005	6.98950005	2.05699992	0	200	0
-3.04200006	6.98939991	2.03699994	0	200	0
-3.02099991	6.98950005	2.12599993	0	200	0
-3.02999997	6.98950005	2.13499999	0	200	0
-3.02099991	6.98950005	2.12100005	0	200	0
-3.02800012	6.98950005	2.13000011	0	200	0
-3.01600003	6.98950005	2.10500002	0	200	0
-3.0480001	6.98939991	2.04200006	0	200	0
-3.06900001	6.98939991	2.14700007	0	200	0
-3.01999998	6.98950005	2.07299995	0	200	0
-3.01900005	6.98950005	2.1099999	0	200	0
-3.01699996	6.98950005	2.08400011	0	200	0
-3.01999998	6.98950005	2.07800007	0	200	0
-3.01999998	6.98950005	2.09899998	0	200	0
-3.01999998	6.98950005	2.0940001	0	200	0
-3.02900004	6.98950005	2.06599998	0	200	0
-3.06999993	6.98939991	2.04399991	0	200	0
-3.06900001	6.98939991	2.14199996	0	200	0
-3.06800008	6.98939991	2.04999995	0	200	0
-3.06800008	6.98939991	2.13100004	0	200	0
-3.06599998	6.98939991	2.06100011	0	200	0
-3.06699991	6.98939991	2.06599998	0	200	0
-3.06900001	6.98939991	2.11999989	0	200	0
-3.06699991	6.98939991	2.11500001	0	200	0
-3.06599998	6.98939991	2.07200003	0	200	0
-3.07200003	6.98939991	2.07599998	0	200	0
-3.06599998	6.98939991	2.10400009	0	200	0
-3.06800008	6.98939991	2.09899998	0	200	0
-3.06900001	6.98939991	2.08800006	0	200	0
-2.98699999	6.98969984	2.16700006	0	200	0
-3.0250001	6.98950005	2.21000004	0	200	0
-3.06800008	6.98939991	2.22199988	0	200	0
-3.01900005	6.98950005	2.20600009	0	200	0
-2.99099994	6.98969984	2.16100001	0	200	0
-2.9920001	6.98969984	2.1559999	0	200	0
-3.06800008	6.98939991	2.21199989	0	200	0
-3.02699995	6.98950005	2.19899988	0	200	0
-3.02099991	6.98950005	2.18899989	0	200	0
-3.06900001	6.98939991	2.20600009	0	200	0
-3.01999998	6.98950005	2.18400002	0	200	0
-3.06800008	6.98939991	2.20099998	0	200	0
-3.06699991	6.98939991	2.1960001	0	200	0
-2.97000003	6.98960018	2.23600006	0	200	0
-3.023	6.98950005	2.22600007	0	200	0
-2.98699999	6.98969984	2.2349999	0	200	0
-2.96399999	6.98960018	2.04900002	0	200	0
-2.98099995	6.98969984	2.046	0	200	0
-2.9690001	6.98960018	2.23099995	0	200	0
-2.96300006	6.98960018	2.0539999	0	200	0
-2.98300004	6.98969984	2.05100012	0	200	0
-2.98600006	6.98969984	2.22900009	0	200	0
-3.02200007	6.98950005	2.21600008	0	200	0
-2.97099996	6.98960018	2.05800009	0	200	0
-2.96799994	6.98960018	2.22099996	0	200	0
-2.98799992	6.98969984	2.2190001	0	200	0
-2.97000003	6.98960018	2.06399989	0	200	0
-2.96700001	6.98960018	2.21499991	0	200	0
-2.9849999	6.98969984	2.21399999	0	200	0
-2.96799994	6.98960018	2.21000004	0	200	0
-2.9690001	6.98960018	2.07399988	0	200	0
-2.96700001	6.98960018	2.20499992	0	200	0
-2.98900008	6.98969984	2.20799994	0	200	0
-2.97000003	6.98960018	2.079	0	200	0
-2.98699999	6.98969984	2.20300007	0	200	0
-2.96799994	6.98960018	2.08500004	0	200	0
-2.96799994	6.98960018	2.19499993	0	200	0
-2.96600008	6.98960018	2.08999991	0	200	0
-2.96700001	6.98960018	2.19000006	0	200	0
-2.98399997	6.98969984	2.19300008	0	200	0
-2.96700001	6.98960018	2.18400002	0	200	0
-2.98799992	6.98969984	2.18700004	0	200	0
-2.9690001	6.98960018	2.10100007	0	200	0
-2.97000003	6.98960018	2.1789999	0	200	0
-2.98799992	6.98969984	2.18199992	0	200	0
-2.96799994	6.98960018	2.10599995	0	200	0
-2.99000001	6.98969984	2.17700005	0	200	0
-2.9690001	6.98960018	2.11100006	0	200	0
-2.97000003	6.98960018	2.16799998	0	200	0
-2.96700001	6.98960018	2.16300011	0	200	0
-2.97300005	6.98960018	2.11599994	0	200	0
-2.9749999	6.98960018	2.15700006	0	200	0
-2.97099996	6.98960018	2.12700009	0	200	0
-2.97300005	6.98960018	2.15199995	0	200	0
-2.97099996	6.98960018	2.13199997	0	200	0
-2.97000003	6.98960018	2.13700008	0	200	0
-2.97199988	6.98960018	2.14199996	0	200	0
-3.07399988	6.98939991	1.94000006	0	200	0
-2.9690001	6.98960018	1.926	0	200	0
-2.99300003	6.98969984	1.92200005	0	200	0
-3.02399993	6.98950005	1.921	0	200	0
-2.97000003	6.98960018	1.93099999	0	200	0
-3.0710001	6.98939991	1.95099998	0	200	0
-3.07399988	6.98939991	1.95599997	0	200	0
-3.07399988	6.98939991	1.96099997	0	200	0
-3.023	6.98950005	1.93200004	0	200	0
-2.97000003	6.98960018	1.94200003	0	200	0
-2.99099994	6.98969984	1.93799996	0	200	0
-2.96799994	6.98960018	1.94799995	0	200	0
-2.9920001	6.98969984	1.94299996	0	200	0
-3.01699996	6.98950005	1.93900001	0	200	0
-3.06800008	6.98939991	1.96800005	0	200	0
-2.9690001	6.98960018	1.95299995	0	200	0
-2.96499991	6.98960018	1.95899999	0	200	0
-3.01900005	6.98950005	1.94400001	0	200	0
-3.06999993	6.98939991	1.97899997	0	200	0
-2.9920001	6.98969984	1.949	0	200	0
-2.98699999	6.98969984	1.95500004	0	200	0
-3.06699991	6.98939991	1.98500001	0	200	0
-3.01399994	6.98950005	1.95000005	0	200	0
-2.97000003	6.98960018	1.96899998	0	200	0
-3.06399989	6.98939991	1.99100006	0	200	0
-2.98900008	6.98969984	1.96500003	0	200	0
-2.97099996	6.98960018	1.97399998	0	200	0
-3.01900005	6.98950005	1.96000004	0	200	0
-2.96099997	6.98960018	2.03900003	0	200	0
-2.97000003	6.98960018	1.97899997	0	200	0
-2.99099994	6.98969984	1.97000003	0	200	0
-2.96199989	6.98960018	2.03299999	0	200	0
-2.97000003	6.98960018	1.98500001	0	200	0
-3.0150001	6.98950005	1.96599996	0	200	0
-2.96199989	6.98960018	2.023	0	200	0
-2.96399999	6.98960018	2.02800012	0	200	0
-2.99000001	6.98969984	1.97599995	0	200	0
-2.97000003	6.98960018	1.995	0	200	0
-2.98799992	6.98969984	1.98099995	0	200	0
-3.01600003	6.98950005	1.97099996	0	200	0
-2.96600008	6.98960018	2.01200008	0	200	0
-2.96799994	6.98960018	2.00600004	0	200	0
-2.97099996	6.98960018	2	0	200	0
-2.98000002	6.98969984	2.03600001	0	200	0
-3.01900005	6.98950005	1.97599995	0	200	0
-2.98000002	6.98969984	2.0309999	0	200	0
-2.98900008	6.98969984	1.99199998	0	200	0
-2.97900009	6.98969984	2.01999998	0	200	0
-2.98000002	6.98969984	2.00900006	0	200	0
-2.98300004	6.98969984	2.0250001	0	200	0
-2.9849999	6.98969984	2.00300002	0	200	0
-2.99000001	6.98969984	1.99699998	0	200	0
-3.01999998	6.98950005	1.98699999	0	200	0
-3.01900005	6.98950005	1.99199998	0	200	0
-3.02099991	6.98950005	1.99800003	0	200	0
-3.01900005	6.98950005	2.00300002	0	200	0
-2.97000003	6.98960018	2.24600005	0	200	0
-2.98799992	6.98969984	2.24499989	0	200	0
-3.02900004	6.98950005	2.23600006	0	200	0
-2.97099996	6.98960018	2.24099994	0	200	0
-2.98799992	6.98969984	2.24000001	0	200	0
-3.02699995	6.98950005	2.23099995	0	200	0
-3.0710001	6.98939991	2.2650001	0	200	0
-2.97099996	6.98960018	2.26200008	0	200	0
-2.98799992	6.98969984	2.26600003	0	200	0
-2.97199988	6.98960018	2.25699997	0	200	0
-3.06900001	6.98939991	2.25999999	0	200	0
-2.99000001	6.98969984	2.25999999	0	200	0
-3.03299999	6.98950005	2.26799989	0	200	0
-3.06999993	6.98939991	2.25399995	0	200	0
-2.98900008	6.98969984	2.25500011	0	200	0
-3.03200006	6.98950005	2.26300001	0	200	0
-3.06900001	6.98939991	2.24900007	0	200	0
-3.02999997	6.98950005	2.25699997	0	200	0
-3.06999993	6.98939991	2.23799992	0	200	0
-3.02699995	6.98950005	2.25200009	0	200	0
-3.06800008	6.98939991	2.23300004	0	200	0
-3.06900001	6.98939991	2.22799993	0	200	0
-3.02800012	6.98950005	2.2420001	0	200	0
-3.01799989	6.98950005	1.91199994	0	200	0
-3.02600002	6.98950005	1.91600001	0	200	0
-3.0710001	6.98939991	1.90699995	0	200	0
-3.06999993	6.98939991	1.91299999	0	200	0
-3.07399988	6.98939991	1.92299998	0	200	0
-3.0710001	6.98939991	1.92900002	0	200	0
-3.06999993	6.98939991	1.93499994	0	200	0
-3.03900003	6.98950005	2.27800012	0	200	0
-3.06399989	6.98939991	2.28200006	0	200	0
-3.06699991	6.98939991	2.27600002	0	200	0
-2.97099996	6.98960018	2.29299998	0	200	0
-2.9849999	6.98969984	2.29699993	0	200	0
-3.02900004	6.98950005	2.30500007	0	200	0
-3.06900001	6.98939991	2.29200006	0	200	0
-2.98600006	6.98969984	2.29200006	0	200	0
-2.97600007	6.98960018	2.28699994	0	200	0
-3.06699991	6.98939991	2.28699994	0	200	0
-2.9749999	6.98960018	2.28200006	0	200	0
-2.99300003	6.98969984	2.28600001	0	200	0
-3.02999997	6.98950005	2.29399991	0	200	0
-2.97300005	6.98960018	2.27200007	0	200	0
-2.99099994	6.98969984	2.2809999	0	200	0
-3.03500009	6.98950005	2.28900003	0	200	0
-2.97199988	6.98960018	2.26699996	0	200	0
-2.98799992	6.98969984	2.27099991	0	200	0
-3.06699991	6.98939991	2.31900001	0	200	0
-3.03600001	6.98950005	2.30999994	0	200	0
-3.06900001	6.98939991	2.31299996	0	200	0
-3.06699991	6.98939991	2.30800009	0	200	0
-3.06800008	6.98939991	2.30299997	0	200	0
-3.02900004	6.98950005	2.31599998	0	200	0
-2.98200011	6.98969984	2.33400011	0	200	0
-2.96700001	6.98960018	2.33500004	0	200	0
-2.98699999	6.98969984	2.32299995	0	200	0
-2.96700001	6.98960018	2.32399988	0	200	0
-2.98399997	6.98969984	2.31800008	0	200	0
-2.9690001	6.98960018	2.31900001	0	200	0
-2.98900008	6.98969984	2.31299996	0	200	0
-2.9690001	6.98960018	2.31399989	0	200	0
-2.99000001	6.98969984	2.30699992	0	200	0
-2.97000003	6.98960018	2.30800009	0	200	0
-2.97199988	6.98960018	2.2980001	0	200	0
-3.0250001	6.98950005	2.3210001	0	200	0
-2.99000001	6.98969984	1.89499998	0	200	0
-3.05699992	6.98939991	1.84300005	0	200	0
-3.00600004	6.98950005	1.87	0	200	0
-3.06100011	6.98939991	1.84800005	0	200	0
-2.99399996	6.98969984	1.91100001	0	200	0
-2.99600005	6.98969984	1.91600001	0	200	0
-3.01200008	6.98950005	1.88	0	200	0
-3.05900002	6.98939991	1.86000001	0	200	0
-3.0150001	6.98950005	1.88499999	0	200	0
-3.01300001	6.98950005	1.89100003	0	200	0
-3.01699996	6.98950005	1.89600003	0	200	0
-3.05500007	6.98939991	1.87199998	0	200	0
-3.07399988	6.98939991	1.87300003	0	200	0
-3.01900005	6.98950005	1.90600002	0	200	0
-3.06900001	6.98939991	1.88	0	200	0
-3.06999993	6.98939991	1.88499999	0	200	0
-3.07500005	6.98939991	1.89499998	0	200	0
-3.00900006	6.98950005	1.83700001	0	200	0
-2.99000001	6.98969984	1.83599997	0	200	0
-3.00600004	6.98950005	1.84300005	0	200	0
-2.96499991	6.98960018	1.83599997	0	200	0
-2.96799994	6.98960018	1.84099996	0	200	0
-3.00500011	6.98950005	1.85399997	0	200	0
-2.96499991	6.98960018	1.847	0	200	0
-3.00500011	6.98950005	1.86000001	0	200	0
-2.96600008	6.98960018	1.852	0	200	0
-2.99099994	6.98969984	1.85699999	0	200	0
-3.0079999	6.98950005	1.86500001	0	200	0
-2.9920001	6.98969984	1.86199999	0	200	0
-2.96799994	6.98960018	1.86199999	0	200	0
-2.99300003	6.98969984	1.86800003	0	200	0
-2.9690001	6.98960018	1.86699998	0	200	0
-2.96799994	6.98960018	1.87300003	0	200	0
-2.99099994	6.98969984	1.88399994	0	200	0
-2.96499991	6.98960018	1.87899995	0	200	0
-2.99000001	6.98969984	1.88999999	0	200	0
-2.9690001	6.98960018	1.88900006	0	200	0
-2.96799994	6.98960018	1.89400005	0	200	0
-2.9690001	6.98960018	1.89900005	0	200	0
-2.96799994	6.98960018	1.90499997	0	200	0
-2.97099996	6.98960018	1.91499996	0	200	0
-2.977	6.98960018	1.91900003	0	200	0
-3.01099992	6.98950005	1.83099997	0	200	0
-2.99600005	6.98969984	1.829	0	200	0
-3.01399994	6.98950005	1.82500005	0	200	0
-3.04999995	6.98939991	1.83399999	0	200	0
-2.98600006	6.98969984	2.3440001	0	200	0
-2.97199988	6.98960018	2.34500003	0	200	0
-2.9690001	6.98960018	2.33999991	0	200	0
-3.02800012	6.98950005	2.33100009	0	200	0
-3.0710001	6.98939991	2.36100006	0	200	0
-3.03299999	6.98950005	2.34699988	0	200	0
-3.02999997	6.98950005	2.34200001	0	200	0
-3.02900004	6.98950005	2.33699989	0	200	0
-3.06999993	6.98939991	2.34500003	0	200	0
-3.06900001	6.98939991	2.33999991	0	200	0
-3.06800008	6.98939991	2.33500004	0	200	0
-3.07200003	6.98939991	2.329	0	200	0
-2.98300004	6.98969984	2.3599999	0	200	0
-2.9849999	6.98969984	2.34899998	0	200	0
-2.97000003	6.98960018	2.3499999	0	200	0
-2.98399997	6.98969984	2.36500001	0	200	0
-3.02699995	6.98950005	2.36299992	0	200	0
-3.02900004	6.98950005	2.35800004	0	200	0
-3.05699992	6.98939991	1.82099998	0	200	0
-2.99099994	6.98969984	1.81900001	0	200	0
-3.01200008	6.98950005	1.81500006	0	200	0
-3.05800009	6.98939991	1.82599998	0	200	0
-3.07599998	6.98939991	1.81200004	0	200	0
-3.06900001	6.98939991	2.37199998	0	200	0
-3.02800012	6.98950005	2.37400007	0	200	0
-3.06800008	6.98939991	2.3670001	0	200	0
-3.02900004	6.98950005	2.36800003	0	200	0
-2.97300005	6.98960018	2.39100003	0	200	0
-2.98900008	6.98969984	2.38499999	0	200	0
-2.9690001	6.98960018	2.38599992	0	200	0
-2.9849999	6.98969984	2.375	0	200	0
-2.97099996	6.98960018	2.37599993	0	200	0
-2.98900008	6.98969984	2.36999989	0	200	0
-2.97099996	6.98960018	2.36999989	0	200	0
-2.9690001	6.98960018	2.36500001	0	200	0
-2.98900008	6.98969984	2.39599991	0	200	0
-2.98900008	6.98969984	2.39100003	0	200	0
-3.06800008	6.98939991	2.39299989	0	200	0
-3.03500009	6.98950005	2.4000001	0	200	0
-3.06800008	6.98939991	2.38800001	0	200	0
-3.03500009	6.98950005	2.39400005	0	200	0
-3.0710001	6.98939991	2.3829999	0	200	0
-3.02699995	6.98950005	2.38899994	0	200	0
-3.03299999	6.98950005	2.38400006	0	200	0
-3.04900002	6.98950005	2.41499996	0	200	0
-3.06599998	6.98939991	2.41499996	0	200	0
-3.05500007	6.98950005	2.41000009	0	200	0
-3.06500006	6.98939991	2.40899992	0	200	0
-3.07200003	6.98939991	2.39899993	0	200	0
-2.97099996	6.98960018	2.39599991	0	200	0
-2.99000001	6.98969984	2.40100002	0	200	0
-2.97099996	6.98960018	2.42700005	0	200	0
-2.9849999	6.98969984	2.42700005	0	200	0
-2.97199988	6.98960018	2.42199993	0	200	0
-2.98799992	6.98969984	2.42199993	0	200	0
-2.97300005	6.98960018	2.41700006	0	200	0
-2.9849999	6.98969984	2.41700006	0	200	0
-2.9749999	6.98960018	2.41199994	0	200	0
-2.99099994	6.98969984	2.41100001	0	200	0
-2.97399998	6.98960018	2.40100002	0	200	0
-3.00600004	6.98950005	1.79900002	0	200	0
-3.01200008	6.98950005	1.80400002	0	200	0
-3.0150001	6.98950005	1.80900002	0	200	0
-2.9690001	6.98960018	1.80799997	0	200	0
-2.99600005	6.98969984	1.80700004	0	200	0
-2.96799994	6.98960018	1.81400001	0	200	0
-2.96799994	6.98960018	1.81900001	0	200	0
-2.96700001	6.98960018	1.82500005	0	200	0
-3.01699996	6.98950005	1.75300002	0	200	0
-2.99699998	6.98969984	1.77400005	0	200	0
-3.0150001	6.98950005	1.75899994	0	200	0
-2.99499989	6.98969984	1.77999997	0	200	0
-3.023	6.98939991	1.75699997	0	200	0
-3.0150001	6.98950005	1.76999998	0	200	0
-2.99799991	6.98969984	1.78999996	0	200	0
-3.01099992	6.98950005	1.77600002	0	200	0
-3.01900005	6.98950005	1.77999997	0	200	0
-3.02200007	6.98950005	1.78499997	0	200	0
-3.0309999	6.98939991	1.78299999	0	200	0
-3.0769999	6.98939991	1.78900003	0	200	0
-3.03900003	6.98939991	1.79200006	0	200	0
-3.03800011	6.98939991	1.80299997	0	200	0
-3.04399991	6.98939991	1.80700004	0	200	0
-2.97000003	6.98960018	1.78100002	0	200	0
-2.9749999	6.98960018	1.78499997	0	200	0
-2.97300005	6.98960018	1.79100001	0	200	0
-2.9690001	6.98960018	1.79700005	0	200	0
-3.01600003	6.98950005	1.74199998	0	200	0
-2.97099996	6.98960018	1.75300002	0	200	0
-3.00900006	6.98950005	1.74899995	0	200	0
-2.97000003	6.98960018	1.75899994	0	200	0
-2.97000003	6.98960018	1.76400006	0	200	0
-2.96799994	6.98960018	1.76999998	0	200	0
-2.97000003	6.98960018	1.74199998	0	200	0
-2.9690001	6.98960018	1.73699999	0	200	0
-3.0079999	6.98950005	1.73300004	0	200	0
-3.01200008	6.98950005	1.72599995	0	200	0
-3.03699994	6.98950005	2.42600012	0	200	0
-2.97099996	6.98960018	2.43799996	0	200	0
-3.03600001	6.98950005	2.421	0	200	0
-2.9849999	6.98969984	2.43700004	0	200	0
-2.9690001	6.98960018	2.44300008	0	200	0
-3.06800008	6.98939991	2.42000008	0	200	0
-3.03299999	6.98950005	2.4519999	0	200	0
-3.02999997	6.98950005	2.44700003	0	200	0
-3.06800008	6.98939991	2.4519999	0	200	0
-3.04200006	6.98950005	2.44199991	0	200	0
-3.06800008	6.98939991	2.44700003	0	200	0
-3.07200003	6.98969984	2.44099998	0	200	0
-3.03500009	6.98950005	2.43700004	0	200	0
-3.06900001	6.98939991	2.43600011	0	200	0
-3.06800008	6.98939991	2.42499995	0	200	0
-2.97099996	6.98960018	2.45300007	0	200	0
-2.98399997	6.98969984	2.45300007	0	200	0
-2.97000003	6.98960018	2.44799995	0	200	0
-2.98600006	6.98969984	2.44799995	0	200	0
-2.97000003	6.98960018	2.46300006	0	200	0
-2.98399997	6.98969984	2.46300006	0	200	0
-2.97099996	6.98960018	1.72599995	0	200	0
-2.99600005	6.98969984	1.72500002	0	200	0
-2.97000003	6.98960018	1.73099995	0	200	0
-2.99699998	6.98969984	1.71899998	0	200	0
-3.00900006	6.98950005	1.71599996	0	200	0
-3.01099992	6.98950005	1.72099996	0	200	0
-3.03200006	6.98950005	2.46300006	0	200	0
-3.06900001	6.98939991	2.46799994	0	200	0
-3.07200003	6.98939991	2.46300006	0	200	0
-3.02900004	6.98950005	2.46799994	0	200	0
-2.98399997	6.98969984	2.46799994	0	200	0
-2.97099996	6.98960018	2.46799994	0	200	0
-2.97399998	6.98960018	2.49399996	0	200	0
-3.06900001	6.98939991	2.47300005	0	200	0
-3.07200003	6.98939991	2.50500011	0	200	0
-3.03699994	6.98950005	2.50500011	0	200	0
-3.06800008	6.98939991	2.5	0	200	0
-3.02999997	6.98950005	2.5	0	200	0
-2.97300005	6.98960018	2.49900007	0	200	0
-2.98900008	6.98969984	2.49900007	0	200	0
-2.9749999	6.98960018	2.5250001	0	200	0
-2.98900008	6.98969984	2.51999998	0	200	0
-2.97399998	6.98960018	2.51999998	0	200	0
-2.98900008	6.98969984	2.5150001	0	200	0
-2.97199988	6.98960018	2.5150001	0	200	0
-2.99000001	6.98969984	2.50500011	0	200	0
-2.97399998	6.98960018	2.50500011	0	200	0
-2.99099994	6.98969984	2.5250001	0	200	0
-2.99699998	6.98969984	1.70200002	0	200	0
-3.00600004	6.98950005	1.70000005	0	200	0
-2.97000003	6.98960018	1.70899999	0	200	0
-3.00699997	6.98950005	1.70500004	0	200	0
-2.97000003	6.98960018	1.71500003	0	200	0
-3.00200009	6.98969984	1.66199994	0	200	0
-3.01300001	6.98950005	1.65900004	0	200	0
-2.97399998	6.98960018	1.66999996	0	200	0
-3.00399995	6.98969984	1.66700006	0	200	0
-2.9749999	6.98960018	1.67499995	0	200	0
-3.01300001	6.98950005	1.66499996	0	200	0
-2.97099996	6.98960018	1.68200004	0	200	0
-3.00099993	6.98969984	1.67299998	0	200	0
-3.01399994	6.98950005	1.66999996	0	200	0
-2.97300005	6.98960018	1.68700004	0	200	0
-2.99900007	6.98969984	1.67900002	0	200	0
-3.01200008	6.98950005	1.676	0	200	0
-2.97099996	6.98960018	1.69799995	0	200	0
-2.97000003	6.98960018	1.704	0	200	0
-3.01399994	6.98950005	1.68700004	0	200	0
-3.01200008	6.98950005	1.69299996	0	200	0
-2.97000003	6.98960018	1.65400004	0	200	0
-2.97099996	6.98960018	1.65900004	0	200	0
-2.99699998	6.98969984	1.65199995	0	200	0
-3.01200008	6.98950005	1.648	0	200	0
-2.97099996	6.98960018	1.64300001	0	200	0
-2.97399998	6.98960018	1.64699996	0	200	0
-2.99499989	6.98969984	1.63600004	0	200	0
-3.01099992	6.98950005	1.63699996	0	200	0
-2.99900007	6.98969984	1.63999999	0	200	0
-3.01399994	6.98950005	1.64199996	0	200	0
-3.0079999	6.98950005	1.63199997	0	200	0
-3.06399989	6.98950005	2.52099991	0	200	0
-3.06900001	6.98939991	2.51600003	0	200	0
-3.03999996	6.98950005	2.51600003	0	200	0
-2.99499989	6.98969984	2.5309999	0	200	0
-2.97600007	6.98960018	2.52999997	0	200	0
-2.97600007	6.98960018	2.54099989	0	200	0
-3.05800009	6.98950005	2.5480001	0	200	0
-3.06900001	6.98939991	2.54299998	0	200	0
-3.05699992	6.98950005	2.54200006	0	200	0
-3.06800008	6.98939991	2.53200006	0	200	0
-3.06800008	6.98939991	2.52699995	0	200	0
-3.04999995	6.98950005	2.53200006	0	200	0
-3.06100011	6.98950005	2.52600002	0	200	0
-3.06900001	6.98939991	2.52099991	0	200	0
-3.06900001	6.98939991	2.5480001	0	200	0
-2.98600006	6.98969984	2.55100012	0	200	0
-2.9749999	6.98960018	2.55100012	0	200	0
-2.98699999	6.98969984	2.546	0	200	0
-2.97399998	6.98960018	2.546	0	200	0
-2.98799992	6.98969984	2.54099989	0	200	0
-2.98399997	6.98969984	2.55599999	0	200	0
-2.9749999	6.98960018	2.55599999	0	200	0
-2.9690001	6.98960018	1.62699997	0	200	0
-2.9690001	6.98960018	1.63199997	0	200	0
-2.99799991	6.98969984	1.62399995	0	200	0
-3.00699997	6.98950005	1.62100005	0	200	0
-3.0710001	6.98939991	2.55299997	0	200	0
-3.05299997	6.98950005	2.55800009	0	200	0
-3.04999995	6.98950005	2.55299997	0	200	0
-3.06800008	6.98939991	2.55800009	0	200	0
-2.97300005	6.98960018	2.56599998	0	200	0
-2.98799992	6.98969984	2.56699991	0	200	0
-2.98200011	6.98969984	2.59299994	0	200	0
-2.9749999	6.98960018	2.59200001	0	200	0
-2.98399997	6.98969984	2.58200002	0	200	0
-2.9749999	6.98960018	2.58200002	0	200	0
-2.98300004	6.98969984	2.5769999	0	200	0
-2.97300005	6.98960018	2.5769999	0	200	0
-2.9849999	6.98969984	2.57200003	0	200	0
-2.9749999	6.98960018	2.57200003	0	200	0
-3.06900001	6.98939991	2.56900001	0	200	0
-3.04399991	6.98950005	2.5999999	0	200	0
-3.04500008	6.98950005	2.59500003	0	200	0
-3.06800008	6.98939991	2.59599996	0	200	0
-3.0480001	6.98950005	2.58400011	0	200	0
-3.07299995	6.98939991	2.58500004	0	200	0
-3.04500008	6.98950005	2.579	0	200	0
-3.06999993	6.98939991	2.57999992	0	200	0
-3.04699993	6.98950005	2.57399988	0	200	0
-3.07299995	6.98939991	2.57500005	0	200	0
-2.98300004	6.98969984	2.59800005	0	200	0
-2.9749999	6.98960018	2.59800005	0	200	0
-2.98600006	6.98960018	2.62400007	0	200	0
-2.9849999	6.98969984	2.61899996	0	200	0
-2.977	6.98960018	2.61800003	0	200	0
-2.98600006	6.98969984	2.60800004	0	200	0
-2.9749999	6.98960018	2.60800004	0	200	0
-2.9849999	6.98969984	2.60299993	0	200	0
-2.97199988	6.98960018	2.60299993	0	200	0
-3.04500008	6.98950005	2.60599995	0	200	0
-2.98600006	6.98969984	2.62400007	0	200	0
-3.00900006	6.98950005	1.60899997	0	200	0
-2.99600005	6.98969984	1.60699999	0	200	0
-2.97000003	6.98960018	1.61500001	0	200	0
-3.00900006	6.98950005	1.61500001	0	200	0
-2.99900007	6.98969984	1.61199999	0	200	0
-2.97199988	6.98960018	1.62	0	200	0
-2.99799991	6.98969984	1.61800003	0	200	0
-3.00600004	6.98950005	1.60399997	0	200	0
-2.97199988	6.98960018	1.56900001	0	200	0
-2.99900007	6.98969984	1.56700003	0	200	0
-2.97000003	6.98960018	1.57599998	0	200	0
-3.01200008	6.98950005	1.574	0	200	0
-3.00200009	6.98969984	1.57700002	0	200	0
-3.00699997	6.98950005	1.58099997	0	200	0
-2.97000003	6.98960018	1.58700001	0	200	0
-3	6.98969984	1.58399999	0	200	0
-3.0079999	6.98950005	1.58700001	0	200	0
-2.97000003	6.98960018	1.59300005	0	200	0
-3.0079999	6.98950005	1.59300005	0	200	0
-2.97199988	6.98960018	1.59800005	0	200	0
-2.97000003	6.98960018	1.60399997	0	200	0
-2.99699998	6.98969984	1.59599996	0	200	0
-3.01200008	6.98950005	1.56299996	0	200	0
-3.00099993	6.98969984	1.55999994	0	200	0
-2.9749999	6.98960018	1.55700004	0	200	0
-2.977	6.98960018	1.56200004	0	200	0
-3.00999999	6.98950005	1.55799997	0	200	0
-3.01600003	6.98950005	1.54999995	0	200	0
-3.00999999	6.98969984	1.55200005	0	200	0
-2.97600007	6.98960018	1.54499996	0	200	0
-3.00200009	6.98969984	1.53699994	0	200	0
-2.97399998	6.98960018	1.53999996	0	200	0
-3.01399994	6.98950005	1.54499996	0	200	0
-3.00600004	6.98969984	1.54700005	0	200	0
-3.00999999	6.98950005	1.53499997	0	200	0
-3.06999993	6.98939991	2.61199999	0	200	0
-3.0480001	6.98950005	2.61100006	0	200	0
-2.98900008	6.98969984	2.62899995	0	200	0
-2.97600007	6.98960018	2.62899995	0	200	0
-2.98799992	6.98969984	2.63400006	0	200	0
-2.977	6.98960018	2.63400006	0	200	0
-3.06999993	6.98939991	2.63899994	0	200	0
-3.05200005	6.98950005	2.63800001	0	200	0
-3.06900001	6.98939991	2.6329999	0	200	0
-3.05200005	6.98950005	2.63199997	0	200	0
-3.07299995	6.98939991	2.62800002	0	200	0
-3.05299997	6.98950005	2.62700009	0	200	0
-3.06900001	6.98939991	2.62299991	0	200	0
-3.04200006	6.98950005	2.62100005	0	200	0
-2.99300003	6.98969984	2.6500001	0	200	0
-2.97900009	6.98960018	2.64899993	0	200	0
-2.98900008	6.98969984	2.64499998	0	200	0
-2.97799993	6.98960018	2.64400005	0	200	0
-2.98099995	6.98960018	2.65499997	0	200	0
-2.99000001	6.98969984	2.65499997	0	200	0
-2.9749999	6.98960018	1.52900004	0	200	0
-2.9749999	6.98960018	1.53400004	0	200	0
-3.00200009	6.98969984	1.52600002	0	200	0
-3.00999999	6.98950005	1.52900004	0	200	0
-3.00699997	6.98950005	1.52400005	0	200	0
-3.05100012	6.98950005	2.648	0	200	0
-3.0710001	6.98939991	2.64899993	0	200	0
-3.06999993	6.98939991	2.65499997	0	200	0
-3.06399989	6.98950005	2.65400004	0	200	0
-2.98600006	6.98969984	2.66000009	0	200	0
-2.9749999	6.98960018	2.66000009	0	200	0
-2.98600006	6.98969984	2.68600011	0	200	0
-2.97300005	6.98960018	2.68499994	0	200	0
-2.97300005	6.98960018	2.68000007	0	200	0
-2.97300005	6.98960018	2.67499995	0	200	0
-2.9849999	6.98969984	2.67600012	0	200	0
-2.98600006	6.98969984	2.671	0	200	0
-2.97600007	6.98960018	2.67000008	0	200	0
-3.06500006	6.98950005	2.66499996	0	200	0
-3.0710001	6.98939991	2.66499996	0	200	0
-3.07200003	6.98950005	2.66000009	0	200	0
-3.07500005	6.98939991	2.66000009	0	200	0
-3.07399988	6.98939991	2.69199991	0	200	0
-3.07299995	6.98939991	2.68700004	0	200	0
-3.06999993	6.98950005	2.68700004	0	200	0
-3.06999993	6.98939991	2.68099999	0	200	0
-3.06399989	6.98950005	2.68099999	0	200	0
-2.97099996	6.98960018	2.6960001	0	200	0
-2.98600006	6.98969984	2.69700003	0	200	0
-2.98300004	6.98969984	2.72300005	0	200	0
-2.97199988	6.98960018	2.72199988	0	200	0
-2.98699999	6.98969984	2.71199989	0	200	0
-2.97099996	6.98960018	2.71099997	0	200	0
-2.98399997	6.98969984	2.70700002	0	200	0
-2.97099996	6.98960018	2.70600009	0	200	0
-2.9849999	6.98969984	2.7019999	0	200	0
-2.97300005	6.98960018	2.70099998	0	200	0
-3.05999994	6.98950005	2.7019999	0	200	0
-2.97199988	6.98960018	1.51800001	0	200	0
-3.00300002	6.98969984	1.51999998	0	200	0
-3.00900006	6.98950005	1.51800001	0	200	0
-2.97300005	6.98960018	1.51199996	0	200	0
-3.00099993	6.98969984	1.50899994	0	200	0
-3.00500011	6.98950005	1.50699997	0	200	0
-2.99900007	6.98969984	1.47500002	0	200	0
-2.97199988	6.98960018	1.472	0	200	0
-3.00200009	6.98950005	1.48000002	0	200	0
-2.9690001	6.98960018	1.47899997	0	200	0
-3.0079999	6.98950005	1.48899996	0	200	0
-2.96799994	6.98960018	1.48500001	0	200	0
-3.0079999	6.98950005	1.495	0	200	0
-2.99799991	6.98969984	1.49199998	0	200	0
-2.97000003	6.98960018	1.49000001	0	200	0
-3.00900006	6.98950005	1.5	0	200	0
-3	6.98969984	1.49800003	0	200	0
-3.00500011	6.98969984	1.50199997	0	200	0
-2.97199988	6.98960018	1.50100005	0	200	0
-2.9690001	6.98960018	1.50800002	0	200	0
-3	6.98969984	1.46899998	0	200	0
-3.00300002	6.98950005	1.46800005	0	200	0
-3.00500011	6.98969984	1.46099997	0	200	0
-3.00300002	6.98950005	1.46200001	0	200	0
-2.97199988	6.98960018	1.46099997	0	200	0
-3.00099993	6.98950005	1.45099998	0	200	0
-3	6.98969984	1.45099998	0	200	0
-2.977	6.98960018	1.44799995	0	200	0
-2.97199988	6.98960018	1.45500004	0	200	0
-3.00399995	6.98969984	1.43799996	0	200	0
-2.97199988	6.98960018	1.44400001	0	200	0
-3.00900006	6.98950005	1.43700004	0	200	0
-3.0710001	6.98939991	2.70799994	0	200	0
-3.06900001	6.98939991	2.70300007	0	200	0
-2.97300005	6.98960018	2.727	0	200	0
-2.98200011	6.98969984	2.72799993	0	200	0
-2.97399998	6.98960018	2.73200011	0	200	0
-2.98300004	6.98969984	2.73300004	0	200	0
-3.06999993	6.98939991	2.7349999	0	200	0
-3.06500006	6.98950005	2.73399997	0	200	0
-3.06699991	6.98939991	2.72900009	0	200	0
-3.07200003	6.98939991	2.7190001	0	200	0
-3.06500006	6.98950005	2.71799994	0	200	0
-3.06900001	6.98939991	2.71300006	0	200	0
-2.9849999	6.98969984	2.74900007	0	200	0
-2.97600007	6.98960018	2.73799992	0	200	0
-2.98399997	6.98969984	2.73799992	0	200	0
-2.97399998	6.98960018	2.74799991	0	200	0
-2.98900008	6.98969984	2.75399995	0	200	0
-2.9749999	6.98960018	2.75300002	0	200	0
-2.97199988	6.98960018	1.43200004	0	200	0
-3.00600004	6.98950005	1.43200004	0	200	0
-3.06800008	6.98950005	2.74499989	0	200	0
-3.0710001	6.98939991	2.74000001	0	200	0
-3.06500006	6.98950005	2.74000001	0	200	0
-3.06999993	6.98939991	2.74600005	0	200	0
-2.9749999	6.98960018	2.7579999	0	200	0
-2.98799992	6.98969984	2.75900006	0	200	0
-3	6.98969984	2.78200006	0	200	0
-2.98900008	6.98969984	2.7750001	0	200	0
-2.97900009	6.98960018	2.77399993	0	200	0
-2.9749999	6.98960018	2.76399994	0	200	0
-2.99000001	6.98969984	2.7650001	0	200	0
-3.06800008	6.98939991	2.76200008	0	200	0
-3.06800008	6.98950005	2.76200008	0	200	0
-3.06699991	6.98939991	2.75600004	0	200	0
-3.06500006	6.98950005	2.75600004	0	200	0
-3.06800008	6.98939991	2.76699996	0	200	0
-3.00099993	6.98960018	2.78699994	0	200	0
-3.02900004	6.98960018	2.80599999	0	200	0
-3.04999995	6.98960018	2.78699994	0	200	0
-3.03200006	6.98960018	2.79500008	0	200	0
-2.97600007	6.98960018	1.41900003	0	200	0
-2.97399998	6.98960018	1.42499995	0	200	0
-3.00500011	6.98950005	1.41999996	0	200	0
-2.9749999	6.98960018	1.41299999	0	200	0
-3.00099993	6.98950005	1.41600001	0	200	0
-3.00500011	6.98969984	1.41400003	0	200	0
-3.01099992	6.98969984	1.41799998	0	200	0
-3.00200009	6.98950005	1.40900004	0	200	0
-3.00099993	6.98950005	1.38	0	200	0
-3.00500011	6.98969984	1.37899995	0	200	0
-2.97099996	6.98960018	1.38600004	0	200	0
-3.00500011	6.98969984	1.38499999	0	200	0
-2.97600007	6.98960018	1.38999999	0	200	0
-2.99900007	6.98950005	1.39300001	0	200	0
-3.00399995	6.98969984	1.39100003	0	200	0
-2.97199988	6.98960018	1.39699996	0	200	0
-2.97099996	6.98960018	1.403	0	200	0
-3.00500011	6.98950005	1.403	0	200	0
-3.00900006	6.98969984	1.40100002	0	200	0
-3.01099992	6.98969984	1.40600002	0	200	0
-2.97199988	6.98960018	1.37399995	0	200	0
-3.00200009	6.98950005	1.37399995	0	200	0
-2.97199988	6.98960018	1.36800003	0	200	0
-2.97000003	6.98960018	1.35699999	0	200	0
-3.00099993	6.98969984	1.35699999	0	200	0
-2.97300005	6.98960018	1.36099994	0	200	0
-3.00699997	6.98969984	1.36000001	0	200	0
-2.97099996	6.98960018	1.34500003	0	200	0
-3.00699997	6.98969984	1.34200001	0	200	0
-3.00099993	6.98950005	1.35099995	0	200	0
-3.03399992	6.98960018	2.81200004	0	200	0
-3.03399992	6.98960018	2.81699991	0	200	0
-2.9690001	6.98960018	1.33899999	0	200	0
-3	6.98950005	1.33299994	0	200	0
-2.97399998	6.98960018	1.32500005	0	200	0
-3.00300002	6.98969984	1.33200002	0	200	0
-2.97099996	6.98960018	1.33200002	0	200	0
-3.00999999	6.98969984	1.32299995	0	200	0
-2.97199988	6.98960018	1.31400001	0	200	0
-3.00399995	6.98950005	1.32000005	0	200	0
-3.00900006	6.98969984	1.31799996	0	200	0
-3.00600004	6.98969984	1.31299996	0	200	0
-3.00099993	6.98950005	1.28499997	0	200	0
-3.00399995	6.98969984	1.28999996	0	200	0
-3.00600004	6.98950005	1.28900003	0	200	0
-2.9749999	6.98960018	1.29499996	0	200	0
-3.00300002	6.98969984	1.296	0	200	0
-2.977	6.98960018	1.29999995	0	200	0
-3.00399995	6.98950005	1.296	0	200	0
-3.00600004	6.98969984	1.301	0	200	0
-2.9749999	6.98960018	1.30700004	0	200	0
-3.00300002	6.98950005	1.30200005	0	200	0
-3.00900006	6.98969984	1.28100002	0	200	0
-2.97399998	6.98960018	1.27699995	0	200	0
-2.9749999	6.98960018	1.28299999	0	200	0
-2.97399998	6.98960018	1.27199996	0	200	0
-3.00399995	6.98969984	1.26499999	0	200	0
-3.0079999	6.98969984	1.26999998	0	200	0
-2.97199988	6.98960018	1.26600003	0	200	0
-3.0079999	6.98969984	1.25800002	0	200	0
-2.9690001	6.98960018	1.24899995	0	200	0
-2.99499989	6.98950005	1.25699997	0	200	0
-2.9690001	6.98960018	1.255	0	200	0
-2.99699998	6.98950005	1.24399996	0	200	0
-2.97000003	6.98960018	1.24300003	0	200	0
-3.00300002	6.98969984	1.24100006	0	200	0
-3.00099993	6.98969984	1.23000002	0	200	0
-2.99499989	6.98950005	1.23300004	0	200	0
-2.97099996	6.98960018	1.23599994	0	200	0
-2.96700001	6.98960018	1.22000003	0	200	0
-2.9690001	6.98960018	1.22500002	0	200	0
-3.0079999	6.98969984	1.22099996	0	200	0
-3.01300001	6.98969984	1.18799996	0	200	0
-2.97000003	6.98960018	1.19400001	0	200	0
-3.00999999	6.98969984	1.19500005	0	200	0
-2.99799991	6.98950005	1.19400001	0	200	0
-2.97000003	6.98960018	1.20599997	0	200	0
-2.99900007	6.98950005	1.20000005	0	200	0
-3.00399995	6.98969984	1.204	0	200	0
-2.97099996	6.98960018	1.21200001	0	200	0
-2.99699998	6.98950005	1.20700002	0	200	0
-3.00200009	6.98969984	1.21099997	0	200	0
-2.97300005	6.98960018	1.18700004	0	200	0
-2.9920001	6.98950005	1.17799997	0	200	0
-3.01099992	6.98969984	1.176	0	200	0
