-14.5509996	6.99340105	1.36199999	200	0	0
-14.5489998	6.99349976	1.38800001	200	0	0
-14.4910002	6.9921999	1.36899996	200	0	0
-14.5419998	6.99329996	1.36300004	200	0	0
-14.54	6.9932003	1.36300004	200	0	0
-14.5360003	6.99340105	1.38900006	200	0	0
-14.5089998	6.99230003	1.36800003	200	0	0
-14.5120001	6.99239969	1.36800003	200	0	0
-14.5369997	6.99329996	1.38900006	200	0	0
-14.5270004	6.99310017	1.36399996	200	0	0
-14.4989996	6.99249983	1.36899996	200	0	0
-14.4980001	6.99259996	1.36600006	200	0	0
-14.5200005	6.99300003	1.36500001	200	0	0
-14.5139999	6.99230003	1.39300001	200	0	0
-14.5229998	6.99280071	1.36399996	200	0	0
-14.5209999	6.9927001	1.36500001	200	0	0
-14.5159998	6.99289989	1.36500001	200	0	0
-14.5290003	6.9932003	1.38900006	200	0	0
-14.5129995	6.99239969	1.39300001	200	0	0
-14.5340004	6.99310017	1.38900006	200	0	0
-14.5190001	6.99249983	1.39300001	200	0	0
-14.5100002	6.99259996	1.39100003	200	0	0
-14.5129995	6.99300003	1.39100003	200	0	0
-14.5139999	6.9927001	1.39100003	200	0	0
-14.5129995	6.99289989	1.39100003	200	0	0
-14.507	6.99280071	1.39100003	200	0	0
-14.4779997	6.99179983	1.39600003	200	0	0
-14.5900002	6.9946003	1.35399997	200	0	0
-14.5839996	6.99450016	1.35500002	200	0	0
-14.585	6.9946003	1.38	200	0	0
-14.5609999	6.99440002	1.35899997	200	0	0
-14.5799999	6.99450016	1.38100004	200	0	0
-14.5679998	6.99429989	1.35800004	200	0	0
-14.5690002	6.99419975	1.35800004	200	0	0
-14.5769997	6.99440002	1.38300002	200	0	0
-14.5539999	6.99409962	1.36000001	200	0	0
-14.5609999	6.99400091	1.35899997	200	0	0
-14.5600004	6.99380016	1.35899997	200	0	0
-14.5419998	6.99370003	1.36300004	200	0	0
-14.5719995	6.99429989	1.38399994	200	0	0
-14.5509996	6.9939003	1.36000001	200	0	0
-14.5649996	6.99419975	1.38399994	200	0	0
-14.5579996	6.99409962	1.38499999	200	0	0
-14.5559998	6.99370003	1.38699996	200	0	0
-14.5450001	6.99380016	1.38600004	200	0	0
-14.5539999	6.99400091	1.38499999	200	0	0
-14.5559998	6.9939003	1.38499999	200	0	0
-14.5900002	6.99479961	1.38	200	0	0
-14.4949999	6.99189997	1.36899996	200	0	0
-14.4720001	6.9920001	1.37100005	200	0	0
-14.5050001	6.99179983	1.36800003	200	0	0
-14.4689999	6.99119997	1.37100005	200	0	0
-14.46	6.99119997	1.39699996	200	0	0
-14.4890003	6.99130011	1.37	200	0	0
-14.4680004	6.99140024	1.37100005	200	0	0
-14.4820004	6.99130011	1.39600003	200	0	0
-14.4770002	6.99140024	1.39600003	200	0	0
-14.5799999	6.99489975	1.30400002	200	0	0
-14.6219997	6.99569988	1.34899998	200	0	0
-14.6120005	6.99559975	1.35000002	200	0	0
-14.6059999	6.99569988	1.37600005	200	0	0
-14.6049995	6.99550009	1.35099995	200	0	0
-14.6140003	6.99559975	1.37600005	200	0	0
-14.6070004	6.99539995	1.35000002	200	0	0
-14.6000004	6.99530077	1.35099995	200	0	0
-14.6070004	6.99550009	1.37600005	200	0	0
-14.5869999	6.99469948	1.35399997	200	0	0
-14.5880003	6.99520016	1.352	200	0	0
-14.5959997	6.99499989	1.35099995	200	0	0
-14.585	6.99479961	1.35500002	200	0	0
-14.5900002	6.99510002	1.352	200	0	0
-14.6029997	6.99539995	1.37600005	200	0	0
-14.5830002	6.99489975	1.35500002	200	0	0
-14.5950003	6.99530077	1.37699997	200	0	0
-14.5939999	6.99520016	1.37699997	200	0	0
-14.5909996	6.99510002	1.37699997	200	0	0
-14.5810003	6.99499989	1.37800002	200	0	0
-14.5880003	6.99489975	1.38	200	0	0
-14.5190001	6.99300003	1.28799999	200	0	0
-14.5150003	6.99280071	1.31400001	200	0	0
-14.5550003	6.99409962	1.28299999	200	0	0
-14.5629997	6.99429989	1.30799997	200	0	0
-14.5559998	6.99400091	1.28299999	200	0	0
-14.526	6.99289989	1.31299996	200	0	0
-14.5229998	6.9932003	1.28799999	200	0	0
-14.5530005	6.9939003	1.28299999	200	0	0
-14.5609999	6.99380016	1.28199995	200	0	0
-14.5579996	6.99419975	1.30799997	200	0	0
-14.5360003	6.99329996	1.28699994	200	0	0
-14.5190001	6.99300003	1.31400001	200	0	0
-14.552	6.99370003	1.28600001	200	0	0
-14.5279999	6.99340105	1.28799999	200	0	0
-14.5640001	6.99409962	1.30799997	200	0	0
-14.5419998	6.99349976	1.28600001	200	0	0
-14.5439997	6.99359989	1.28600001	200	0	0
-14.5139999	6.99310017	1.31400001	200	0	0
-14.5539999	6.99400091	1.30799997	200	0	0
-14.5179996	6.9932003	1.31400001	200	0	0
-14.5539999	6.9939003	1.30799997	200	0	0
-14.5389996	6.99329996	1.31200004	200	0	0
-14.5310001	6.99340105	1.31299996	200	0	0
-14.5459995	6.99349976	1.31200004	200	0	0
-14.5439997	6.99370003	1.31200004	200	0	0
-14.5439997	6.99359989	1.31200004	200	0	0
-14.4960003	6.99249983	1.31799996	200	0	0
-14.4779997	6.99130011	1.32000005	200	0	0
-14.5010004	6.99239969	1.31799996	200	0	0
-14.4840002	6.99140024	1.31900001	200	0	0
-14.5019999	6.99230003	1.31799996	200	0	0
-14.5109997	6.99210024	1.31700003	200	0	0
-14.493	6.99189997	1.31799996	200	0	0
-14.4899998	6.9920001	1.31900001	200	0	0
-14.4879999	6.99179983	1.31900001	200	0	0
-14.5209999	6.99289989	1.28799999	200	0	0
-14.4870005	6.99259996	1.31700003	200	0	0
-14.5249996	6.99280071	1.28799999	200	0	0
-14.507	6.9927001	1.28900003	200	0	0
-14.5170002	6.99259996	1.28900003	200	0	0
-14.4619999	6.99179983	1.296	200	0	0
-14.5050001	6.99189997	1.29200006	200	0	0
-14.4919996	6.9920001	1.29299998	200	0	0
-14.4949999	6.99230003	1.29299998	200	0	0
-14.4790001	6.99210024	1.29400003	200	0	0
-14.4960003	6.9927001	1.31599998	200	0	0
-14.474	6.99119997	1.32000005	200	0	0
-14.5790005	6.99520016	1.27600002	200	0	0
-14.6059999	6.99539995	1.29900002	200	0	0
-14.5819998	6.99510002	1.27600002	200	0	0
-14.6020002	6.99530077	1.29999995	200	0	0
-14.5539999	6.99419975	1.28299999	200	0	0
-14.592	6.99499989	1.27499998	200	0	0
-14.5620003	6.99429989	1.28199995	200	0	0
-14.5769997	6.99489975	1.27900004	200	0	0
-14.5970001	6.99520016	1.29999995	200	0	0
-14.5869999	6.99479961	1.278	200	0	0
-14.5699997	6.99440002	1.28199995	200	0	0
-14.5810003	6.99469948	1.278	200	0	0
-14.5740004	6.9946003	1.27900004	200	0	0
-14.5930004	6.99510002	1.29999995	200	0	0
-14.5769997	6.99499989	1.30200005	200	0	0
-14.5600004	6.99469948	1.30499995	200	0	0
-14.5769997	6.99479961	1.30400002	200	0	0
-14.5670004	6.99450016	1.30499995	200	0	0
-14.5749998	6.9946003	1.30400002	200	0	0
-14.4709997	6.99130011	1.29499996	200	0	0
-14.4720001	6.99140024	1.29499996	200	0	0
-14.4840002	6.99119997	1.29400003	200	0	0
-14.5550003	6.99409962	1.25699997	200	0	0
-14.5629997	6.99429989	1.23099995	200	0	0
-14.6079998	6.99559975	1.24800003	200	0	0
-14.6009998	6.99530077	1.22300005	200	0	0
-14.6260004	6.99569988	1.29799998	200	0	0
-14.6110001	6.99569988	1.273	200	0	0
-14.5749998	6.99440002	1.23000002	200	0	0
-14.5579996	6.99419975	1.25699997	200	0	0
-14.573	6.99450016	1.22800004	200	0	0
-14.5839996	6.99520016	1.22399998	200	0	0
-14.6029997	6.99550009	1.24800003	200	0	0
-14.5649996	6.9946003	1.22800004	200	0	0
-14.5869999	6.99510002	1.22399998	200	0	0
-14.5930004	6.99499989	1.22300005	200	0	0
-14.5869999	6.99469948	1.227	200	0	0
-14.6020002	6.99559975	1.27400005	200	0	0
-14.5810003	6.99479961	1.227	200	0	0
-14.5790005	6.99429989	1.255	200	0	0
-14.5839996	6.99489975	1.227	200	0	0
-14.6110001	6.99559975	1.29900002	200	0	0
-14.5909996	6.99539995	1.24899995	200	0	0
-14.6070004	6.99550009	1.27400005	200	0	0
-14.5810003	6.99530077	1.25	200	0	0
-14.5620003	6.99450016	1.25399995	200	0	0
-14.5979996	6.99550009	1.29999995	200	0	0
-14.5780001	6.99520016	1.25	200	0	0
-14.5880003	6.9946003	1.25199997	200	0	0
-14.5950003	6.99539995	1.27499998	200	0	0
-14.5909996	6.99510002	1.24899995	200	0	0
-14.5950003	6.99499989	1.24899995	200	0	0
-14.5810003	6.99469948	1.25300002	200	0	0
-14.5769997	6.99479961	1.25300002	200	0	0
-14.5780001	6.99489975	1.25300002	200	0	0
-14.5880003	6.99530077	1.27499998	200	0	0
-14.5080004	6.99210024	1.26600003	200	0	0
-14.5380001	6.99370003	1.23599994	200	0	0
-14.5340004	6.99380016	1.25899994	200	0	0
-14.4940004	6.9921999	1.26800001	200	0	0
-14.5129995	6.99230003	1.24000001	200	0	0
-14.5430002	6.99359989	1.23500001	200	0	0
-14.5550003	6.99349976	1.23399997	200	0	0
-14.5030003	6.99239969	1.24100006	200	0	0
-14.4960003	6.99230003	1.26699996	200	0	0
-14.5340004	6.99370003	1.26199996	200	0	0
-14.5530005	6.99340105	1.23399997	200	0	0
-14.5480003	6.99359989	1.25999999	200	0	0
-14.5500002	6.99329996	1.23500001	200	0	0
-14.5109997	6.99259996	1.23800004	200	0	0
-14.5439997	6.9932003	1.23500001	200	0	0
-14.54	6.99349976	1.26100004	200	0	0
-14.5290003	6.9927001	1.23699999	200	0	0
-14.5080004	6.99249983	1.26600003	200	0	0
-14.5019999	6.99280071	1.23899996	200	0	0
-14.4910002	6.99259996	1.26499999	200	0	0
-14.54	6.99340105	1.26100004	200	0	0
-14.5050001	6.99289989	1.23899996	200	0	0
-14.5349998	6.99329996	1.26100004	200	0	0
-14.533	6.9932003	1.26199996	200	0	0
-14.5150003	6.99280071	1.26300001	200	0	0
-14.5109997	6.99289989	1.26400006	200	0	0
-14.5170002	6.99310017	1.26300001	200	0	0
-14.5129995	6.99300003	1.26300001	200	0	0
-14.4849997	6.9920001	1.26800001	200	0	0
-14.5459995	6.99380016	1.23300004	200	0	0
-14.5489998	6.9939003	1.23199999	200	0	0
-14.5640001	6.99419975	1.23099995	200	0	0
-14.5609999	6.99409962	1.23099995	200	0	0
-14.5550003	6.99400091	1.23199999	200	0	0
-14.5550003	6.9939003	1.25699997	200	0	0
-14.5640001	6.99400091	1.25699997	200	0	0
-14.5609999	6.99370003	1.18299997	200	0	0
-14.4720001	6.99189997	1.24399996	200	0	0
-14.4799995	6.9920001	1.24300003	200	0	0
-14.4899998	6.99179983	1.26800001	200	0	0
-14.4750004	6.9921999	1.24399996	200	0	0
-14.493	6.99189997	1.26800001	200	0	0
-14.4540005	6.99130011	1.24600005	200	0	0
-14.4779997	6.99140024	1.24300003	200	0	0
-14.4759998	6.99119997	1.24399996	200	0	0
-14.4630003	6.99109983	1.26999998	200	0	0
-14.4589996	6.99140024	1.27100003	200	0	0
-14.4650002	6.99119997	1.26999998	200	0	0
-14.4779997	6.99130011	1.26900005	200	0	0
-14.6140003	6.99569988	1.222	200	0	0
-14.6090002	6.99559975	1.222	200	0	0
-14.6140003	6.99569988	1.24699998	200	0	0
-14.6029997	6.99550009	1.22300005	200	0	0
-14.6090002	6.99539995	1.222	200	0	0
-14.5819998	6.9946003	1.176	200	0	0
-14.5500002	6.99349976	1.18400002	200	0	0
-14.5579996	6.99450016	1.17799997	200	0	0
-14.5609999	6.99440002	1.17999995	200	0	0
-14.5570002	6.99380016	1.17999995	200	0	0
-14.5620003	6.99429989	1.17999995	200	0	0
-14.559	6.9939003	1.17999995	200	0	0
-14.5649996	6.99419975	1.17999995	200	0	0
-14.5550003	6.99400091	1.18099999	200	0	0
-14.5480003	6.99409962	1.18099999	200	0	0
-14.599	6.99499989	1.17200005	200	0	0
-14.5790005	6.99479961	1.14999998	200	0	0
-14.5600004	6.99370003	1.15699995	200	0	0
-14.5430002	6.99380016	1.15600002	200	0	0
-14.5780001	6.99469948	1.14999998	200	0	0
-14.5830002	6.9946003	1.14999998	200	0	0
-14.559	6.9939003	1.15499997	200	0	0
-14.5799999	6.99450016	1.14999998	200	0	0
-14.5769997	6.99489975	1.176	200	0	0
-14.5799999	6.99429989	1.153	200	0	0
-14.5469999	6.99409962	1.15600002	200	0	0
-14.5860004	6.99479961	1.17499995	200	0	0
-14.566	6.99419975	1.15400004	200	0	0
-14.5679998	6.99469948	1.17700005	200	0	0
-14.5909996	6.99510002	1.17200005	200	0	0
-14.5950003	6.99520016	1.17200005	200	0	0
-14.6009998	6.99530077	1.17200005	200	0	0
-14.6210003	6.99569988	1.16999996	200	0	0
-14.6079998	6.99539995	1.171	200	0	0
-14.6029997	6.99550009	1.171	200	0	0
-14.6059999	6.99559975	1.171	200	0	0
-14.6140003	6.99569988	1.14499998	200	0	0
-14.5790005	6.99489975	1.14999998	200	0	0
-14.5950003	6.99499989	1.14600003	200	0	0
-14.6009998	6.99559975	1.14600003	200	0	0
-14.5959997	6.99550009	1.14600003	200	0	0
-14.5889997	6.99510002	1.14699996	200	0	0
-14.6079998	6.99539995	1.14499998	200	0	0
-14.5909996	6.99520016	1.14699996	200	0	0
-14.5950003	6.99530077	1.14600003	200	0	0
-14.5900002	6.99489975	1.12399995	200	0	0
-14.4980001	6.9927001	1.18799996	200	0	0
-14.4870005	6.99259996	1.18900001	200	0	0
-14.4849997	6.99249983	1.19200003	200	0	0
-14.4879999	6.99239969	1.19200003	200	0	0
-14.4940004	6.99179983	1.19099998	200	0	0
-14.5050001	6.99230003	1.19000006	200	0	0
-14.493	6.9920001	1.19099998	200	0	0
-14.4989996	6.99210024	1.19099998	200	0	0
-14.5310001	6.9932003	1.15999997	200	0	0
-14.5240002	6.99300003	1.18599999	200	0	0
-14.5489998	6.99340105	1.15799999	200	0	0
-14.5139999	6.99310017	1.18700004	200	0	0
-14.5439997	6.99349976	1.15900004	200	0	0
-14.5310001	6.9932003	1.18499994	200	0	0
-14.5489998	6.99329996	1.18400002	200	0	0
-14.5410004	6.99340105	1.18400002	200	0	0
-14.5139999	6.99289989	1.16100001	200	0	0
-14.4779997	6.99179983	1.16700006	200	0	0
-14.5159998	6.99280071	1.16100001	200	0	0
-14.4940004	6.9927001	1.16299999	200	0	0
-14.4899998	6.99189997	1.16600001	200	0	0
-14.5019999	6.9920001	1.16499996	200	0	0
-14.4829998	6.99210024	1.16700006	200	0	0
-14.5019999	6.99289989	1.18799996	200	0	0
-14.4829998	6.9921999	1.16700006	200	0	0
-14.5139999	6.99249983	1.16400003	200	0	0
-14.5159998	6.99239969	1.16400003	200	0	0
-14.5100002	6.99230003	1.16400003	200	0	0
-14.5120001	6.99280071	1.18700004	200	0	0
-14.5159998	6.99300003	1.16100001	200	0	0
-14.4650002	6.99140024	1.19400001	200	0	0
-14.526	6.99289989	1.13499999	200	0	0
-14.5360003	6.99310017	1.10800004	200	0	0
-14.5570002	6.99450016	1.12699997	200	0	0
-14.5670004	6.99419975	1.10300004	200	0	0
-14.5380001	6.9932003	1.10800004	200	0	0
-14.5769997	6.99440002	1.12699997	200	0	0
-14.5319996	6.99300003	1.13399994	200	0	0
-14.5690002	6.99409962	1.10300004	200	0	0
-14.5179996	6.99310017	1.13499999	200	0	0
-14.5380001	6.99329996	1.10800004	200	0	0
-14.5579996	6.99400091	1.10399997	200	0	0
-14.5799999	6.99429989	1.12699997	200	0	0
-14.5570002	6.9939003	1.10399997	200	0	0
-14.5419998	6.99380016	1.10500002	200	0	0
-14.5439997	6.99349976	1.10699999	200	0	0
-14.5469999	6.99359989	1.10699999	200	0	0
-14.5469999	6.99370003	1.10699999	200	0	0
-14.5690002	6.99419975	1.12800002	200	0	0
-14.5349998	6.9932003	1.13399994	200	0	0
-14.5649996	6.99409962	1.12899995	200	0	0
-14.5550003	6.99400091	1.13	200	0	0
-14.5559998	6.9939003	1.12899995	200	0	0
-14.5430002	6.99349976	1.13300002	200	0	0
-14.5469999	6.99380016	1.13	200	0	0
-14.5389996	6.99370003	1.13300002	200	0	0
-14.5509996	6.99359989	1.13199997	200	0	0
-14.4630003	6.99130011	1.16900003	200	0	0
-14.4569998	6.99140024	1.16900003	200	0	0
-14.493	6.99119997	1.19099998	200	0	0
-14.4540005	6.99130011	1.19500005	200	0	0
-14.467	6.99119997	1.16799998	200	0	0
-14.5909996	6.99539995	1.12100005	200	0	0
-14.5930004	6.99510002	1.09500003	200	0	0
-14.599	6.99499989	1.09500003	200	0	0
-14.5979996	6.99530077	1.12	200	0	0
-14.5950003	6.99520016	1.12100005	200	0	0
-14.5909996	6.99479961	1.09800005	200	0	0
-14.5780001	6.99429989	1.102	200	0	0
-14.5860004	6.99469948	1.09800005	200	0	0
-14.5690002	6.99450016	1.10000002	200	0	0
-14.5670004	6.99440002	1.10300004	200	0	0
-14.5819998	6.9946003	1.09899998	200	0	0
-14.5939999	6.99510002	1.12100005	200	0	0
-14.592	6.99499989	1.12100005	200	0	0
-14.5749998	6.99479961	1.125	200	0	0
-14.5620003	6.9946003	1.12600005	200	0	0
-14.5740004	6.99469948	1.125	200	0	0
-14.526	6.99280071	1.13499999	200	0	0
-14.6040001	6.99559975	1.09399998	200	0	0
-14.6059999	6.99550009	1.09399998	200	0	0
-14.6070004	6.99569988	1.12	200	0	0
-14.5900002	6.99539995	1.09500003	200	0	0
-14.6009998	6.99530077	1.09399998	200	0	0
-14.6040001	6.99520016	1.09399998	200	0	0
-14.6070004	6.99559975	1.12	200	0	0
-14.6149998	6.99550009	1.11899996	200	0	0
-14.5760002	6.99440002	1.051	200	0	0
-14.6020002	6.99569988	1.09399998	200	0	0
-14.5710001	6.99429989	1.051	200	0	0
-14.6040001	6.99539995	1.04299998	200	0	0
-14.6000004	6.99530077	1.04299998	200	0	0
-14.5670004	6.99450016	1.04900002	200	0	0
-14.5970001	6.99520016	1.04299998	200	0	0
-14.5749998	6.99510002	1.046	200	0	0
-14.5939999	6.99499989	1.04400003	200	0	0
-14.5710001	6.99469948	1.04900002	200	0	0
-14.5880003	6.99479961	1.04700005	200	0	0
-14.5	6.99210024	1.11399996	200	0	0
-14.5	6.99189997	1.13999999	200	0	0
-14.4989996	6.9921999	1.11399996	200	0	0
-14.4940004	6.9920001	1.13999999	200	0	0
-14.5270004	6.99280071	1.10899997	200	0	0
-14.4899998	6.99230003	1.11500001	200	0	0
-14.5150003	6.99289989	1.11000001	200	0	0
-14.5109997	6.99239969	1.11300004	200	0	0
-14.5150003	6.9927001	1.11000001	200	0	0
-14.5139999	6.99210024	1.13800001	200	0	0
-14.507	6.99249983	1.11300004	200	0	0
-14.5010004	6.99259996	1.11199999	200	0	0
-14.5089998	6.99230003	1.13900006	200	0	0
-14.5019999	6.99239969	1.13900006	200	0	0
-14.5170002	6.99249983	1.13800001	200	0	0
-14.5139999	6.99259996	1.13600004	200	0	0
-14.4870005	6.9920001	1.11500001	200	0	0
-14.4989996	6.99179983	1.13999999	200	0	0
-14.4890003	6.99179983	1.11500001	200	0	0
-14.5150003	6.99189997	1.11300004	200	0	0
-14.4619999	6.99119997	1.11800003	200	0	0
-14.4829998	6.99130011	1.11600006	200	0	0
-14.4759998	6.99140024	1.11600006	200	0	0
-14.4840002	6.99119997	1.14100003	200	0	0
-14.4560003	6.99140024	1.14400005	200	0	0
-14.4899998	6.99130011	1.14100003	200	0	0
-14.5030003	6.99230003	1.06299996	200	0	0
-14.5360003	6.99340105	1.05700004	200	0	0
-14.5349998	6.99329996	1.05700004	200	0	0
-14.4940004	6.99249983	1.06400001	200	0	0
-14.5220003	6.99259996	1.05799997	200	0	0
-14.5290003	6.9932003	1.05799997	200	0	0
-14.5240002	6.99310017	1.05799997	200	0	0
-14.5100002	6.9927001	1.05999994	200	0	0
-14.5209999	6.99280071	1.05799997	200	0	0
-14.5229998	6.99289989	1.05799997	200	0	0
-14.5190001	6.99300003	1.05900002	200	0	0
-14.5039997	6.99249983	1.03699994	200	0	0
-14.5480003	6.9939003	1.05299997	200	0	0
-14.5419998	6.99370003	1.03100002	200	0	0
-14.4989996	6.99259996	1.03499997	200	0	0
-14.5450001	6.99359989	1.02999997	200	0	0
-14.5570002	6.99380016	1.05200005	200	0	0
-14.5120001	6.9927001	1.03400004	200	0	0
-14.54	6.99349976	1.03100002	200	0	0
-14.507	6.99280071	1.03400004	200	0	0
-14.5570002	6.99370003	1.05499995	200	0	0
-14.5360003	6.99340105	1.03100002	200	0	0
-14.5179996	6.99289989	1.03299999	200	0	0
-14.5389996	6.99329996	1.03100002	200	0	0
-14.5120001	6.99310017	1.03400004	200	0	0
-14.5209999	6.9932003	1.03299999	200	0	0
-14.5369997	6.99359989	1.05700004	200	0	0
-14.552	6.99349976	1.05499995	200	0	0
-14.5509996	6.99400091	1.05299997	200	0	0
-14.566	6.99409962	1.05200005	200	0	0
-14.566	6.99419975	1.05200005	200	0	0
-14.5769997	6.99469948	1.02199996	200	0	0
-14.5740004	6.9946003	1.023	200	0	0
-14.5629997	6.99380016	1.02600002	200	0	0
-14.566	6.99450016	1.023	200	0	0
-14.5539999	6.9939003	1.02699995	200	0	0
-14.5629997	6.99440002	1.02600002	200	0	0
-14.5539999	6.99400091	1.02699995	200	0	0
-14.5780001	6.99429989	1.02499998	200	0	0
-14.5600004	6.99409962	1.02699995	200	0	0
-14.5559998	6.99419975	1.02699995	200	0	0
-14.6140003	6.99569988	1.04200006	200	0	0
-14.6120005	6.99559975	1.04200006	200	0	0
-14.6070004	6.99550009	1.04200006	200	0	0
-14.6040001	6.99569988	1.01699996	200	0	0
-14.6110001	6.99559975	1.01600003	200	0	0
-14.6029997	6.99550009	1.01699996	200	0	0
-14.5819998	6.99539995	1.01900005	200	0	0
-14.5959997	6.99479961	1.01999998	200	0	0
-14.5979996	6.99530077	1.01800001	200	0	0
-14.5979996	6.99520016	1.01800001	200	0	0
-14.5939999	6.99499989	1.01800001	200	0	0
-14.5830002	6.99510002	1.01900005	200	0	0
-14.5600004	6.99440002	1.00100005	200	0	0
-14.5819998	6.99520016	0.994000018	200	0	0
-14.5550003	6.99380016	0.976000011	200	0	0
-14.5749998	6.99489975	0.971000016	200	0	0
-14.5559998	6.9939003	0.976000011	200	0	0
-14.5909996	6.99479961	0.970000029	200	0	0
-14.5430002	6.99370003	1.005	200	0	0
-14.5710001	6.99510002	0.995000005	200	0	0
-14.5869999	6.99469948	0.970000029	200	0	0
-14.5719995	6.99400091	0.973999977	200	0	0
-14.54	6.99380016	1.00300002	200	0	0
-14.5530005	6.99409962	0.976000011	200	0	0
-14.585	6.99499989	0.992999971	200	0	0
-14.5640001	6.9946003	0.972000003	200	0	0
-14.552	6.99419975	0.976000011	200	0	0
-14.5699997	6.99450016	0.972000003	200	0	0
-14.5769997	6.99440002	0.97299999	200	0	0
-14.5749998	6.99429989	0.973999977	200	0	0
-14.5760002	6.99489975	0.996999979	200	0	0
-14.5649996	6.9939003	1	200	0	0
-14.5480003	6.99400091	1.00199997	200	0	0
-14.5869999	6.99479961	0.995999992	200	0	0
-14.5930004	6.99469948	0.995000005	200	0	0
-14.5530005	6.99409962	1.00199997	200	0	0
-14.5489998	6.99419975	1.00199997	200	0	0
-14.5629997	6.9946003	0.998000026	200	0	0
-14.5369997	6.99349976	1.00600004	200	0	0
-14.5469999	6.99370003	0.978999972	200	0	0
-14.5349998	6.99359989	1.00600004	200	0	0
-14.5950003	6.99499989	0.967000008	200	0	0
-14.573	6.99569988	0.968999982	200	0	0
-14.5939999	6.99510002	0.967000008	200	0	0
-14.6070004	6.99559975	0.964999974	200	0	0
-14.5860004	6.99520016	0.967999995	200	0	0
-14.5830002	6.99539995	0.967999995	200	0	0
-14.599	6.99530077	0.966000021	200	0	0
-14.6000004	6.99550009	0.966000021	200	0	0
-14.5889997	6.99569988	0.992999971	200	0	0
-14.6020002	6.99559975	0.991999984	200	0	0
-14.5930004	6.99530077	0.991999984	200	0	0
-14.5979996	6.99550009	0.991999984	200	0	0
-14.6029997	6.99539995	0.990999997	200	0	0
-14.4720001	6.99140024	1.06599998	200	0	0
-14.4879999	6.99239969	1.03900003	200	0	0
-14.4899998	6.99179983	1.03900003	200	0	0
-14.4790001	6.99189997	1.03999996	200	0	0
-14.4879999	6.99230003	1.03900003	200	0	0
-14.5059996	6.9921999	1.03699994	200	0	0
-14.4919996	6.99210024	1.03799999	200	0	0
-14.4899998	6.9920001	1.03900003	200	0	0
-14.4989996	6.99179983	1.06299996	200	0	0
-14.4940004	6.99189997	1.06400001	200	0	0
-14.4829998	6.9920001	1.06500006	200	0	0
-14.4890003	6.9921999	1.06400001	200	0	0
-14.5030003	6.99210024	1.06299996	200	0	0
-14.4589996	6.99119997	1.06700003	200	0	0
-14.4829998	6.99140024	1.03900003	200	0	0
-14.4580002	6.99130011	1.06700003	200	0	0
-14.4610004	6.99119997	1.04200006	200	0	0
-14.4420004	6.99109983	1.06900001	200	0	0
-14.4729996	6.99130011	1.03999996	200	0	0
-14.5170002	6.99310017	1.00800002	200	0	0
-14.5059996	6.99280071	0.98299998	200	0	0
-14.4619999	6.99189997	0.99000001	200	0	0
-14.5200005	6.9927001	0.981999993	200	0	0
-14.4870005	6.99179983	0.987999976	200	0	0
-14.5200005	6.99300003	1.00699997	200	0	0
-14.4940004	6.9920001	0.986999989	200	0	0
-14.4910002	6.99210024	0.986999989	200	0	0
-14.4899998	6.99249983	0.987999976	200	0	0
-14.526	6.99280071	1.00699997	200	0	0
-14.5059996	6.99239969	0.986000001	200	0	0
-14.4980001	6.9921999	0.986999989	200	0	0
-14.4940004	6.99230003	0.986999989	200	0	0
-14.4899998	6.99179983	1.01300001	200	0	0
-14.507	6.9927001	1.00899994	200	0	0
-14.493	6.99189997	1.01300001	200	0	0
-14.4799995	6.9920001	1.01400006	200	0	0
-14.5150003	6.99249983	1.01100004	200	0	0
-14.4899998	6.99239969	1.01300001	200	0	0
-14.4919996	6.9921999	1.01300001	200	0	0
-14.4860001	6.99230003	1.01400006	200	0	0
-14.5059996	6.99289989	0.98299998	200	0	0
-14.5120001	6.99300003	0.98299998	200	0	0
-14.5139999	6.99310017	0.981999993	200	0	0
-14.552	6.99349976	0.977999985	200	0	0
-14.5129995	6.9932003	0.98299998	200	0	0
-14.5209999	6.99359989	0.981999993	200	0	0
-14.5159998	6.99340105	0.981999993	200	0	0
-14.5220003	6.99329996	0.981999993	200	0	0
-14.5159998	6.9932003	1.00800002	200	0	0
-14.5319996	6.99340105	1.00600004	200	0	0
-14.5609999	6.99440002	0.924000025	200	0	0
-14.573	6.99489975	0.920000017	200	0	0
-14.5570002	6.9939003	0.924000025	200	0	0
-14.5679998	6.99479961	0.921000004	200	0	0
-14.5780001	6.99469948	0.91900003	200	0	0
-14.5819998	6.9946003	0.91900003	200	0	0
-14.5570002	6.99400091	0.924000025	200	0	0
-14.5640001	6.99409962	0.922999978	200	0	0
-14.5760002	6.99450016	0.920000017	200	0	0
-14.559	6.99419975	0.924000025	200	0	0
-14.5600004	6.99429989	0.924000025	200	0	0
-14.6000004	6.99569988	0.915000021	200	0	0
-14.6070004	6.99559975	0.913999975	200	0	0
-14.6020002	6.99550009	0.913999975	200	0	0
-14.6000004	6.99539995	0.915000021	200	0	0
-14.592	6.99530077	0.915000021	200	0	0
-14.592	6.99510002	0.915000021	200	0	0
-14.5939999	6.99520016	0.915000021	200	0	0
-14.5780001	6.99499989	0.916999996	200	0	0
-14.5579996	6.99440002	0.898000002	200	0	0
-14.5010004	6.99310017	0.933000028	200	0	0
-14.5179996	6.99329996	0.904999971	200	0	0
-14.5480003	6.99429989	0.898999989	200	0	0
-14.5249996	6.99340105	0.903999984	200	0	0
-14.5120001	6.99349976	0.906000018	200	0	0
-14.5559998	6.99419975	0.898999989	200	0	0
-14.5150003	6.9932003	0.930999994	200	0	0
-14.5620003	6.99409962	0.898000002	200	0	0
-14.5530005	6.99400091	0.898999989	200	0	0
-14.5129995	6.99329996	0.930999994	200	0	0
-14.5369997	6.99359989	0.902999997	200	0	0
-14.5509996	6.9939003	0.898999989	200	0	0
-14.5430002	6.99380016	0.899999976	200	0	0
-14.5539999	6.99370003	0.901000023	200	0	0
-14.5240002	6.99340105	0.930000007	200	0	0
-14.5179996	6.99349976	0.930999994	200	0	0
-14.526	6.99359989	0.930000007	200	0	0
-14.5380001	6.99370003	0.92900002	200	0	0
-14.6009998	6.99530077	0.888999999	200	0	0
-14.5839996	6.99539995	0.890999973	200	0	0
-14.592	6.99520016	0.889999986	200	0	0
-14.5930004	6.99510002	0.889999986	200	0	0
-14.5819998	6.9946003	0.893000007	200	0	0
-14.5909996	6.99499989	0.889999986	200	0	0
-14.5740004	6.99469948	0.893999994	200	0	0
-14.5749998	6.99489975	0.893999994	200	0	0
-14.5690002	6.99479961	0.894999981	200	0	0
-14.5030003	6.99300003	0.933000028	200	0	0
-14.5120001	6.9932003	0.906000018	200	0	0
-14.6020002	6.99559975	0.888999999	200	0	0
-14.6049995	6.99550009	0.888000011	200	0	0
-14.6099997	6.99569988	0.888000011	200	0	0
-14.427	6.99109983	0.994000018	200	0	0
-14.4549999	6.99119997	0.990999997	200	0	0
-14.4759998	6.99130011	0.989000022	200	0	0
-14.4569998	6.99140024	0.990999997	200	0	0
-14.448	6.99119997	1.01699996	200	0	0
-14.4680004	6.99130011	1.01499999	200	0	0
-14.4689999	6.99140024	1.01499999	200	0	0
-14.4840002	6.99259996	0.935000002	200	0	0
-14.4949999	6.9927001	0.933000028	200	0	0
-14.4910002	6.99280071	0.934000015	200	0	0
-14.5059996	6.99289989	0.931999981	200	0	0
-14.4720001	6.9920001	0.938000023	200	0	0
-14.4759998	6.9921999	0.912	200	0	0
-14.5	6.99230003	0.910000026	200	0	0
-14.493	6.99210024	0.93599999	200	0	0
-14.4960003	6.99239969	0.910000026	200	0	0
-14.5019999	6.99310017	0.907000005	200	0	0
-14.4790001	6.9921999	0.938000023	200	0	0
-14.4899998	6.99249983	0.911000013	200	0	0
-14.5	6.99300003	0.907000005	200	0	0
-14.5010004	6.99259996	0.907000005	200	0	0
-14.507	6.99289989	0.907000005	200	0	0
-14.4759998	6.99230003	0.938000023	200	0	0
-14.4840002	6.99239969	0.936999977	200	0	0
-14.4770002	6.99130011	0.912	200	0	0
-14.4799995	6.99140024	0.912	200	0	0
-14.4949999	6.99119997	0.93599999	200	0	0
-14.4860001	6.99179983	0.911000013	200	0	0
-14.4809999	6.9920001	0.912	200	0	0
-14.4700003	6.99130011	0.93900001	200	0	0
-14.474	6.99140024	0.938000023	200	0	0
-14.4720001	6.99189997	0.938000023	200	0	0
-14.4630003	6.99179983	0.93900001	200	0	0
-14.4639997	6.99119997	0.913999975	200	0	0
-14.5839996	6.99489975	0.842000008	200	0	0
-14.5609999	6.99380016	0.847000003	200	0	0
-14.592	6.99510002	0.864000022	200	0	0
-14.5410004	6.99359989	0.876999974	200	0	0
-14.552	6.9939003	0.84799999	200	0	0
-14.5719995	6.99479961	0.842999995	200	0	0
-14.533	6.99370003	0.878000021	200	0	0
-14.5740004	6.99469948	0.842999995	200	0	0
-14.5609999	6.99400091	0.847000003	200	0	0
-14.5810003	6.99499989	0.86500001	200	0	0
-14.5740004	6.9946003	0.842999995	200	0	0
-14.5670004	6.99409962	0.846000016	200	0	0
-14.5760002	6.99419975	0.845000029	200	0	0
-14.5649996	6.99450016	0.843999982	200	0	0
-14.5509996	6.99380016	0.874000013	200	0	0
-14.5600004	6.99429989	0.847000003	200	0	0
-14.5550003	6.99440002	0.847000003	200	0	0
-14.5790005	6.99489975	0.867999971	200	0	0
-14.5649996	6.9939003	0.871999979	200	0	0
-14.5679998	6.99479961	0.869000018	200	0	0
-14.5719995	6.99400091	0.870999992	200	0	0
-14.5769997	6.99469948	0.867999971	200	0	0
-14.5629997	6.99409962	0.871999979	200	0	0
-14.573	6.9946003	0.869000018	200	0	0
-14.5670004	6.99450016	0.869000018	200	0	0
-14.5570002	6.99419975	0.873000026	200	0	0
-14.5609999	6.99429989	0.871999979	200	0	0
-14.5679998	6.99440002	0.871999979	200	0	0
-14.5930004	6.99539995	0.838	200	0	0
-14.6009998	6.99530077	0.837000012	200	0	0
-14.5970001	6.99559975	0.864000022	200	0	0
-14.6090002	6.99550009	0.861999989	200	0	0
-14.5939999	6.99520016	0.838	200	0	0
-14.5979996	6.99510002	0.838	200	0	0
-14.5950003	6.99499989	0.838	200	0	0
-14.5939999	6.99539995	0.864000022	200	0	0
-14.599	6.99530077	0.862999976	200	0	0
-14.5930004	6.99520016	0.864000022	200	0	0
-14.5120001	6.99340105	0.855000019	200	0	0
-14.526	6.9932003	0.879000008	200	0	0
-14.5349998	6.99349976	0.851999998	200	0	0
-14.54	6.99359989	0.851999998	200	0	0
-14.5310001	6.99370003	0.852999985	200	0	0
-14.5360003	6.99340105	0.878000021	200	0	0
-14.5369997	6.99349976	0.878000021	200	0	0
-14.6210003	6.99569988	0.834999979	200	0	0
-14.6040001	6.99550009	0.837000012	200	0	0
-14.5979996	6.99559975	0.838	200	0	0
-14.5959997	6.99569988	0.864000022	200	0	0
-14.5039997	6.99249983	0.85799998	200	0	0
-14.5010004	6.99259996	0.856000006	200	0	0
-14.5080004	6.9927001	0.855000019	200	0	0
-14.4949999	6.99280071	0.856999993	200	0	0
-14.5039997	6.99329996	0.856000006	200	0	0
-14.5120001	6.99310017	0.855000019	200	0	0
-14.5010004	6.9932003	0.856000006	200	0	0
-14.4910002	6.99249983	0.88499999	200	0	0
-14.507	6.9927001	0.880999982	200	0	0
-14.526	6.99300003	0.879000008	200	0	0
-14.4890003	6.99239969	0.860000014	200	0	0
-14.5080004	6.9921999	0.883000016	200	0	0
-14.5050001	6.9920001	0.85799998	200	0	0
-14.5120001	6.99210024	0.856999993	200	0	0
-14.4689999	6.99189997	0.888000011	200	0	0
-14.4829998	6.9921999	0.861000001	200	0	0
-14.4890003	6.99230003	0.860000014	200	0	0
-14.467	6.9920001	0.888000011	200	0	0
-14.4799995	6.99210024	0.885999978	200	0	0
-14.4659996	6.99119997	0.888000011	200	0	0
-14.507	6.99140024	0.883000016	200	0	0
-14.4569998	6.99130011	0.888999999	200	0	0
-14.5	6.99189997	0.859000027	200	0	0
-14.4650002	6.99179983	0.862999976	200	0	0
-14.4980001	6.99119997	0.859000027	200	0	0
-14.4449997	6.99130011	0.86500001	200	0	0
-14.5550003	6.99429989	0.769999981	200	0	0
-14.5550003	6.99409962	0.796000004	200	0	0
-14.5930004	6.99539995	0.760999978	200	0	0
-14.5939999	6.99530077	0.760999978	200	0	0
-14.5600004	6.99440002	0.769999981	200	0	0
-14.5509996	6.99419975	0.796000004	200	0	0
-14.5810003	6.99559975	0.787999988	200	0	0
-14.5620003	6.99450016	0.76700002	200	0	0
-14.5740004	6.99520016	0.763000011	200	0	0
-14.5900002	6.99510002	0.760999978	200	0	0
-14.5699997	6.9946003	0.765999973	200	0	0
-14.5810003	6.99550009	0.787999988	200	0	0
-14.585	6.99499989	0.762000024	200	0	0
-14.5559998	6.99429989	0.796000004	200	0	0
-14.5810003	6.99469948	0.764999986	200	0	0
-14.6029997	6.99539995	0.785000026	200	0	0
-14.5799999	6.99479961	0.764999986	200	0	0
-14.559	6.99440002	0.796000004	200	0	0
-14.5819998	6.99530077	0.787999988	200	0	0
-14.5699997	6.99450016	0.791999996	200	0	0
-14.5939999	6.99520016	0.786000013	200	0	0
-14.5950003	6.99510002	0.786000013	200	0	0
-14.5699997	6.9946003	0.791999996	200	0	0
-14.5979996	6.99499989	0.786000013	200	0	0
-14.5860004	6.99469948	0.790000021	200	0	0
-14.5830002	6.99479961	0.790000021	200	0	0
-14.5790005	6.99489975	0.791000009	200	0	0
-14.5220003	6.99300003	0.801999986	200	0	0
-14.5100002	6.99329996	0.777999997	200	0	0
-14.5249996	6.99310017	0.801999986	200	0	0
-14.5690002	6.99419975	0.768999994	200	0	0
-14.5089998	6.99329996	0.80400002	200	0	0
-14.5469999	6.99409962	0.771000028	200	0	0
-14.54	6.99349976	0.773999989	200	0	0
-14.5290003	6.99380016	0.773000002	200	0	0
-14.5249996	6.99370003	0.776000023	200	0	0
-14.5579996	6.99400091	0.769999981	200	0	0
-14.5410004	6.99359989	0.773999989	200	0	0
-14.5509996	6.9939003	0.771000028	200	0	0
-14.5200005	6.99340105	0.801999986	200	0	0
-14.5109997	6.99349976	0.80400002	200	0	0
-14.5170002	6.99359989	0.802999973	200	0	0
-14.5640001	6.99400091	0.795000017	200	0	0
-14.5450001	6.9939003	0.796999991	200	0	0
-14.5570002	6.99380016	0.796000004	200	0	0
-14.5509996	6.99370003	0.799000025	200	0	0
-14.6009998	6.99569988	0.75999999	200	0	0
-14.599	6.99559975	0.75999999	200	0	0
-14.5909996	6.99550009	0.760999978	200	0	0
-14.618	6.99569988	0.783999979	200	0	0
-14.4919996	6.99289989	0.779999971	200	0	0
-14.5080004	6.99300003	0.777999997	200	0	0
-14.507	6.99310017	0.777999997	200	0	0
-14.5209999	6.9932003	0.77700001	200	0	0
-14.5059996	6.99280071	0.80400002	200	0	0
-14.5050001	6.99289989	0.80400002	200	0	0
-14.4849997	6.99210024	0.783999979	200	0	0
-14.4919996	6.9921999	0.782999992	200	0	0
-14.4860001	6.9927001	0.781000018	200	0	0
-14.4969997	6.99189997	0.808000028	200	0	0
-14.4960003	6.99249983	0.782000005	200	0	0
-14.4940004	6.99239969	0.782999992	200	0	0
-14.4989996	6.9920001	0.808000028	200	0	0
-14.4729996	6.99210024	0.81099999	200	0	0
-14.4729996	6.99230003	0.81099999	200	0	0
-14.4980001	6.9921999	0.808000028	200	0	0
-14.4809999	6.99239969	0.810000002	200	0	0
-14.4720001	6.99130011	0.81099999	200	0	0
-14.4580002	6.99119997	0.811999977	200	0	0
-14.4589996	6.99119997	0.787	200	0	0
-14.4650002	6.99130011	0.786000013	200	0	0
-14.5909996	6.99499989	0.708999991	200	0	0
-14.5950003	6.99510002	0.735000014	200	0	0
-14.5170002	6.99359989	0.726000011	200	0	0
-14.5229998	6.99349976	0.750999987	200	0	0
-14.5900002	6.99499989	0.735000014	200	0	0
-14.5880003	6.99479961	0.712000012	200	0	0
-14.566	6.99489975	0.714999974	200	0	0
-14.5349998	6.99370003	0.723999977	200	0	0
-14.5450001	6.99359989	0.748000026	200	0	0
-14.5780001	6.99469948	0.713999987	200	0	0
-14.5419998	6.99380016	0.720000029	200	0	0
-14.5830002	6.9946003	0.713	200	0	0
-14.5679998	6.99489975	0.74000001	200	0	0
-14.5360003	6.9939003	0.721000016	200	0	0
-14.5380001	6.99370003	0.749000013	200	0	0
-14.5670004	6.99400091	0.717000008	200	0	0
-14.5710001	6.99479961	0.74000001	200	0	0
-14.5349998	6.99380016	0.746999979	200	0	0
-14.5839996	6.99469948	0.739000022	200	0	0
-14.5769997	6.99429989	0.716000021	200	0	0
-14.5629997	6.99440002	0.717999995	200	0	0
-14.5419998	6.9939003	0.745999992	200	0	0
-14.5699997	6.9946003	0.74000001	200	0	0
-14.5760002	6.99450016	0.74000001	200	0	0
-14.5629997	6.99400091	0.744000018	200	0	0
-14.5749998	6.99429989	0.741999984	200	0	0
-14.5480003	6.99409962	0.745000005	200	0	0
-14.5640001	6.99419975	0.742999971	200	0	0
-14.5600004	6.99440002	0.744000018	200	0	0
-14.5209999	6.99329996	0.750999987	200	0	0
-14.6090002	6.99569988	0.707000017	200	0	0
-14.5760002	6.99559975	0.711000025	200	0	0
-14.6040001	6.99550009	0.708000004	200	0	0
-14.5889997	6.99520016	0.709999979	200	0	0
-14.5959997	6.99530077	0.708999991	200	0	0
-14.5959997	6.99539995	0.708999991	200	0	0
-14.6099997	6.99569988	0.73299998	200	0	0
-14.6059999	6.99520016	0.73299998	200	0	0
-14.5769997	6.99559975	0.736999989	200	0	0
-14.6040001	6.99550009	0.734000027	200	0	0
-14.592	6.99530077	0.735000014	200	0	0
-14.5889997	6.99539995	0.735000014	200	0	0
-14.5459995	6.9927001	0.722000003	200	0	0
-14.5170002	6.99340105	0.726000011	200	0	0
-14.5389996	6.99300003	0.72299999	200	0	0
-14.5279999	6.99280071	0.725000024	200	0	0
-14.5209999	6.9932003	0.725000024	200	0	0
-14.5030003	6.99289989	0.727999985	200	0	0
-14.5179996	6.99280071	0.750999987	200	0	0
-14.5220003	6.9932003	0.750999987	200	0	0
-14.5109997	6.99310017	0.751999974	200	0	0
-14.4560003	6.99119997	0.762000024	200	0	0
-14.4879999	6.99130011	0.758000016	200	0	0
-14.4390001	6.99130011	0.737999976	200	0	0
-14.46	6.99119997	0.736000001	200	0	0
-14.5830002	6.99559975	0.633000016	200	0	0
-14.6230001	6.99569988	0.653999984	200	0	0
-14.5679998	6.99440002	0.639999986	200	0	0
-14.5979996	6.99550009	0.630999982	200	0	0
-14.5799999	6.99450016	0.635999978	200	0	0
-14.5749998	6.9946003	0.635999978	200	0	0
-14.5760002	6.99429989	0.665000021	200	0	0
-14.599	6.99530077	0.630999982	200	0	0
-14.5830002	6.99469948	0.63499999	200	0	0
-14.5930004	6.99520016	0.632000029	200	0	0
-14.5869999	6.99559975	0.657999992	200	0	0
-14.5699997	6.99479961	0.637000024	200	0	0
-14.5749998	6.99499989	0.634000003	200	0	0
-14.585	6.99550009	0.658999979	200	0	0
-14.573	6.99450016	0.662999988	200	0	0
-14.599	6.99530077	0.657000005	200	0	0
-14.5710001	6.99469948	0.662999988	200	0	0
-14.5609999	6.99489975	0.663999975	200	0	0
-14.5930004	6.99520016	0.657999992	200	0	0
-14.5900002	6.99479961	0.660000026	200	0	0
-14.5860004	6.99499989	0.657999992	200	0	0
-14.5220003	6.99300003	0.648000002	200	0	0
-14.5419998	6.99400091	0.643000007	200	0	0
-14.5170002	6.99280071	0.675000012	200	0	0
-14.5310001	6.99310017	0.647000015	200	0	0
-14.552	6.99370003	0.643999994	200	0	0
-14.566	6.99400091	0.666000009	200	0	0
-14.5039997	6.99289989	0.675999999	200	0	0
-14.5279999	6.99380016	0.644999981	200	0	0
-14.5489998	6.99409962	0.667999983	200	0	0
-14.5179996	6.99329996	0.648999989	200	0	0
-14.533	6.99349976	0.647000015	200	0	0
-14.5290003	6.99300003	0.672999978	200	0	0
-14.5010004	6.99310017	0.675999999	200	0	0
-14.5419998	6.99329996	0.671000004	200	0	0
-14.5150003	6.9932003	0.675000012	200	0	0
-14.526	6.9939003	0.671000004	200	0	0
-14.5450001	6.99359989	0.671000004	200	0	0
-14.5310001	6.99340105	0.672999978	200	0	0
-14.5310001	6.99370003	0.672999978	200	0	0
-14.5579996	6.99409962	0.640999973	200	0	0
-14.6000004	6.99569988	0.630999982	200	0	0
-14.5139999	6.9927001	0.648999989	200	0	0
-14.5310001	6.99289989	0.647000015	200	0	0
-14.5209999	6.99259996	0.648000002	200	0	0
-14.5240002	6.99280071	0.648000002	200	0	0
-14.4949999	6.99119997	0.680000007	200	0	0
-14.4779997	6.99130011	0.681999981	200	0	0
-14.4689999	6.99119997	0.657999992	200	0	0
-14.4940004	6.99130011	0.653999984	200	0	0
-14.5780001	6.99469948	0.610000014	200	0	0
-14.5939999	6.99499989	0.579999983	200	0	0
-14.5869999	6.99510002	0.58099997	200	0	0
-14.5860004	6.99520016	0.58099997	200	0	0
-14.5869999	6.99499989	0.606999993	200	0	0
-14.6029997	6.99530077	0.578999996	200	0	0
-14.6099997	6.99569988	0.578000009	200	0	0
-14.5970001	6.99539995	0.578999996	200	0	0
-14.585	6.99510002	0.606999993	200	0	0
-14.5900002	6.99559975	0.579999983	200	0	0
-14.573	6.99550009	0.583000004	200	0	0
-14.5760002	6.99520016	0.60799998	200	0	0
-14.5979996	6.99530077	0.605000019	200	0	0
-14.6049995	6.99580002	0.603999972	200	0	0
-14.5970001	6.99539995	0.605000019	200	0	0
-14.6020002	6.99559975	0.605000019	200	0	0
-14.592	6.99550009	0.606000006	200	0	0
-14.5769997	6.99569988	0.60799998	200	0	0
-14.54	6.99349976	0.620000005	200	0	0
-14.5459995	6.99359989	0.593999982	200	0	0
-14.5229998	6.99370003	0.597000003	200	0	0
-14.5480003	6.99359989	0.619000018	200	0	0
-14.5489998	6.99380016	0.591000021	200	0	0
-14.54	6.99370003	0.620000005	200	0	0
-14.5349998	6.9939003	0.592999995	200	0	0
-14.5360003	6.99400091	0.592000008	200	0	0
-14.5600004	6.99380016	0.61500001	200	0	0
-14.5799999	6.99469948	0.583999991	200	0	0
-14.5419998	6.9939003	0.616999984	200	0	0
-14.5790005	6.9946003	0.583999991	200	0	0
-14.559	6.99409962	0.588999987	200	0	0
-14.5640001	6.99419975	0.588999987	200	0	0
-14.5679998	6.99450016	0.586000025	200	0	0
-14.5550003	6.99429989	0.589999974	200	0	0
-14.5649996	6.99440002	0.588999987	200	0	0
-14.5609999	6.99409962	0.61500001	200	0	0
-14.5710001	6.9946003	0.611000001	200	0	0
-14.5799999	6.99450016	0.610000014	200	0	0
-14.559	6.99419975	0.61500001	200	0	0
-14.5690002	6.99440002	0.614000022	200	0	0
-14.5030003	6.9921999	0.601999998	200	0	0
-14.5240002	6.99210024	0.625	200	0	0
-14.5170002	6.99230003	0.600000024	200	0	0
-14.5209999	6.9921999	0.625	200	0	0
-14.4960003	6.99239969	0.602999985	200	0	0
-14.5410004	6.99349976	0.593999982	200	0	0
-14.507	6.99230003	0.626999974	200	0	0
-14.5279999	6.99249983	0.598999977	200	0	0
-14.5229998	6.99340105	0.597000003	200	0	0
-14.5179996	6.99239969	0.625999987	200	0	0
-14.533	6.99329996	0.595000029	200	0	0
-14.5129995	6.9927001	0.59799999	200	0	0
-14.5019999	6.99280071	0.598999977	200	0	0
-14.5270004	6.99249983	0.624000013	200	0	0
-14.5050001	6.9932003	0.598999977	200	0	0
-14.5170002	6.99289989	0.597000003	200	0	0
-14.5229998	6.99310017	0.597000003	200	0	0
-14.5139999	6.99300003	0.59799999	200	0	0
-14.5270004	6.99340105	0.621999979	200	0	0
-14.5249996	6.99259996	0.621999979	200	0	0
-14.54	6.99329996	0.620000005	200	0	0
-14.5270004	6.9927001	0.621999979	200	0	0
-14.526	6.99280071	0.621999979	200	0	0
-14.5179996	6.9932003	0.623000026	200	0	0
-14.5159998	6.99289989	0.623000026	200	0	0
-14.5190001	6.99310017	0.623000026	200	0	0
-14.5220003	6.99300003	0.621999979	200	0	0
-14.5170002	6.9920001	0.625999987	200	0	0
-14.5010004	6.9920001	0.652999997	200	0	0
-14.5059996	6.99189997	0.601000011	200	0	0
-14.5089998	6.99179983	0.626999974	200	0	0
-14.5120001	6.9920001	0.601000011	200	0	0
-14.5089998	6.99189997	0.626999974	200	0	0
-14.5089998	6.99210024	0.601000011	200	0	0
-14.4989996	6.99179983	0.601999998	200	0	0
-14.4910002	6.99140024	0.602999985	200	0	0
-14.4870005	6.99119997	0.603999972	200	0	0
-14.448	6.99130011	0.63499999	200	0	0
-14.4779997	6.99140024	0.630999982	200	0	0
-14.4870005	6.99119997	0.629999995	200	0	0
-14.566	6.99520016	0.532000005	200	0	0
-14.5900002	6.99510002	0.528999984	200	0	0
-14.5620003	6.99419975	0.537	200	0	0
-14.5410004	6.99429989	0.540000021	200	0	0
-14.5749998	6.99499989	0.531000018	200	0	0
-14.5710001	6.99440002	0.536000013	200	0	0
-14.573	6.99450016	0.532999992	200	0	0
-14.5600004	6.99479961	0.535000026	200	0	0
-14.5710001	6.9946003	0.533999979	200	0	0
-14.566	6.99469948	0.533999979	200	0	0
-14.5970001	6.99559975	0.501999974	200	0	0
-14.5539999	6.99440002	0.513000011	200	0	0
-14.5889997	6.99550009	0.503000021	200	0	0
-14.599	6.99539995	0.500999987	200	0	0
-14.6020002	6.99569988	0.52700001	200	0	0
-14.5710001	6.9946003	0.508000016	200	0	0
-14.5830002	6.99530077	0.504000008	200	0	0
-14.5939999	6.99559975	0.527999997	200	0	0
-14.5950003	6.99510002	0.501999974	200	0	0
-14.585	6.99499989	0.503000021	200	0	0
-14.5830002	6.99479961	0.505999982	200	0	0
-14.5860004	6.99489975	0.505999982	200	0	0
-14.5959997	6.99550009	0.527999997	200	0	0
-14.6009998	6.99539995	0.52700001	200	0	0
-14.5900002	6.99530077	0.528999984	200	0	0
-14.6049995	6.99569988	0.500999987	200	0	0
-14.6280003	6.99580002	0.497999996	200	0	0
-14.533	6.99400091	0.541000009	200	0	0
-14.5129995	6.99300003	0.546000004	200	0	0
-14.533	6.9939003	0.541000009	200	0	0
-14.5450001	6.99380016	0.540000021	200	0	0
-14.5190001	6.9932003	0.546000004	200	0	0
-14.5249996	6.99370003	0.545000017	200	0	0
-14.5139999	6.99340105	0.546000004	200	0	0
-14.5319996	6.99329996	0.54400003	200	0	0
-14.5369997	6.99359989	0.542999983	200	0	0
-14.533	6.99349976	0.54400003	200	0	0
-14.4960003	6.99289989	0.549000025	200	0	0
-14.507	6.99310017	0.521000028	200	0	0
-14.5249996	6.9939003	0.51700002	200	0	0
-14.5509996	6.99380016	0.513000011	200	0	0
-14.5430002	6.99370003	0.51700002	200	0	0
-14.5389996	6.99409962	0.540000021	200	0	0
-14.5469999	6.99419975	0.513999999	200	0	0
-14.5710001	6.99429989	0.50999999	200	0	0
-14.4809999	6.99140024	0.552999973	200	0	0
-14.5109997	6.99249983	0.523999989	200	0	0
-14.5030003	6.99189997	0.524999976	200	0	0
-14.5	6.99280071	0.547999978	200	0	0
-14.4770002	6.9921999	0.527999997	200	0	0
-14.5179996	6.99249983	0.547999978	200	0	0
-14.4790001	6.9920001	0.55400002	200	0	0
-14.5050001	6.99210024	0.550000012	200	0	0
-14.5019999	6.9921999	0.550999999	200	0	0
-14.5019999	6.99289989	0.522000015	200	0	0
-14.5089998	6.99300003	0.521000028	200	0	0
-14.4829998	6.99130011	0.52700001	200	0	0
-14.4870005	6.99140024	0.52700001	200	0	0
-14.4940004	6.99119997	0.551999986	200	0	0
-14.4759998	6.99130011	0.55400002	200	0	0
-14.4779997	6.99119997	0.527999997	200	0	0
-14.5699997	6.9946003	0.456	200	0	0
-14.6049995	6.99550009	0.449000001	200	0	0
-14.5839996	6.99469948	0.453999996	200	0	0
-14.5889997	6.99479961	0.453000009	200	0	0
-14.599	6.99530077	0.449999988	200	0	0
-14.5790005	6.99450016	0.481000006	200	0	0
-14.5900002	6.99539995	0.451000005	200	0	0
-14.5880003	6.99489975	0.453999996	200	0	0
-14.5930004	6.99520016	0.449999988	200	0	0
-14.5909996	6.99510002	0.451000005	200	0	0
-14.6040001	6.99569988	0.474999994	200	0	0
-14.6129999	6.99559975	0.474000007	200	0	0
-14.5810003	6.99499989	0.451999992	200	0	0
-14.5760002	6.9946003	0.481000006	200	0	0
-14.6009998	6.99539995	0.474999994	200	0	0
-14.5839996	6.99479961	0.479999989	200	0	0
-14.592	6.99550009	0.476999998	200	0	0
-14.592	6.99499989	0.476999998	200	0	0
-14.592	6.99530077	0.476999998	200	0	0
-14.5810003	6.99489975	0.481000006	200	0	0
-14.5819998	6.99510002	0.477999985	200	0	0
-14.6120005	6.99559975	0.448000014	200	0	0
-14.5670004	6.99450016	0.456999987	200	0	0
-14.5480003	6.99359989	0.463999987	200	0	0
-14.5489998	6.99370003	0.463999987	200	0	0
-14.5629997	6.99380016	0.460000008	200	0	0
-14.5609999	6.9939003	0.460000008	200	0	0
-14.5629997	6.99440002	0.460000008	200	0	0
-14.559	6.99429989	0.460000008	200	0	0
-14.559	6.99409962	0.460000008	200	0	0
-14.5550003	6.99370003	0.488999993	200	0	0
-14.559	6.99400091	0.486000001	200	0	0
-14.5539999	6.99409962	0.486999989	200	0	0
-14.5609999	6.99419975	0.486000001	200	0	0
-14.6140003	6.99569988	0.448000014	200	0	0
-14.5389996	6.99349976	0.465000004	200	0	0
-14.5129995	6.99239969	0.472000003	200	0	0
-14.4989996	6.9921999	0.499000013	200	0	0
-14.5109997	6.99249983	0.472000003	200	0	0
-14.5360003	6.99280071	0.465999991	200	0	0
-14.5270004	6.99310017	0.467000008	200	0	0
-14.5179996	6.99289989	0.467999995	200	0	0
-14.4960003	6.99300003	0.472000003	200	0	0
-14.5209999	6.99289989	0.493999988	200	0	0
-14.5050001	6.99230003	0.47299999	200	0	0
-14.5019999	6.99210024	0.499000013	200	0	0
-14.5089998	6.99189997	0.472000003	200	0	0
-14.4809999	6.9920001	0.476000011	200	0	0
-14.5	6.99179983	0.474000007	200	0	0
-14.4969997	6.9916997	0.474000007	200	0	0
-14.4949999	6.99119997	0.474000007	200	0	0
-14.4890003	6.99140024	0.474999994	200	0	0
-14.4809999	6.99130011	0.476000011	200	0	0
-14.5	6.99189997	0.499000013	200	0	0
-14.4809999	6.99179983	0.501999974	200	0	0
-14.4860001	6.99119997	0.500999987	200	0	0
-14.4870005	6.99140024	0.500999987	200	0	0
-14.4770002	6.99130011	0.503000021	200	0	0
-14.4829998	6.99210024	0.476000011	200	0	0
-14.5839996	6.99510002	0.374000013	200	0	0
-14.5489998	6.99400091	0.384000003	200	0	0
-14.5509996	6.99380016	0.409999996	200	0	0
-14.5880003	6.99499989	0.372999996	200	0	0
-14.592	6.99530077	0.398999989	200	0	0
-14.5419998	6.99409962	0.38499999	200	0	0
-14.5550003	6.9939003	0.409000009	200	0	0
-14.5629997	6.99419975	0.381999999	200	0	0
-14.5830002	6.99479961	0.375999987	200	0	0
-14.5690002	6.99489975	0.379000008	200	0	0
-14.5609999	6.99429989	0.381999999	200	0	0
-14.5780001	6.99450016	0.377000004	200	0	0
-14.5749998	6.99469948	0.377999991	200	0	0
-14.5889997	6.99510002	0.398999989	200	0	0
-14.5710001	6.9946003	0.377999991	200	0	0
-14.5579996	6.99400091	0.409000009	200	0	0
-14.5649996	6.99440002	0.381999999	200	0	0
-14.5889997	6.99499989	0.398999989	200	0	0
-14.552	6.99409962	0.409000009	200	0	0
-14.5710001	6.99489975	0.404000014	200	0	0
-14.5629997	6.99429989	0.407999992	200	0	0
-14.566	6.99479961	0.405000001	200	0	0
-14.573	6.99440002	0.405999988	200	0	0
-14.5699997	6.99450016	0.404000014	200	0	0
-14.5629997	6.99469948	0.405000001	200	0	0
-14.5719995	6.9946003	0.404000014	200	0	0
-14.5900002	6.99520016	0.372999996	200	0	0
-14.6079998	6.99569988	0.370000005	200	0	0
-14.6070004	6.99530077	0.370999992	200	0	0
-14.6059999	6.99559975	0.370999992	200	0	0
-14.6059999	6.99550009	0.370999992	200	0	0
-14.5909996	6.99539995	0.372999996	200	0	0
-14.6040001	6.99559975	0.397000015	200	0	0
-14.5979996	6.99539995	0.398000002	200	0	0
-14.5500002	6.9939003	0.384000003	200	0	0
-14.5450001	6.99370003	0.412999988	200	0	0
-14.5170002	6.99280071	0.416999996	200	0	0
-14.5100002	6.99289989	0.418000013	200	0	0
-14.5220003	6.9932003	0.389999986	200	0	0
-14.5410004	6.99380016	0.38499999	200	0	0
-14.5050001	6.99310017	0.419	200	0	0
-14.5340004	6.99340105	0.388999999	200	0	0
-14.5530005	6.99359989	0.386000007	200	0	0
-14.5389996	6.99370003	0.388000011	200	0	0
-14.5279999	6.9932003	0.414999992	200	0	0
-14.5369997	6.99340105	0.414000005	200	0	0
-14.5430002	6.99359989	0.412999988	200	0	0
-14.5220003	6.99289989	0.389999986	200	0	0
-14.5	6.99179983	0.395999998	200	0	0
-14.5220003	6.99280071	0.389999986	200	0	0
-14.4969997	6.99189997	0.397000015	200	0	0
-14.4940004	6.9920001	0.397000015	200	0	0
-14.4949999	6.99210024	0.397000015	200	0	0
-14.5080004	6.9921999	0.395000011	200	0	0
-14.4949999	6.99179983	0.423000008	200	0	0
-14.4870005	6.99230003	0.398000002	200	0	0
-14.5129995	6.99249983	0.393999994	200	0	0
-14.4899998	6.99189997	0.423000008	200	0	0
-14.5030003	6.9920001	0.421999991	200	0	0
-14.5039997	6.99210024	0.421000004	200	0	0
-14.5	6.9921999	0.421999991	200	0	0
-14.5120001	6.99249983	0.419999987	200	0	0
-14.5	6.99230003	0.421999991	200	0	0
-14.5019999	6.99130011	0.395999998	200	0	0
-14.4809999	6.99140024	0.398999989	200	0	0
-14.4870005	6.99119997	0.423999995	200	0	0
-14.4919996	6.99130011	0.423000008	200	0	0
-14.4759998	6.99140024	0.425000012	200	0	0
-14.4910002	6.99119997	0.398000002	200	0	0
-14.5609999	6.99419975	0.356000006	200	0	0
