-14.2819996	6.99860001	1.75100005	200	0	0
-14.3070002	6.99969959	1.80200005	200	0	0
-14.2980003	6.99989986	1.87699997	200	0	0
-14.2919998	7	1.903	200	0	0
-14.2880001	6.99989986	1.80299997	200	0	0
-14.2849998	6.99989986	1.82799995	200	0	0
-14.2860003	7.00059986	1.92799997	200	0	0
-14.3059998	7.00059986	1.87699997	200	0	0
-14.3050003	7.00059986	1.90199995	200	0	0
-14.3050003	7	1.82700002	200	0	0
-14.2959995	7	1.87699997	200	0	0
-14.2930002	7.00059986	1.95200002	200	0	0
-14.2869997	6.99989986	1.75300002	200	0	0
-14.3079996	7	1.77699995	200	0	0
-14.2919998	7	1.80299997	200	0	0
-14.2969999	6.99989986	1.77699995	200	0	0
-14.2939997	7.00059986	2.00200009	200	0	0
-14.2989998	7.0007	2.0769999	200	0	0
-14.3059998	7.00080013	2.05200005	200	0	0
-14.2840004	7.00080013	2.00300002	200	0	0
-14.3030005	7.00080013	2.02699995	200	0	0
-14.2729998	7.0007	2.00300002	200	0	0
-14.2959995	7.00059986	2.0769999	200	0	0
-14.2950001	7.0007	2.05200005	200	0	0
-14.2790003	7.0007	2.02800012	200	0	0
-14.302	7.00059986	2.05200005	200	0	0
-14.283	7.00059986	2.02800012	200	0	0
-14.302	7.0007	1.95200002	200	0	0
-14.3030005	7.0007	2.12700009	200	0	0
-14.3109999	7.00080013	2.0769999	200	0	0
-14.2989998	7.00059986	2.12700009	200	0	0
-14.2740002	7.00080013	1.95299995	200	0	0
-14.2930002	7.0007	1.87800002	200	0	0
-14.2880001	7.00080013	1.903	200	0	0
-14.283	7.00080013	1.92799997	200	0	0
-14.302	7.0007	1.90199995	200	0	0
-14.302	7.0007	1.92700005	200	0	0
-14.3339996	7.00080013	2.15100002	200	0	0
-14.2860003	7.00080013	2.12700009	200	0	0
-14.3009996	7.0007	2.15199995	200	0	0
-14.2869997	7.00059986	2.15199995	200	0	0
-14.2869997	6.99590111	1.65100002	200	0	0
-14.29	7.00090075	2.00200009	200	0	0
-14.2810001	7.00090075	2.05200005	200	0	0
-14.2930002	7.00099993	2.0769999	200	0	0
-14.2819996	7.00090075	2.0769999	200	0	0
-14.2819996	7.00090075	2.12700009	200	0	0
-14.276	7.00090075	1.95299995	200	0	0
-14.3109999	6.99719954	1.62399995	200	0	0
-14.3070002	6.99729967	1.64900005	200	0	0
-14.2910004	6.99710035	1.625	200	0	0
-14.3070002	6.99719954	1.64900005	200	0	0
-14.2919998	6.99700022	1.625	200	0	0
-14.2919998	6.99580002	1.625	200	0	0
-14.3000002	6.99590111	1.625	200	0	0
-14.2860003	6.99690008	1.62600005	200	0	0
-14.3000002	6.99580002	1.64999998	200	0	0
-14.3219995	6.99659967	1.62399995	200	0	0
-14.29	6.99599981	1.625	200	0	0
-14.3120003	6.99609995	1.62399995	200	0	0
-14.3000002	6.99669981	1.625	200	0	0
-14.2939997	6.99690008	1.64999998	200	0	0
-14.3079996	6.99630022	1.62399995	200	0	0
-14.2819996	6.99620008	1.62600005	200	0	0
-14.2939997	6.99650097	1.625	200	0	0
-14.2969999	6.99640036	1.625	200	0	0
-14.3000002	6.99599981	1.64999998	200	0	0
-14.2939997	6.99679995	1.64999998	200	0	0
-14.2959995	6.99669981	1.64999998	200	0	0
-14.2919998	6.99609995	1.64999998	200	0	0
-14.3059998	6.99659967	1.64900005	200	0	0
-14.3079996	6.99630022	1.64900005	200	0	0
-14.2860003	6.99770021	1.62600005	200	0	0
-14.3039999	6.99790001	1.64999998	200	0	0
-14.3140001	6.99760008	1.62399995	200	0	0
-14.2939997	6.99749994	1.625	200	0	0
-14.2950001	6.99739981	1.625	200	0	0
-14.2969999	6.99770021	1.64999998	200	0	0
-14.3109999	6.99729967	1.62399995	200	0	0
-14.3059998	6.99760008	1.64900005	200	0	0
-14.3050003	6.99749994	1.64999998	200	0	0
-14.3129997	6.99739981	1.64900005	200	0	0
-14.2709999	7.00090075	1.903	200	0	0
-14.2790003	7.00080013	1.87800002	200	0	0
-14.2860003	6.99580002	1.57599998	200	0	0
-14.283	6.99590111	1.57599998	200	0	0
-14.2810001	6.99880028	1.65100002	200	0	0
-14.2930002	6.99870014	1.625	200	0	0
-14.3009996	6.99870014	1.64999998	200	0	0
-14.2729998	6.99860001	1.65100002	200	0	0
-14.3070002	6.99849987	1.62399995	200	0	0
-14.2880001	6.99840069	1.62600005	200	0	0
-14.2959995	6.99849987	1.64999998	200	0	0
-14.2980003	6.99819994	1.625	200	0	0
-14.2930002	6.99840069	1.64999998	200	0	0
-14.2740002	6.99830008	1.65100002	200	0	0
-14.2959995	6.9980998	1.625	200	0	0
-14.2989998	6.99799967	1.625	200	0	0
-14.3109999	6.99790001	1.62399995	200	0	0
-14.2819996	6.99819994	1.65100002	200	0	0
-14.3129997	6.9980998	1.64900005	200	0	0
-14.283	6.99889994	1.65100002	200	0	0
-14.283	6.99780083	1.57599998	200	0	0
-14.3009996	6.99760008	1.57500005	200	0	0
-14.2860003	6.99719954	1.57599998	200	0	0
-14.2969999	6.99679995	1.57500005	200	0	0
-14.3100004	6.99669981	1.574	200	0	0
-14.3210001	6.99659967	1.57299995	200	0	0
-14.3059998	6.99650097	1.574	200	0	0
-14.3190002	6.99640036	1.574	200	0	0
-14.2889996	6.99599981	1.57500005	200	0	0
-14.3109999	6.99620008	1.574	200	0	0
-14.3009996	6.99609995	1.57500005	200	0	0
-14.2939997	6.99630022	1.57500005	200	0	0
-14.302	6.99770021	1.57500005	200	0	0
-14.3070002	6.99749994	1.574	200	0	0
-14.3109999	6.99690008	1.574	200	0	0
-14.3059998	6.99729967	1.574	200	0	0
-14.29	6.99700022	1.57500005	200	0	0
-14.309	6.99710035	1.574	200	0	0
-14.2880001	7	1.75300002	200	0	0
-14.2969999	6.99989986	1.62699997	200	0	0
-14.2980003	6.99880028	1.625	200	0	0
-14.2819996	6.99889994	1.62600005	200	0	0
-14.2939997	7	1.653	200	0	0
-14.2889996	6.99900103	1.625	200	0	0
-14.2869997	6.99989986	1.653	200	0	0
-14.2819996	6.99950027	1.62800002	200	0	0
-14.3000002	7	1.67700005	200	0	0
-14.2919998	7	1.70299995	200	0	0
-14.2860003	6.99989986	1.67799997	200	0	0
-14.2840004	6.99989986	1.70299995	200	0	0
-14.2840004	6.99900103	1.65100002	200	0	0
-14.2860003	6.99950027	1.653	200	0	0
-14.2869997	6.99950027	1.67799997	200	0	0
-14.2969999	6.99940014	1.67799997	200	0	0
-14.2889996	6.99950027	1.70299995	200	0	0
-14.2869997	6.99900103	1.57599998	200	0	0
-14.2770004	7.00059986	1.82799995	200	0	0
-14.2950001	7.00059986	1.778	200	0	0
-14.3009996	7.00059986	1.80200005	200	0	0
-14.3039999	7.00049973	1.80200005	200	0	0
-14.2950001	7.0007	1.82799995	200	0	0
-14.2919998	7.00099993	1.90199995	200	0	0
-14.2799997	7.0007	1.75300002	200	0	0
-14.276	7.00080013	1.77900004	200	0	0
-14.29	7.00080013	1.82799995	200	0	0
-14.2880001	7.00080013	1.80299997	200	0	0
-14.302	7.00059986	1.75199997	200	0	0
-14.2969999	7.0007	1.778	200	0	0
-14.2939997	7.0007	1.80299997	200	0	0
-14.2840004	7.00119972	2.00300002	200	0	0
-14.2989998	7.00150108	1.90199995	200	0	0
-14.2919998	7.00139999	1.87800002	200	0	0
-14.2950001	7.00150108	1.95200002	200	0	0
-14.2930002	7.00110006	2.00200009	200	0	0
-14.2860003	7.00129986	1.87800002	200	0	0
-14.3009996	7.00099993	2.00200009	200	0	0
-14.29	7.00139999	1.903	200	0	0
-14.283	7.00139999	1.95299995	200	0	0
-14.2720003	7.00139999	1.92799997	200	0	0
-14.2919998	7.00119972	1.87800002	200	0	0
-14.3070002	7.00129986	1.90199995	200	0	0
-14.2880001	7.00129986	1.95299995	200	0	0
-14.2779999	7.00110006	1.87800002	200	0	0
-14.2869997	7.00129986	1.92799997	200	0	0
-14.2939997	7.00119972	1.90199995	200	0	0
-14.29	7.00119972	1.95200002	200	0	0
-14.2919998	7.00099993	1.87800002	200	0	0
-14.29	7.00119972	1.92799997	200	0	0
-14.2819996	7.00110006	1.95299995	200	0	0
-14.2849998	7.00110006	1.903	200	0	0
-14.2849998	7.00110006	1.92799997	200	0	0
-14.2919998	7.00099993	1.95200002	200	0	0
-14.3009996	7.00099993	1.92700005	200	0	0
-14.302	7.00119972	1.80200005	200	0	0
-14.2860003	7.00139999	1.82799995	200	0	0
-14.2939997	7.00150108	1.87699997	200	0	0
-14.29	7.00110006	1.80299997	200	0	0
-14.2959995	7.00129986	1.82700002	200	0	0
-14.2860003	7.00099993	1.80299997	200	0	0
-14.2849998	7.00090075	1.80299997	200	0	0
-14.2819996	7.00119972	1.82799995	200	0	0
-14.2910004	7.00110006	1.82799995	200	0	0
-14.2740002	7.00090075	1.82799995	200	0	0
-14.2969999	7.00099993	1.82700002	200	0	0
-14.2880001	7.00119972	2.02699995	200	0	0
-14.2810001	7.00139999	2.00300002	200	0	0
-14.3009996	7.00110006	2.02699995	200	0	0
-14.2950001	7.00129986	2.00200009	200	0	0
-14.2969999	7.00099993	2.02699995	200	0	0
-14.2849998	7.0007	1.70299995	200	0	0
-14.2860003	7.00080013	1.75300002	200	0	0
-14.3009996	7.00059986	1.70200002	200	0	0
-14.2860003	7.00090075	1.75300002	200	0	0
-14.2620001	7.00090075	1.77900004	200	0	0
-14.2950001	7.00119972	2.0769999	200	0	0
-14.2919998	7.00139999	2.05200005	200	0	0
-14.2969999	7.00150108	2.02699995	200	0	0
-14.2919998	7.00110006	2.0769999	200	0	0
-14.2910004	7.00150108	2.00200009	200	0	0
-14.2930002	7.00129986	2.05200005	200	0	0
-14.2919998	7.00139999	2.02699995	200	0	0
-14.2989998	7.00119972	2.05200005	200	0	0
-14.2950001	7.00129986	2.02699995	200	0	0
-14.2840004	7.00110006	2.05200005	200	0	0
-14.2869997	7.00099993	2.05200005	200	0	0
-14.302	7.00129986	2.15199995	200	0	0
-14.2919998	7.00150108	2.12700009	200	0	0
-14.2930002	7.00159979	2.05500007	200	0	0
-14.2860003	7.00159979	2.07999992	200	0	0
-14.2819996	7.00139999	2.12700009	200	0	0
-14.2989998	7.00110006	2.15199995	200	0	0
-14.3039999	7.00150108	2.05200005	200	0	0
-14.2869997	7.00099993	2.15199995	200	0	0
-14.2910004	7.00150108	2.0769999	200	0	0
-14.2950001	7.00129986	2.12700009	200	0	0
-14.283	7.00139999	2.0769999	200	0	0
-14.3149996	7.00119972	2.12599993	200	0	0
-14.2860003	7.00110006	2.12700009	200	0	0
-14.2770004	7.00099993	2.12700009	200	0	0
-14.2930002	7.00129986	2.0769999	200	0	0
-14.2969999	7.00169992	2.079	200	0	0
-14.2910004	7.00159979	2.00500011	200	0	0
-14.3009996	7.00169992	2.02900004	200	0	0
-14.2849998	7.00169992	2.05500007	200	0	0
-14.2930002	7.00159979	2.02999997	200	0	0
-14.2700005	7.00159979	1.95599997	200	0	0
-14.2989998	7.00169992	2.00500011	200	0	0
-14.2919998	7.00159979	1.92999995	200	0	0
-14.2880001	7.00159979	2.15400004	200	0	0
-14.2860003	7.00159979	2.13000011	200	0	0
-14.2910004	7.00150108	2.15199995	200	0	0
-14.3100004	7.00139999	2.15100002	200	0	0
-14.2959995	7.00169992	1.92999995	200	0	0
-14.2869997	7.00159979	1.90499997	200	0	0
-14.2950001	7.00169992	1.95500004	200	0	0
-14.2930002	7.00129986	1.80299997	200	0	0
-14.2889996	7.00150108	1.82799995	200	0	0
-14.3000002	7.00159979	1.88	200	0	0
-14.2939997	7.00169992	1.88	200	0	0
-14.2989998	7.00169992	1.90499997	200	0	0
-14.2740002	7.00169992	2.15499997	200	0	0
-14.29	7.00169992	2.12899995	200	0	0
-14.283	7.00180006	2.02999997	200	0	0
-14.2869997	7.00180006	2.00500011	200	0	0
-14.2729998	7.00180006	2.07999992	200	0	0
-14.29	7.00180006	2.05500007	200	0	0
-14.2819996	7.00180006	2.13000011	200	0	0
-14.2989998	7.0019002	2.0539999	200	0	0
-14.2740002	7.0019002	2.07999992	200	0	0
-14.29	7.00180006	2.15400004	200	0	0
-14.2860003	7.00180006	1.92999995	200	0	0
-14.2770004	7.00180006	1.95500004	200	0	0
-14.316	6.99659967	1.54900002	200	0	0
-14.302	6.99780083	1.54999995	200	0	0
-14.2969999	6.99799967	1.57500005	200	0	0
-14.2969999	6.99770021	1.54999995	200	0	0
-14.3170004	6.99669981	1.54900002	200	0	0
-14.3050003	6.99790001	1.574	200	0	0
-14.2950001	6.99679995	1.54999995	200	0	0
-14.3030005	6.99760008	1.54999995	200	0	0
-14.2889996	6.99690008	1.54999995	200	0	0
-14.2989998	6.99749994	1.54999995	200	0	0
-14.2880001	6.99700022	1.551	200	0	0
-14.2969999	6.99739981	1.54999995	200	0	0
-14.3039999	6.99729967	1.54900002	200	0	0
-14.3079996	6.99710035	1.54900002	200	0	0
-14.3109999	6.99719954	1.54900002	200	0	0
-14.3100004	6.99650097	1.54900002	200	0	0
-14.3070002	6.99640036	1.54900002	200	0	0
-14.2860003	6.99590111	1.52600002	200	0	0
-14.2959995	6.99630022	1.54999995	200	0	0
-14.302	6.99620008	1.54999995	200	0	0
-14.3170004	6.99609995	1.54900002	200	0	0
-14.29	6.99599981	1.54999995	200	0	0
-14.2720003	6.99590111	1.55200005	200	0	0
-14.2980003	6.99580002	1.54999995	200	0	0
-14.302	6.99630022	1.52499998	200	0	0
-14.2790003	6.99830008	1.551	200	0	0
-14.2810001	6.99849987	1.57599998	200	0	0
-14.2910004	6.99819994	1.54999995	200	0	0
-14.2919998	6.99840069	1.57500005	200	0	0
-14.2930002	6.9980998	1.54999995	200	0	0
-14.2910004	6.99799967	1.54999995	200	0	0
-14.2889996	6.99819994	1.57500005	200	0	0
-14.3140001	6.9980998	1.574	200	0	0
-14.3000002	6.99760008	1.52499998	200	0	0
-14.3030005	7.00180006	1.90499997	200	0	0
-14.283	7.00180006	1.88	200	0	0
-14.2779999	7.00139999	1.80299997	200	0	0
-14.2880001	7.00159979	1.83000004	200	0	0
-14.302	6.99640036	1.5	200	0	0
-14.2989998	6.99659967	1.52499998	200	0	0
-14.302	6.99630022	1.5	200	0	0
-14.3100004	6.99620008	1.49899995	200	0	0
-14.3000002	6.99650097	1.52499998	200	0	0
-14.316	6.99640036	1.52400005	200	0	0
-14.2889996	6.99599981	1.5	200	0	0
-14.2910004	6.99590111	1.5	200	0	0
-14.2799997	6.99580002	1.50100005	200	0	0
-14.3249998	6.99609995	1.523	200	0	0
-14.3149996	6.99620008	1.52400005	200	0	0
-14.3059998	6.99599981	1.52400005	200	0	0
-14.2959995	6.99580002	1.52499998	200	0	0
-14.2980003	6.99650097	1.5	200	0	0
-14.3000002	6.99669981	1.52499998	200	0	0
-14.3079996	6.99870014	1.574	200	0	0
-14.2989998	6.99889994	1.57500005	200	0	0
-14.2959995	6.99880028	1.57500005	200	0	0
-14.2869997	6.99950027	1.57799995	200	0	0
-14.3120003	6.99940014	1.57700002	200	0	0
-14.2790003	6.99900103	1.551	200	0	0
-14.2969999	6.99840069	1.54999995	200	0	0
-14.302	6.99849987	1.54999995	200	0	0
-14.2819996	6.99889994	1.551	200	0	0
-14.3000002	6.99880028	1.54999995	200	0	0
-14.2910004	6.99860001	1.54999995	200	0	0
-14.2799997	6.99870014	1.551	200	0	0
-14.2989998	6.99840069	1.52499998	200	0	0
-14.3039999	6.99840069	1.49899995	200	0	0
-14.2930002	6.99700022	1.52499998	200	0	0
-14.2790003	6.99860001	1.52600002	200	0	0
-14.3030005	6.99729967	1.49899995	200	0	0
-14.3120003	6.99710035	1.52400005	200	0	0
-14.29	6.99830008	1.5	200	0	0
-14.309	6.99739981	1.49899995	200	0	0
-14.309	6.99819994	1.49899995	200	0	0
-14.3170004	6.99749994	1.49899995	200	0	0
-14.3129997	6.99719954	1.52400005	200	0	0
-14.3100004	6.99760008	1.49899995	200	0	0
-14.3009996	6.9980998	1.5	200	0	0
-14.3140001	6.99780083	1.49899995	200	0	0
-14.2989998	6.99770021	1.5	200	0	0
-14.2770004	6.99799967	1.50100005	200	0	0
-14.2889996	6.99790001	1.5	200	0	0
-14.3079996	6.99729967	1.52400005	200	0	0
-14.3059998	6.99739981	1.52400005	200	0	0
-14.302	6.99819994	1.52499998	200	0	0
-14.3079996	6.99749994	1.52400005	200	0	0
-14.2980003	6.9980998	1.52499998	200	0	0
-14.3129997	6.99770021	1.52400005	200	0	0
-14.3059998	6.99780083	1.52400005	200	0	0
-14.2930002	6.99799967	1.52499998	200	0	0
-14.2959995	6.99790001	1.52499998	200	0	0
-14.2989998	6.99700022	1.5	200	0	0
-14.3100004	6.99679995	1.52400005	200	0	0
-14.3199997	6.99710035	1.49800003	200	0	0
-14.2950001	6.99690008	1.52499998	200	0	0
-14.3050003	6.99719954	1.49899995	200	0	0
-14.3149996	6.99669981	1.49899995	200	0	0
-14.2950001	6.99679995	1.5	200	0	0
-14.2980003	6.99690008	1.5	200	0	0
-14.3199997	6.99659967	1.49800003	200	0	0
-14.3030005	7.00059986	1.67700005	200	0	0
-14.2709999	7.00080013	1.704	200	0	0
-14.2799997	7	1.52900004	200	0	0
-14.2889996	6.99989986	1.528	200	0	0
-14.283	7.0007	1.67799997	200	0	0
-14.2799997	7.0007	1.579	200	0	0
-14.3059998	7.00080013	1.65199995	200	0	0
-14.2799997	7.00080013	1.62899995	200	0	0
-14.2819996	7.00059986	1.57799995	200	0	0
-14.2810001	6.99950027	1.55299997	200	0	0
-14.2950001	7.0007	1.653	200	0	0
-14.2849998	7.0007	1.62800002	200	0	0
-14.2810001	7	1.55400002	200	0	0
-14.2869997	6.99989986	1.55299997	200	0	0
-14.2980003	7.00059986	1.65199995	200	0	0
-14.3059998	7.00059986	1.62699997	200	0	0
-14.2819996	7	1.57799995	200	0	0
-14.2919998	6.99989986	1.57799995	200	0	0
-14.283	7	1.62800002	200	0	0
-14.2700005	6.99889994	1.52699995	200	0	0
-14.2939997	7.00099993	1.653	200	0	0
-14.2629995	7.00090075	1.62899995	200	0	0
-14.2849998	7.00090075	1.67799997	200	0	0
-14.2749996	7.00090075	1.65400004	200	0	0
-14.2729998	7.00080013	1.67900002	200	0	0
-14.2779999	7.00090075	1.70299995	200	0	0
-14.2819996	6.99849987	1.50100005	200	0	0
-14.2939997	6.99950027	1.50300002	200	0	0
-14.3000002	6.99860001	1.5	200	0	0
-14.29	6.99870014	1.5	200	0	0
-14.2959995	6.99880028	1.5	200	0	0
-14.2980003	6.99889994	1.5	200	0	0
-14.2950001	6.99960041	1.528	200	0	0
-14.2849998	6.99900103	1.50100005	200	0	0
-14.3109999	6.99950027	1.52699995	200	0	0
-14.2919998	6.99870014	1.52499998	200	0	0
-14.3000002	6.99880028	1.52499998	200	0	0
-14.2939997	6.99900103	1.52499998	200	0	0
-14.2939997	7.00119972	1.75300002	200	0	0
-14.29	7.00139999	1.778	200	0	0
-14.2860003	7.00110006	1.75300002	200	0	0
-14.2819996	7.00099993	1.75300002	200	0	0
-14.2869997	7.00119972	1.778	200	0	0
-14.2869997	7.00110006	1.778	200	0	0
-14.2950001	7.00099993	1.778	200	0	0
-14.2810001	7.00119972	1.70299995	200	0	0
-14.2869997	7.00150108	1.75300002	200	0	0
-14.2770004	7.00150108	1.778	200	0	0
-14.2959995	7.00110006	1.70200002	200	0	0
-14.2790003	7.00099993	1.70299995	200	0	0
-14.283	7.00139999	1.75300002	200	0	0
-14.2849998	7.00129986	1.75300002	200	0	0
-14.2849998	7.00159979	1.80499995	200	0	0
-14.3000002	7.0019002	1.92999995	200	0	0
-14.2889996	7.0019002	1.88	200	0	0
-14.2939997	7.0019002	1.90499997	200	0	0
-14.2869997	7.00129986	1.67799997	200	0	0
-14.29	7.00159979	1.77999997	200	0	0
-14.2799997	7.00150108	1.70299995	200	0	0
-14.2799997	7.00119972	1.67799997	200	0	0
-14.2840004	7.00159979	1.75600004	200	0	0
-14.2840004	7.00139999	1.70299995	200	0	0
-14.2849998	7.00110006	1.67799997	200	0	0
-14.2959995	7.00099993	1.67799997	200	0	0
-14.2840004	7.00129986	1.70299995	200	0	0
-14.276	7.00180006	1.78100002	200	0	0
-14.2939997	7.00169992	1.755	200	0	0
-14.2740002	7.00169992	1.80599999	200	0	0
-14.2770004	7.00169992	1.78100002	200	0	0
-14.2690001	7.00169992	1.83099997	200	0	0
-14.283	7.00200033	2.05500007	200	0	0
-14.2939997	7.00209999	2.02999997	200	0	0
-14.2840004	7.00200033	1.95500004	200	0	0
-14.2930002	7.00209999	2.00500011	200	0	0
-14.2930002	7.00200033	2.02999997	200	0	0
-14.2860003	7.0019002	1.95500004	200	0	0
-14.2969999	7.00200033	2.00500011	200	0	0
-14.2889996	7.0019002	2.02999997	200	0	0
-14.2950001	7.0019002	2.00500011	200	0	0
-14.2939997	7.00229979	1.95500004	200	0	0
-14.2770004	7.00209999	1.83099997	200	0	0
-14.2969999	7.00239992	1.92999995	200	0	0
-14.29	7.00239992	1.88	200	0	0
-14.2969999	7.00239992	1.90499997	200	0	0
-14.2959995	7.00219965	1.95500004	200	0	0
-14.2939997	7.00200033	1.83000004	200	0	0
-14.2869997	7.00229979	1.88	200	0	0
-14.2860003	7.0019002	1.83000004	200	0	0
-14.2840004	7.00229979	1.90499997	200	0	0
-14.2939997	7.00209999	1.95500004	200	0	0
-14.2950001	7.00180006	1.83000004	200	0	0
-14.2869997	7.00219965	1.92999995	200	0	0
-14.2819996	7.00219965	1.88	200	0	0
-14.2860003	7.00219965	1.90499997	200	0	0
-14.2880001	7.00209999	1.92999995	200	0	0
-14.29	7.00209999	1.88	200	0	0
-14.2989998	7.00209999	1.90499997	200	0	0
-14.2980003	7.00200033	1.92999995	200	0	0
-14.283	7.00200033	1.88	200	0	0
-14.2880001	7.00200033	1.90499997	200	0	0
-14.2959995	7.00200033	1.80499995	200	0	0
-14.2930002	7.00219965	1.83000004	200	0	0
-14.2869997	7.0019002	1.80499995	200	0	0
-14.2980003	7.00180006	1.80499995	200	0	0
-14.2950001	7.00250006	1.95500004	200	0	0
-14.2959995	7.00229979	2.00500011	200	0	0
-14.3059998	7.00239992	1.954	200	0	0
-14.29	7.00219965	2.00500011	200	0	0
-14.2910004	7.00200033	1.755	200	0	0
-14.2980003	7.00209999	1.77999997	200	0	0
-14.29	7.00209999	1.80499995	200	0	0
-14.2849998	7.0019002	1.75600004	200	0	0
-14.3059998	7.00200033	1.77900004	200	0	0
-14.2939997	7.00180006	1.755	200	0	0
-14.2959995	7.0019002	1.77999997	200	0	0
-14.2919998	7.00229979	1.80499995	200	0	0
-14.2969999	7.00229979	1.83000004	200	0	0
-14.2939997	7.00250006	1.88	200	0	0
-14.2840004	7.00200033	2.07999992	200	0	0
-14.2959995	7.00209999	2.0539999	200	0	0
-14.2889996	7.00219965	2.05500007	200	0	0
-14.2849998	7.00229979	2.02999997	200	0	0
-14.29	7.00219965	2.02999997	200	0	0
-14.2799997	7.00129986	1.62800002	200	0	0
-14.2969999	7.00150108	1.65199995	200	0	0
-14.2860003	7.00159979	1.68099999	200	0	0
-14.283	7.00119972	1.62800002	200	0	0
-14.2869997	7.00159979	1.70500004	200	0	0
-14.29	7.00139999	1.653	200	0	0
-14.2840004	7.00110006	1.62800002	200	0	0
-14.2799997	7.00150108	1.67799997	200	0	0
-14.2910004	7.00099993	1.62800002	200	0	0
-14.2779999	7.00139999	1.67900002	200	0	0
-14.2969999	7.00119972	1.65199995	200	0	0
-14.2840004	7.00110006	1.653	200	0	0
-14.2910004	7.00169992	1.70500004	200	0	0
-14.283	7.00200033	2.13000011	200	0	0
-14.2620001	7.00209999	2.07999992	200	0	0
-14.2740002	7.0019002	2.13000011	200	0	0
-14.2840004	7.00229979	2.07999992	200	0	0
-14.2969999	7.00229979	2.0539999	200	0	0
-14.2690001	7.00219965	2.07999992	200	0	0
-14.2869997	7.00239992	2.05500007	200	0	0
-14.2969999	7.00239992	2.00500011	200	0	0
-14.2840004	7.00239992	2.02999997	200	0	0
-14.29	7.00219965	2.12899995	200	0	0
-14.2770004	7.00219965	2.15499997	200	0	0
-14.2819996	7.00209999	2.15499997	200	0	0
-14.2690001	7.00200033	2.15499997	200	0	0
-14.2740002	7.00239992	2.15499997	200	0	0
-14.2860003	7.00239992	2.13000011	200	0	0
-14.2799997	7.00229979	2.13000011	200	0	0
-14.276	7.00250006	2.02999997	200	0	0
-14.2860003	7.00250006	2.07999992	200	0	0
-14.2869997	7.00250006	2.05500007	200	0	0
-14.2849998	7.00239992	2.07999992	200	0	0
-14.2819996	7.00250006	2.13000011	200	0	0
-14.2930002	7.00260019	2.05500007	200	0	0
-14.2770004	7.00260019	2.07999992	200	0	0
-14.2950001	7.00250006	2.00500011	200	0	0
-14.2959995	7.00260019	2.00500011	200	0	0
-14.2799997	7.00250006	1.92999995	200	0	0
-14.2779999	7.00250006	1.90600002	200	0	0
-14.2720003	7.00250006	2.15499997	200	0	0
-14.2910004	7.00260019	1.90499997	200	0	0
-14.2919998	7.00260019	1.95500004	200	0	0
-14.2749996	7.00260019	1.93099999	200	0	0
-14.3030005	7.00209999	1.755	200	0	0
-14.2950001	7.00229979	1.77999997	200	0	0
-14.2989998	7.00239992	1.83000004	200	0	0
-14.3009996	7.00250006	1.83000004	200	0	0
-14.3059998	7.00260019	1.87899995	200	0	0
-14.276	7.00260019	2.13000011	200	0	0
-14.2810001	7.00260019	2.15499997	200	0	0
-14.3039999	7.00270033	2.00399995	200	0	0
-14.2860003	7.00270033	2.05500007	200	0	0
-14.2860003	7.00270033	2.02999997	200	0	0
-14.2869997	7.00270033	2.07999992	200	0	0
-14.2770004	7.00270033	2.13000011	200	0	0
-14.2819996	7.00280094	2.07999992	200	0	0
-14.2849998	7.00280094	2.02999997	200	0	0
-14.2880001	7.00280094	2.05500007	200	0	0
-14.29	7.00270033	1.90499997	200	0	0
-14.2889996	7.00270033	1.95500004	200	0	0
-14.2910004	7.00270033	1.92999995	200	0	0
-14.29	6.99729967	1.45000005	200	0	0
-14.2930002	6.99640036	1.45000005	200	0	0
-14.3059998	6.99650097	1.449	200	0	0
-14.3140001	6.99630022	1.449	200	0	0
-14.3140001	6.99620008	1.449	200	0	0
-14.3190002	6.99609995	1.44799995	200	0	0
-14.3179998	6.99599981	1.44799995	200	0	0
-14.2889996	6.99580002	1.45000005	200	0	0
-14.29	6.99590111	1.45000005	200	0	0
-14.3050003	6.99690008	1.449	200	0	0
-14.3050003	6.99669981	1.449	200	0	0
-14.3070002	6.99659967	1.449	200	0	0
-14.2709999	6.99830008	1.45200002	200	0	0
-14.2799997	6.99819994	1.45099998	200	0	0
-14.2810001	6.99799967	1.45099998	200	0	0
-14.3079996	6.99700022	1.449	200	0	0
-14.3120003	6.99710035	1.449	200	0	0
-14.29	6.9980998	1.45000005	200	0	0
-14.2880001	6.99719954	1.45000005	200	0	0
-14.2930002	6.99790001	1.45000005	200	0	0
-14.2889996	6.99739981	1.45000005	200	0	0
-14.2860003	6.99780083	1.45099998	200	0	0
-14.2779999	6.99770021	1.45099998	200	0	0
-14.3070002	6.99749994	1.449	200	0	0
-14.3030005	6.99760008	1.449	200	0	0
-14.2989998	7.00270033	1.88	200	0	0
-14.3039999	7.00260019	1.83000004	200	0	0
-14.2860003	7.00219965	1.755	200	0	0
-14.3030005	7.00250006	1.80499995	200	0	0
-14.2930002	7.00239992	1.77999997	200	0	0
-14.3039999	6.99700022	1.42400002	200	0	0
-14.2959995	6.99580002	1.42499995	200	0	0
-14.2910004	6.99690008	1.42499995	200	0	0
-14.2950001	6.99590111	1.42499995	200	0	0
-14.3260002	6.99609995	1.42299998	200	0	0
-14.3070002	6.99679995	1.42400002	200	0	0
-14.3030005	6.99599981	1.42400002	200	0	0
-14.3109999	6.99659967	1.42400002	200	0	0
-14.2930002	6.99650097	1.42499995	200	0	0
-14.3030005	6.99640036	1.42400002	200	0	0
-14.283	6.99580002	1.40100002	200	0	0
-14.3170004	6.99710035	1.42299998	200	0	0
-14.3070002	7.00010014	1.50199997	200	0	0
-14.283	7	1.50300002	200	0	0
-14.2950001	6.99989986	1.50300002	200	0	0
-14.276	6.99900103	1.45099998	200	0	0
-14.309	6.99880028	1.449	200	0	0
-14.2910004	6.99870014	1.45000005	200	0	0
-14.2930002	6.99860001	1.45000005	200	0	0
-14.3100004	6.99840069	1.449	200	0	0
-14.2950001	6.99849987	1.45000005	200	0	0
-14.2980003	6.99830008	1.39999998	200	0	0
-14.283	6.99900103	1.426	200	0	0
-14.2869997	6.99790001	1.42499995	200	0	0
-14.309	6.99889994	1.42400002	200	0	0
-14.2849998	6.99799967	1.426	200	0	0
-14.2889996	6.99880028	1.42499995	200	0	0
-14.3039999	6.99870014	1.42400002	200	0	0
-14.3009996	6.99819994	1.42400002	200	0	0
-14.2919998	6.99860001	1.42499995	200	0	0
-14.29	6.99830008	1.42499995	200	0	0
-14.2959995	6.99849987	1.42499995	200	0	0
-14.3030005	6.99840069	1.42400002	200	0	0
-14.2939997	6.99729967	1.39999998	200	0	0
-14.2950001	6.99770021	1.42499995	200	0	0
-14.302	6.99760008	1.42400002	200	0	0
-14.3129997	6.99749994	1.42400002	200	0	0
-14.3059998	6.99719954	1.42400002	200	0	0
-14.3009996	6.99739981	1.42400002	200	0	0
-14.3000002	6.99729967	1.42400002	200	0	0
-14.2779999	7.00139999	1.62899995	200	0	0
-14.3000002	7.00159979	1.65499997	200	0	0
-14.2959995	7.00169992	1.67999995	200	0	0
-14.2790003	7.00099993	1.52900004	200	0	0
-14.2720003	7.00080013	1.579	200	0	0
-14.2910004	7.00090075	1.50300002	200	0	0
-14.2939997	6.99950027	1.45200002	200	0	0
-14.2910004	7.00080013	1.55299997	200	0	0
-14.2819996	7.00080013	1.50300002	200	0	0
-14.3009996	7.00080013	1.52699995	200	0	0
-14.2849998	6.99989986	1.45299995	200	0	0
-14.2659998	7	1.45500004	200	0	0
-14.2819996	7.0007	1.50300002	200	0	0
-14.2779999	7.0007	1.55400002	200	0	0
-14.2950001	7.0007	1.528	200	0	0
-14.2819996	7.00059986	1.55299997	200	0	0
-14.2989998	7.00059986	1.52699995	200	0	0
-14.2930002	7.00150108	1.62800002	200	0	0
-14.2919998	7.00129986	1.50300002	200	0	0
-14.2959995	7.00150108	1.52699995	200	0	0
-14.3000002	7.00159979	1.55499995	200	0	0
-14.2709999	7.00159979	1.58200002	200	0	0
-14.2790003	7.00119972	1.50399995	200	0	0
-14.2969999	7.00139999	1.52699995	200	0	0
-14.29	7.00150108	1.55299997	200	0	0
-14.2910004	7.00150108	1.57799995	200	0	0
-14.2790003	7.00099993	1.50399995	200	0	0
-14.283	7.00129986	1.528	200	0	0
-14.2790003	7.00139999	1.55400002	200	0	0
-14.2650003	7.00119972	1.52999997	200	0	0
-14.2880001	7.00139999	1.57799995	200	0	0
-14.2819996	7.00129986	1.55299997	200	0	0
-14.3039999	7.00129986	1.57700002	200	0	0
-14.2729998	7.00110006	1.52900004	200	0	0
-14.2980003	7.00119972	1.55200005	200	0	0
-14.3050003	7.00110006	1.55200005	200	0	0
-14.2770004	7.00119972	1.579	200	0	0
-14.2939997	7.00099993	1.55299997	200	0	0
-14.2749996	7.00110006	1.579	200	0	0
-14.2849998	7.00099993	1.57799995	200	0	0
-14.3009996	7.00090075	1.57700002	200	0	0
-14.2819996	7.00169992	1.63100004	200	0	0
-14.3000002	7.00169992	1.65499997	200	0	0
-14.29	7.00159979	1.63	200	0	0
-14.2959995	7.00180006	1.70500004	200	0	0
-14.2849998	7.0019002	1.68099999	200	0	0
-14.2799997	7.0019002	1.63100004	200	0	0
-14.2740002	7.0019002	1.65600002	200	0	0
-14.2980003	7.00180006	1.67999995	200	0	0
-14.2840004	7.00180006	1.63100004	200	0	0
-14.2840004	7.00180006	1.65600002	200	0	0
-14.2950001	7.00169992	1.58000004	200	0	0
-14.283	7	1.42799997	200	0	0
-14.29	6.99989986	1.42799997	200	0	0
-14.3140001	6.99950027	1.426	200	0	0
-14.2790003	6.99870014	1.40100002	200	0	0
-14.2840004	7.00200033	1.70599997	200	0	0
-14.2919998	7.0019002	1.70500004	200	0	0
-14.2880001	7.00209999	1.67999995	200	0	0
-14.2729998	7.00200033	1.65600002	200	0	0
-14.2950001	7.00209999	1.70500004	200	0	0
-14.3030005	7.00229979	1.70500004	200	0	0
-14.283	7.00239992	1.75600004	200	0	0
-14.2700005	7.00219965	1.70599997	200	0	0
-14.2849998	7.00250006	1.77999997	200	0	0
-14.2980003	7.00289965	1.92999995	200	0	0
-14.2919998	7.00280094	1.90499997	200	0	0
-14.2950001	7.00280094	1.95500004	200	0	0
-14.2910004	7.00280094	1.92999995	200	0	0
-14.2910004	7.00270033	1.83000004	200	0	0
-14.29	7.00280094	1.88	200	0	0
-14.3030005	7.00219965	1.65499997	200	0	0
-14.276	7.00209999	1.63100004	200	0	0
-14.3009996	7.00219965	1.67999995	200	0	0
-14.3000002	7.00200033	1.63	200	0	0
-14.2889996	7.00209999	1.65499997	200	0	0
-14.2799997	7.00250006	1.75600004	200	0	0
-14.2930002	7.00239992	1.67999995	200	0	0
-14.2869997	7.00229979	1.65600002	200	0	0
-14.2849998	7.00239992	1.70599997	200	0	0
-14.2919998	7.00229979	1.67999995	200	0	0
-14.2959995	7.00270033	1.755	200	0	0
-14.2930002	7.00270033	1.80499995	200	0	0
-14.2729998	7.00270033	1.78100002	200	0	0
-14.3009996	7.00260019	1.80499995	200	0	0
-14.2840004	7.00250006	1.70599997	200	0	0
-14.2849998	7.00280094	2.00500011	200	0	0
-14.2799997	7.00289965	2.02999997	200	0	0
-14.2819996	7.00289965	2.07999992	200	0	0
-14.2869997	7.00289965	2.05500007	200	0	0
-14.2880001	7.00299978	2.00500011	200	0	0
-14.2919998	7.00299978	2.05500007	200	0	0
-14.283	7.00299978	2.02999997	200	0	0
-14.29	7.00289965	2.00500011	200	0	0
-14.2919998	7.00289965	1.95500004	200	0	0
-14.2679996	7.00309992	2.00600004	200	0	0
-14.2729998	7.00289965	1.88100004	200	0	0
-14.3039999	7.00309992	1.90400004	200	0	0
-14.2810001	7.00320005	1.92999995	200	0	0
-14.2799997	7.00320005	1.95500004	200	0	0
-14.2790003	7.00299978	1.90499997	200	0	0
-14.2989998	7.00309992	1.92999995	200	0	0
-14.2799997	7.00309992	1.95500004	200	0	0
-14.283	7.00289965	1.90499997	200	0	0
-14.2910004	7.00299978	1.92999995	200	0	0
-14.2770004	7.00299978	1.95500004	200	0	0
-14.2779999	7.00309992	1.83099997	200	0	0
-14.2930002	7.00289965	1.77999997	200	0	0
-14.2819996	7.00299978	1.80599999	200	0	0
-14.2939997	7.00299978	1.83000004	200	0	0
-14.2729998	7.00280094	1.78100002	200	0	0
-14.2919998	7.00289965	1.80499995	200	0	0
-14.2939997	7.00289965	1.83000004	200	0	0
-14.2729998	7.00280094	1.83099997	200	0	0
-14.2779999	7.00320005	1.88100004	200	0	0
-14.2869997	7.00330019	1.95500004	200	0	0
-14.2950001	7.00330019	1.90499997	200	0	0
-14.2810001	7.00330019	1.92999995	200	0	0
-14.2860003	7.00309992	1.88	200	0	0
-14.2969999	7.00320005	1.90499997	200	0	0
-14.2860003	7.00299978	1.88	200	0	0
-14.2950001	7.00320005	1.83000004	200	0	0
-14.2930002	7.00330019	1.88	200	0	0
-14.2720003	7.00280094	1.75600004	200	0	0
-14.2849998	7.00299978	1.77999997	200	0	0
-14.2910004	7.00309992	2.02999997	200	0	0
-14.2959995	7.00330019	2.00500011	200	0	0
-14.2969999	7.0034008	1.92999995	200	0	0
-14.3009996	7.0034008	1.95500004	200	0	0
-14.2959995	7.00320005	2.00500011	200	0	0
-14.2860003	7.00320005	2.02999997	200	0	0
-14.2980003	7.00309992	2.0539999	200	0	0
-14.2860003	7.00260019	1.68099999	200	0	0
-14.2880001	7.00280094	1.70500004	200	0	0
-14.2919998	7.00250006	1.67999995	200	0	0
-14.2930002	7.00289965	1.755	200	0	0
-14.2700005	7.00270033	1.70599997	200	0	0
-14.2880001	7.00260019	1.70500004	200	0	0
-14.2740002	7.00309992	1.75600004	200	0	0
-14.2849998	7.00320005	1.77999997	200	0	0
-14.2889996	7.00320005	1.80499995	200	0	0
-14.2849998	7.00330019	1.83000004	200	0	0
-14.3030005	7.0034008	1.90499997	200	0	0
-14.2749996	7.0034008	1.88100004	200	0	0
-14.2819996	7.00280094	2.13000011	200	0	0
-14.2810001	7.00299978	2.07999992	200	0	0
-14.2919998	7.00309992	2.07999992	200	0	0
-14.2799997	7.00320005	2.05500007	200	0	0
-14.2819996	7.0019002	1.55599999	200	0	0
-14.2869997	7.00209999	1.58099997	200	0	0
-14.3030005	7.00219965	1.63	200	0	0
-14.2690001	7.00169992	1.55700004	200	0	0
-14.2770004	7.0019002	1.58099997	200	0	0
-14.2869997	7.00180006	1.58099997	200	0	0
-14.2670002	7.00239992	1.63199997	200	0	0
-14.29	7.00239992	1.65499997	200	0	0
-14.2799997	7.00229979	1.63100004	200	0	0
-14.302	7.00250006	1.65499997	200	0	0
-14.2840004	7.00299978	2.13000011	200	0	0
-14.276	7.00289965	2.13000011	200	0	0
-14.2880001	7.00280094	2.15400004	200	0	0
-14.2819996	7.00309992	2.13000011	200	0	0
-14.2740002	7.00320005	2.07999992	200	0	0
-14.2770004	7.00330019	2.07999992	200	0	0
-14.2810001	7.00330019	2.02999997	200	0	0
-14.283	7.00330019	2.05500007	200	0	0
-14.2720003	7.00299978	2.15499997	200	0	0
-14.2919998	7.00330019	2.12899995	200	0	0
-14.2700005	7.00320005	2.13000011	200	0	0
-14.2849998	7.00320005	2.15400004	200	0	0
-14.29	7.0034008	2.05500007	200	0	0
-14.2880001	7.0034008	2.00500011	200	0	0
-14.2880001	7.0034008	2.02999997	200	0	0
-14.2849998	7.0034008	2.07999992	200	0	0
-14.2849998	7.00349998	2.05500007	200	0	0
-14.3009996	7.0034008	2.15400004	200	0	0
-14.283	7.0034008	2.13000011	200	0	0
-14.276	7.00349998	2.07999992	200	0	0
-14.2799997	7.00349998	2.02999997	200	0	0
-14.2790003	7.00359964	2.07999992	200	0	0
-14.2980003	7.00349998	2.00500011	200	0	0
-14.2810001	7.00349998	1.92999995	200	0	0
-14.3050003	7.00349998	1.87899995	200	0	0
-14.2880001	7.00349998	1.90499997	200	0	0
-14.2810001	7.00349998	1.95500004	200	0	0
-14.2939997	7.00289965	1.70500004	200	0	0
-14.2849998	7.00330019	1.80499995	200	0	0
-14.2869997	7.00330019	1.77999997	200	0	0
-14.2840004	7.0034008	1.80499995	200	0	0
-14.2919998	7.0034008	1.83000004	200	0	0
-14.2690001	7.00349998	2.15499997	200	0	0
-14.2609997	7.00349998	2.13000011	200	0	0
-14.2989998	7.00359964	2.02900004	200	0	0
-14.2880001	7.00359964	2.00500011	200	0	0
-14.302	7.00359964	2.0539999	200	0	0
-14.2869997	7.00369978	2.02999997	200	0	0
-14.2810001	7.00359964	2.13000011	200	0	0
-14.2919998	7.00369978	2.05500007	200	0	0
-14.2799997	7.00369978	2.07999992	200	0	0
-14.2989998	7.00369978	2.00500011	200	0	0
-14.2849998	7.00359964	1.92999995	200	0	0
-14.2919998	7.00359964	1.88	200	0	0
-14.3039999	7.00359964	1.90400004	200	0	0
-14.283	7.00359964	1.95500004	200	0	0
-14.2919998	7.00369978	1.92999995	200	0	0
-14.3070002	6.99650097	1.39900005	200	0	0
-14.3219995	6.99659967	1.398	200	0	0
-14.3059998	6.99780083	1.37399995	200	0	0
-14.3070002	6.99770021	1.37399995	200	0	0
-14.302	6.99690008	1.37399995	200	0	0
-14.2950001	6.99799967	1.39999998	200	0	0
-14.3059998	6.99700022	1.37399995	200	0	0
-14.3109999	6.99710035	1.37300003	200	0	0
-14.3170004	6.99719954	1.37300003	200	0	0
-14.3120003	6.99739981	1.37300003	200	0	0
-14.2840004	6.99760008	1.37600005	200	0	0
-14.2889996	6.99669981	1.39999998	200	0	0
-14.2989998	6.99729967	1.37399995	200	0	0
-14.3079996	6.99679995	1.39900005	200	0	0
-14.3000002	6.99780083	1.39900005	200	0	0
-14.3109999	6.99690008	1.39900005	200	0	0
-14.3149996	6.99710035	1.398	200	0	0
-14.3050003	6.99700022	1.39900005	200	0	0
-14.3070002	6.99719954	1.39900005	200	0	0
-14.2889996	6.99580002	1.375	200	0	0
-14.3210001	6.99599981	1.37300003	200	0	0
-14.2989998	6.99590111	1.37399995	200	0	0
-14.3079996	6.99609995	1.37399995	200	0	0
-14.3199997	6.99630022	1.37300003	200	0	0
-14.302	6.99659967	1.37399995	200	0	0
-14.2989998	6.99650097	1.37399995	200	0	0
-14.2969999	6.99640036	1.375	200	0	0
-14.2939997	6.99590111	1.39999998	200	0	0
-14.316	6.99599981	1.398	200	0	0
-14.3149996	6.99640036	1.398	200	0	0
-14.3109999	6.99630022	1.39900005	200	0	0
-14.3000002	6.99880028	1.37399995	200	0	0
-14.3140001	6.99860001	1.37300003	200	0	0
-14.3059998	6.99799967	1.37399995	200	0	0
-14.2939997	6.99870014	1.375	200	0	0
-14.3120003	6.99840069	1.37300003	200	0	0
-14.3070002	6.99849987	1.37399995	200	0	0
-14.3050003	6.99889994	1.39900005	200	0	0
-14.2779999	6.99900103	1.40100002	200	0	0
-14.2969999	6.99819994	1.375	200	0	0
-14.2799997	6.9980998	1.37600005	200	0	0
-14.3050003	6.99860001	1.39900005	200	0	0
-14.3059998	6.99840069	1.39900005	200	0	0
-14.302	6.99819994	1.39900005	200	0	0
-14.2810001	6.99849987	1.40100002	200	0	0
-14.2910004	7.00349998	1.83000004	200	0	0
-14.29	7.0034008	1.77999997	200	0	0
-14.2930002	7.00349998	1.80499995	200	0	0
-14.2840004	7.00280094	1.68099999	200	0	0
-14.2860003	7.00330019	1.755	200	0	0
-14.2959995	6.99700022	1.32500005	200	0	0
-14.283	6.99590111	1.32599998	200	0	0
-14.2959995	6.99679995	1.32500005	200	0	0
-14.2939997	6.99609995	1.32500005	200	0	0
-14.2959995	6.99640036	1.324	200	0	0
-14.309	6.99630022	1.32299995	200	0	0
-14.2799997	6.99599981	1.32599998	200	0	0
-14.2799997	6.99580002	1.32599998	200	0	0
-14.2869997	7.0007	1.42799997	200	0	0
-14.2849998	7.00090075	1.45299995	200	0	0
-14.2950001	7.00059986	1.42700005	200	0	0
-14.283	7.00080013	1.45299995	200	0	0
-14.2919998	7.0007	1.45299995	200	0	0
-14.3039999	7.00059986	1.45200002	200	0	0
-14.2749996	7	1.40400004	200	0	0
-14.2880001	6.99960041	1.37800002	200	0	0
-14.2770004	6.99950027	1.37899995	200	0	0
-14.2980003	6.99940014	1.37699997	200	0	0
-14.2799997	6.99900103	1.37600005	200	0	0
-14.2770004	6.99909973	1.37899995	200	0	0
-14.2889996	6.99950027	1.403	200	0	0
-14.2910004	6.99940014	1.403	200	0	0
-14.2910004	6.99889994	1.32500005	200	0	0
-14.2869997	6.99880028	1.32500005	200	0	0
-14.2959995	6.99780083	1.32500005	200	0	0
-14.3109999	6.99790001	1.32299995	200	0	0
-14.3079996	6.99870014	1.32299995	200	0	0
-14.3070002	6.99860001	1.324	200	0	0
-14.2819996	6.99799967	1.32599998	200	0	0
-14.3129997	6.9980998	1.32299995	200	0	0
-14.3100004	6.99849987	1.32299995	200	0	0
-14.2740002	6.99840069	1.32599998	200	0	0
-14.2919998	6.99819994	1.32500005	200	0	0
-14.2930002	6.99989986	1.40199995	200	0	0
-14.309	6.99669981	1.324	200	0	0
-14.3030005	6.99690008	1.324	200	0	0
-14.3059998	6.99760008	1.324	200	0	0
-14.3109999	6.99749994	1.32299995	200	0	0
-14.2869997	6.99719954	1.32500005	200	0	0
-14.283	6.99739981	1.32599998	200	0	0
-14.2930002	6.99729967	1.32500005	200	0	0
-14.2720003	7.00159979	1.53199995	200	0	0
-14.2799997	7.00219965	1.58099997	200	0	0
-14.2860003	7.00250006	1.63100004	200	0	0
-14.283	7.00260019	1.65600002	200	0	0
-14.2749996	7.00159979	1.45599997	200	0	0
-14.2779999	7.0019002	1.50600004	200	0	0
-14.2849998	7.00150108	1.45299995	200	0	0
-14.2930002	7.0019002	1.52999997	200	0	0
-14.2869997	7.00139999	1.45299995	200	0	0
-14.2770004	7.00180006	1.50600004	200	0	0
-14.2860003	7.00129986	1.45299995	200	0	0
-14.2819996	7.00180006	1.53100002	200	0	0
-14.2810001	7.00119972	1.45299995	200	0	0
-14.2650003	7.00110006	1.45500004	200	0	0
-14.2799997	7.00099993	1.454	200	0	0
-14.2799997	7.00169992	1.50600004	200	0	0
-14.2729998	7.00169992	1.53100002	200	0	0
-14.2799997	7.00159979	1.50600004	200	0	0
-14.2989998	7.00150108	1.50199997	200	0	0
-14.276	7.00139999	1.50399995	200	0	0
-14.2700005	7.00150108	1.42900002	200	0	0
-14.2720003	7.00169992	1.45700002	200	0	0
-14.2919998	7.00139999	1.42799997	200	0	0
-14.2740002	7.00129986	1.42900002	200	0	0
-14.2779999	7.00119972	1.42900002	200	0	0
-14.2720003	7.00110006	1.42900002	200	0	0
-14.2720003	7.00090075	1.42900002	200	0	0
-14.2930002	7.00080013	1.42799997	200	0	0
-14.29	7.00099993	1.42799997	200	0	0
-14.2869997	7	1.37800002	200	0	0
-14.2959995	6.99989986	1.37699997	200	0	0
-14.2770004	7.00080013	1.40400004	200	0	0
-14.2770004	7.00049973	1.37899995	200	0	0
-14.2860003	7.0007	1.403	200	0	0
-14.2779999	7.00059986	1.37899995	200	0	0
-14.2819996	7.00219965	1.53100002	200	0	0
-14.2819996	7.0019002	1.43099999	200	0	0
-14.2770004	7.00209999	1.45599997	200	0	0
-14.3039999	7.00219965	1.50399995	200	0	0
-14.2790003	7.00180006	1.43099999	200	0	0
-14.2600002	7.00169992	1.43200004	200	0	0
-14.2810001	7.00209999	1.53100002	200	0	0
-14.2880001	7.00200033	1.45500004	200	0	0
-14.2910004	7.00209999	1.505	200	0	0
-14.2810001	7.00159979	1.43099999	200	0	0
-14.2720003	7.0019002	1.45700002	200	0	0
-14.276	7.00200033	1.53100002	200	0	0
-14.2600002	7.00180006	1.45700002	200	0	0
-14.2869997	7.00200033	1.50600004	200	0	0
-14.2860003	7.00239992	1.55599999	200	0	0
-14.2869997	7.00239992	1.50600004	200	0	0
-14.2889996	7.00239992	1.52999997	200	0	0
-14.2869997	7.00229979	1.55599999	200	0	0
-14.2860003	7.00229979	1.50600004	200	0	0
-14.2980003	7.00229979	1.52999997	200	0	0
-14.2969999	7.00219965	1.55499995	200	0	0
-14.2779999	7.00250006	1.53100002	200	0	0
-14.2919998	7.00250006	1.58000004	200	0	0
-14.2869997	7.00250006	1.55599999	200	0	0
-14.2709999	7.00239992	1.58200002	200	0	0
-14.2969999	7.00280094	1.65499997	200	0	0
-14.2930002	7.00270033	1.58000004	200	0	0
-14.2930002	7.00280094	1.63	200	0	0
-14.2720003	7.00260019	1.58200002	200	0	0
-14.2770004	7.00260019	1.55599999	200	0	0
-14.2670002	7.00090075	1.40400004	200	0	0
-14.29	7.0007	1.37800002	200	0	0
-14.283	6.99900103	1.32599998	200	0	0
-14.276	7.00289965	1.68099999	200	0	0
-14.2749996	7.00289965	1.63100004	200	0	0
-14.29	7.00289965	1.65499997	200	0	0
-14.3050003	7.00309992	1.65499997	200	0	0
-14.2919998	7.00320005	1.67999995	200	0	0
-14.2869997	7.00320005	1.70500004	200	0	0
-14.2849998	7.00309992	1.70599997	200	0	0
-14.2799997	7.0034008	1.75600004	200	0	0
-14.2919998	7.00369978	1.88	200	0	0
-14.2880001	7.00379992	1.95500004	200	0	0
-14.29	7.00379992	1.90499997	200	0	0
-14.2919998	7.00379992	1.92999995	200	0	0
-14.2819996	7.00369978	1.95500004	200	0	0
-14.2950001	7.00369978	1.90499997	200	0	0
-14.2980003	7.00359964	1.80499995	200	0	0
-14.2869997	7.00359964	1.83000004	200	0	0
-14.2930002	7.00379992	1.88	200	0	0
-14.2930002	7.00280094	1.58000004	200	0	0
-14.2980003	7.00309992	1.63	200	0	0
-14.2849998	7.00299978	1.63100004	200	0	0
-14.2919998	7.00270033	1.55499995	200	0	0
-14.2720003	7.00289965	1.58200002	200	0	0
-14.2810001	7.00320005	1.63100004	200	0	0
-14.2910004	7.00330019	1.65499997	200	0	0
-14.2690001	7.00330019	1.68200004	200	0	0
-14.2849998	7.00320005	1.65600002	200	0	0
-14.276	7.00359964	1.78100002	200	0	0
-14.2810001	7.00359964	1.75600004	200	0	0
-14.2869997	7.00349998	1.755	200	0	0
-14.2860003	7.0034008	1.68099999	200	0	0
-14.2969999	7.00379992	2.0539999	200	0	0
-14.2950001	7.00379992	2.00500011	200	0	0
-14.29	7.00379992	2.02999997	200	0	0
-14.2860003	7.00369978	2.13000011	200	0	0
-14.2930002	7.00379992	2.07999992	200	0	0
-14.3000002	7.00390005	2.02900004	200	0	0
-14.2950001	7.00390005	2.00500011	200	0	0
-14.2889996	7.00390005	2.07999992	200	0	0
-14.3009996	7.00390005	2.0539999	200	0	0
-14.2989998	7.00400066	2.03200006	200	0	0
-14.2930002	7.00390005	1.95500004	200	0	0
-14.302	7.00400066	2.00699997	200	0	0
-14.2849998	7.00369978	1.83000004	200	0	0
-14.2810001	7.00400066	1.93299997	200	0	0
-14.283	7.00400066	1.88300002	200	0	0
-14.29	7.00400066	1.90799999	200	0	0
-14.2919998	7.00390005	1.92999995	200	0	0
-14.3070002	7.00390005	1.87899995	200	0	0
-14.2919998	7.00390005	1.90499997	200	0	0
-14.2950001	7.00409985	1.95700002	200	0	0
-14.2959995	7.00409985	1.90699995	200	0	0
-14.29	7.00409985	1.93200004	200	0	0
-14.2959995	7.00400066	1.95700002	200	0	0
-14.2729998	7.00369978	1.75600004	200	0	0
-14.2840004	7.00390005	1.78100002	200	0	0
-14.2819996	7.00400066	1.80799997	200	0	0
-14.29	7.00400066	1.83299994	200	0	0
-14.2799997	7.00379992	1.78100002	200	0	0
-14.2889996	7.00390005	1.80499995	200	0	0
-14.3009996	7.00369978	1.77999997	200	0	0
-14.29	7.00390005	1.83000004	200	0	0
-14.2959995	7.00379992	1.80499995	200	0	0
-14.2849998	7.00379992	1.83000004	200	0	0
-14.2860003	7.00369978	1.80499995	200	0	0
-14.283	7.00379992	1.75600004	200	0	0
-14.2840004	7.00409985	1.88300002	200	0	0
-14.2919998	7.00409985	2.00699997	200	0	0
-14.2799997	7.00419998	1.93299997	200	0	0
-14.2919998	7.00419998	1.95700002	200	0	0
-14.2959995	7.00419998	1.88199997	200	0	0
-14.2989998	7.00419998	1.90699995	200	0	0
-14.283	7.00409985	1.80799997	200	0	0
-14.2910004	7.00400066	1.78299999	200	0	0
-14.2959995	7.00409985	1.83200002	200	0	0
-14.2969999	7.00359964	1.70500004	200	0	0
-14.2790003	7.00390005	1.75600004	200	0	0
-14.2869997	7.00400066	2.05699992	200	0	0
-14.2950001	7.00419998	2.03200006	200	0	0
-14.2980003	7.00419998	2.00699997	200	0	0
-14.2889996	7.00409985	2.03200006	200	0	0
-14.29	7.00430012	1.95700002	200	0	0
-14.2980003	7.00430012	1.90699995	200	0	0
-14.2939997	7.00430012	1.93200004	200	0	0
-14.2810001	7.00400066	2.08200002	200	0	0
-14.2849998	7.00359964	1.68099999	200	0	0
-14.2790003	7.0034008	1.63100004	200	0	0
-14.2880001	7.00330019	1.63	200	0	0
-14.2799997	7.0034008	1.65600002	200	0	0
-14.2980003	7.00359964	1.65499997	200	0	0
-14.2939997	7.00369978	1.67999995	200	0	0
-14.2740002	7.00369978	1.70599997	200	0	0
-14.2670002	7.00390005	1.70700002	200	0	0
-14.2980003	7.00400066	1.75699997	200	0	0
-14.2779999	7.00379992	1.70599997	200	0	0
-14.3000002	7.00409985	1.75699997	200	0	0
-14.2930002	7.00409985	1.78299999	200	0	0
-14.3009996	7.00419998	1.80700004	200	0	0
-14.3000002	7.00419998	1.83200002	200	0	0
-14.3050003	7.00440025	1.90699995	200	0	0
-14.2819996	7.00430012	1.88300002	200	0	0
-14.2950001	7.00379992	2.12899995	200	0	0
-14.2889996	7.00390005	2.12899995	200	0	0
-14.2849998	7.00409985	2.08200002	200	0	0
-14.3000002	7.00280094	1.52999997	200	0	0
-14.2889996	7.00270033	1.505	200	0	0
-14.2840004	7.00280094	1.55599999	200	0	0
-14.29	7.00260019	1.505	200	0	0
-14.2819996	7.00270033	1.53100002	200	0	0
-14.2919998	7.00250006	1.505	200	0	0
-14.2969999	7.00260019	1.52999997	200	0	0
-14.2799997	7.00289965	1.53100002	200	0	0
-14.2969999	7.00299978	1.58000004	200	0	0
-14.2849998	7.00289965	1.55599999	200	0	0
-14.2930002	7.00320005	1.58000004	200	0	0
-14.2880001	7.00390005	2.15400004	200	0	0
-14.2799997	7.00400066	2.13199997	200	0	0
-14.283	7.00409985	2.13199997	200	0	0
-14.2989998	7.00419998	2.05699992	200	0	0
-14.2849998	7.00419998	2.08200002	200	0	0
-14.2749996	7.00419998	2.15700006	200	0	0
-14.2919998	7.00419998	2.13199997	200	0	0
-14.2729998	7.00409985	2.15700006	200	0	0
-14.2679996	7.00430012	2.08299994	200	0	0
-14.2980003	7.00430012	2.03200006	200	0	0
-14.276	7.00430012	2.05800009	200	0	0
-14.29	7.00430012	2.00699997	200	0	0
-14.2770004	7.00440025	2.08200002	200	0	0
-14.2930002	7.00440025	2.03200006	200	0	0
-14.2980003	7.00440025	2.05699992	200	0	0
-14.2650003	7.00430012	2.15700006	200	0	0
-14.2880001	7.00430012	2.13199997	200	0	0
-14.309	7.00440025	2.00699997	200	0	0
-14.2880001	7.00440025	2.13199997	200	0	0
-14.29	7.00449991	2.05699992	200	0	0
-14.2919998	7.00449991	2.08200002	200	0	0
-14.276	7.00440025	1.95799994	200	0	0
-14.2919998	7.00440025	1.93200004	200	0	0
-14.3000002	7.00430012	1.83200002	200	0	0
-14.3000002	7.00440025	1.88199997	200	0	0
-14.2749996	7.00349998	1.63100004	200	0	0
-14.2869997	7.00369978	1.65600002	200	0	0
-14.283	7.00379992	1.68099999	200	0	0
-14.2840004	7.00419998	1.78299999	200	0	0
-14.2869997	7.00419998	1.75800002	200	0	0
-14.3039999	7.00430012	1.78199995	200	0	0
-14.2869997	7.00430012	1.80799997	200	0	0
-14.2659998	7.00440025	2.15700006	200	0	0
-14.3009996	7.00449991	2.00699997	200	0	0
-14.3030005	7.00449991	2.03200006	200	0	0
-14.2939997	7.00460005	2.00500011	200	0	0
-14.2860003	7.00460005	2.05500007	200	0	0
-14.3050003	7.00460005	2.02900004	200	0	0
-14.2919998	7.00449991	2.15700006	200	0	0
-14.2860003	7.00449991	2.13199997	200	0	0
-14.2980003	7.00460005	2.079	200	0	0
-14.2989998	7.00449991	1.95700002	200	0	0
-14.3059998	7.00449991	1.90699995	200	0	0
-14.3009996	7.00449991	1.93200004	200	0	0
-14.2989998	7.00440025	1.83200002	200	0	0
-14.3070002	7.00449991	1.88199997	200	0	0
-14.3109999	7.00460005	1.90400004	200	0	0
-14.3039999	7.00460005	1.954	200	0	0
-14.29	7.00460005	1.92999995	200	0	0
-14.3129997	6.99650097	1.32299995	200	0	0
-14.3009996	6.99659967	1.324	200	0	0
-14.2989998	6.99840069	1.29900002	200	0	0
-14.2869997	6.99729967	1.29999995	200	0	0
-14.29	6.99830008	1.29999995	200	0	0
-14.2860003	6.99819994	1.29999995	200	0	0
-14.2869997	6.99739981	1.29999995	200	0	0
-14.2959995	6.9980998	1.29900002	200	0	0
-14.2910004	6.99749994	1.29999995	200	0	0
-14.3100004	6.99760008	1.29799998	200	0	0
-14.2840004	6.99770021	1.29999995	200	0	0
-14.2950001	6.99799967	1.29999995	200	0	0
-14.2869997	6.99780083	1.29999995	200	0	0
-14.2989998	6.99790001	1.29900002	200	0	0
-14.2930002	6.99710035	1.29999995	200	0	0
-14.316	6.99630022	1.29799998	200	0	0
-14.2950001	6.99640036	1.29900002	200	0	0
-14.3000002	6.99650097	1.29900002	200	0	0
-14.2919998	6.99659967	1.29999995	200	0	0
-14.309	6.99679995	1.29799998	200	0	0
-14.2930002	6.99700022	1.29999995	200	0	0
-14.3030005	6.99690008	1.29900002	200	0	0
-14.3190002	6.99609995	1.29700005	200	0	0
-14.3120003	6.99599981	1.29799998	200	0	0
-14.2980003	6.99580002	1.29900002	200	0	0
-14.2729998	6.99590111	1.301	200	0	0
-14.2889996	6.99659967	1.27499998	200	0	0
-14.2729998	6.99940014	1.30400002	200	0	0
-14.2939997	6.99960041	1.32700002	200	0	0
-14.2770004	6.99950027	1.329	200	0	0
-14.2950001	6.99849987	1.29999995	200	0	0
-14.2779999	6.99900103	1.301	200	0	0
-14.3059998	6.99860001	1.29900002	200	0	0
-14.2840004	6.99940014	1.32799995	200	0	0
-14.2950001	6.99889994	1.29900002	200	0	0
-14.2939997	6.99880028	1.29999995	200	0	0
-14.2980003	7.00440025	1.80700004	200	0	0
-14.2779999	7.00400066	1.70799994	200	0	0
-14.2969999	7.00430012	1.75699997	200	0	0
-14.3039999	7.00440025	1.78199995	200	0	0
-14.2910004	7.00359964	1.63	200	0	0
-14.2930002	7.00409985	1.70799994	200	0	0
-14.3129997	6.99640036	1.24800003	200	0	0
-14.2930002	6.99760008	1.24899995	200	0	0
-14.3109999	6.99650097	1.24800003	200	0	0
-14.3059998	6.99630022	1.273	200	0	0
-14.2989998	6.99739981	1.24899995	200	0	0
-14.3120003	6.99669981	1.24800003	200	0	0
-14.2930002	6.99729967	1.24899995	200	0	0
