-2.96600008	6.73169994	1.79200006	0	200	0
-2.88000011	6.73200035	1.83299994	0	200	0
-2.88000011	6.73180008	1.801	0	200	0
-2.88700008	6.73180008	1.80499995	0	200	0
-2.89199996	6.73180008	1.82000005	0	200	0
-2.88899994	6.73180008	1.80999994	0	200	0
-2.9000001	6.73180008	1.82299995	0	200	0
-2.90300012	6.73180008	1.82799995	0	200	0
-2.90700006	6.73180008	1.83200002	0	200	0
-2.92000008	6.73180008	1.84599996	0	200	0
-2.91499996	6.73180008	1.84099996	0	200	0
-2.93000007	6.73180008	1.84899998	0	200	0
-2.96600008	6.73169994	1.79200006	0	200	0
-2.83599997	6.73190022	1.921	0	200	0
-2.829	6.73190022	1.91700006	0	200	0
-2.81599998	6.73190022	1.90400004	0	200	0
-2.84899998	6.73190022	1.92299998	0	200	0
-2.80999994	6.73190022	1.89499998	0	200	0
-2.84500003	6.73200035	1.91900003	0	200	0
-2.84500003	6.73200035	1.91400003	0	200	0
-2.82399988	6.73190022	1.89699996	0	200	0
-2.85100007	6.73200035	1.90799999	0	200	0
-2.85599995	6.73190022	1.90600002	0	200	0
-2.84200001	6.73200035	1.89900005	0	200	0
-2.81699991	6.73190022	1.801	0	200	0
-2.81200004	6.73190022	1.82299995	0	200	0
-2.84800005	6.73200035	1.89300001	0	200	0
-2.81500006	6.73190022	1.84800005	0	200	0
-2.81900001	6.73190022	1.80999994	0	200	0
-2.81800008	6.73190022	1.82599998	0	200	0
-2.84599996	6.73190022	1.88199997	0	200	0
-2.83699989	6.73190022	1.87399995	0	200	0
-2.83100009	6.73190022	1.86000001	0	200	0
-2.83800006	6.73190022	1.86899996	0	200	0
-2.85899997	6.73200035	1.88499999	0	200	0
-2.82500005	6.73190022	1.83500004	0	200	0
-2.852	6.73200035	1.88100004	0	200	0
-2.829	6.73200035	1.81299996	0	200	0
-2.83500004	6.73200035	1.86399996	0	200	0
-2.8269999	6.73200035	1.824	0	200	0
-2.84200001	6.73200035	1.86800003	0	200	0
-2.84200001	6.73190022	1.86300004	0	200	0
-2.8499999	6.73200035	1.87100005	0	200	0
-2.83200002	6.73200035	1.83399999	0	200	0
-2.84100008	6.73200035	1.80499995	0	200	0
-2.83999991	6.73200035	1.85800004	0	200	0
-2.83699989	6.73200035	1.84800005	0	200	0
-2.84800005	6.73200035	1.83500004	0	200	0
-2.87299991	6.73190022	1.84000003	0	200	0
-2.75200009	6.73239994	1.90199995	0	200	0
-2.86299992	6.73200035	2.01399994	0	200	0
-2.88700008	6.73190022	1.99399996	0	200	0
-2.852	6.73200035	2	0	200	0
-2.85899997	6.73200035	1.99399996	0	200	0
-2.85500002	6.73190022	1.995	0	200	0
-2.86800003	6.73190022	1.98699999	0	200	0
-2.85700011	6.73200035	1.98899996	0	200	0
-2.87199998	6.73190022	1.98099995	0	200	0
-2.8599999	6.73200035	1.98300004	0	200	0
-2.86400008	6.73190022	1.972	0	200	0
-2.8599999	6.73200035	1.97300005	0	200	0
-2.86800003	6.73190022	1.96599996	0	200	0
-2.85800004	6.73200035	1.96800005	0	200	0
-2.8670001	6.73190022	1.96099997	0	200	0
-2.86500001	6.73200035	1.95700002	0	200	0
-2.8499999	6.73200035	1.96399999	0	200	0
-2.85700011	6.73190022	1.95799994	0	200	0
-2.86500001	6.73190022	1.94599998	0	200	0
-2.86100006	6.73190022	1.94200003	0	200	0
-2.84699988	6.73200035	1.95000005	0	200	0
-2.84899998	6.73200035	1.94400001	0	200	0
-2.85400009	6.73190022	1.93799996	0	200	0
-2.84599996	6.73200035	1.94000006	0	200	0
-2.82500005	6.73200035	1.93799996	0	200	0
-2.83899999	6.73200035	1.92499995	0	200	0
-2.73799992	6.73239994	1.88499999	0	200	0
-2.86899996	6.73200035	2.01799989	0	200	0
-2.88499999	6.73190022	2.00999999	0	200	0
-2.89100003	6.73200035	2.00399995	0	200	0
-2.7249999	6.73239994	1.89300001	0	200	0
-2.73000002	6.73239994	1.92200005	0	200	0
-2.72900009	6.73239994	1.91700006	0	200	0
-2.727	6.73239994	1.88300002	0	200	0
-2.727	6.73239994	1.898	0	200	0
-2.7349999	6.73239994	1.80999994	0	200	0
-2.70900011	6.73250008	1.99000001	0	200	0
-2.72000003	6.73239994	1.80900002	0	200	0
-2.69799995	6.73250008	1.824	0	200	0
-2.67700005	6.73250008	1.84899998	0	200	0
-2.73000002	6.73239994	1.99100006	0	200	0
-2.74799991	6.73239994	1.99300003	0	200	0
-2.71399999	6.73250008	1.98399997	0	200	0
-2.7190001	6.73239994	1.81900001	0	200	0
-2.73099995	6.73239994	1.98599994	0	200	0
-2.71000004	6.73250008	1.97500002	0	200	0
-2.72199988	6.73239994	1.824	0	200	0
-2.7019999	6.73250008	1.83800006	0	200	0
-2.70499992	6.73250008	1.96599996	0	200	0
-2.67700005	6.73250008	1.87899995	0	200	0
-2.71300006	6.73250008	1.97000003	0	200	0
-2.74499989	6.73239994	1.97899997	0	200	0
-2.68300009	6.73260021	1.92700005	0	200	0
-2.68700004	6.73250008	1.94000006	0	200	0
-2.68300009	6.73250008	1.93099999	0	200	0
-2.69799995	6.73250008	1.95299995	0	200	0
-2.69499993	6.73250008	1.949	0	200	0
-2.72199988	6.73239994	1.83399999	0	200	0
-2.68300009	6.73250008	1.92700005	0	200	0
-2.6789999	6.73250008	1.90799999	0	200	0
-2.6789999	6.73250008	1.898	0	200	0
-2.70900011	6.73250008	1.96099997	0	200	0
-2.68199992	6.73250008	1.91700006	0	200	0
-2.73200011	6.73239994	1.97099996	0	200	0
-2.7249999	6.73239994	1.83800006	0	200	0
-2.72199988	6.73239994	1.84399998	0	200	0
-2.74099994	6.73239994	1.96500003	0	200	0
-2.72000003	6.73239994	1.84899998	0	200	0
-2.73600006	6.73239994	1.96000004	0	200	0
-2.72799993	6.73239994	1.95700002	0	200	0
-2.71099997	6.73250008	1.94099998	0	200	0
-2.7249999	6.73239994	1.85800004	0	200	0
-2.7249999	6.73239994	1.94299996	0	200	0
-2.73200011	6.73239994	1.94599998	0	200	0
-2.72300005	6.73239994	1.86399996	0	200	0
-2.70799994	6.73250008	1.91700006	0	200	0
-2.7249999	6.73239994	1.86800003	0	200	0
-2.727	6.73239994	1.93700004	0	200	0
-2.7249999	6.73239994	1.87300003	0	200	0
-2.73099995	6.73239994	1.93200004	0	200	0
-2.72300005	6.73239994	1.91299999	0	200	0
-2.88400006	6.73200035	2.10800004	0	200	0
-2.89400005	6.73190022	2.09699988	0	200	0
-2.88199997	6.73200035	2.09800005	0	200	0
-2.89199996	6.73190022	2.09200001	0	200	0
-2.87199998	6.73200035	2.09500003	0	200	0
-2.89599991	6.73190022	2.08599997	0	200	0
-2.83899999	6.73200035	2.08899999	0	200	0
-2.875	6.73200035	2.08899999	0	200	0
-2.87700009	6.73190022	2.08400011	0	200	0
-2.8900001	6.73190022	2.0710001	0	200	0
-2.86899996	6.73200035	2.07399988	0	200	0
-2.8829999	6.73190022	2.06699991	0	200	0
-2.89499998	6.73190022	2.05999994	0	200	0
-2.87199998	6.73200035	2.06900001	0	200	0
-2.86899996	6.73200035	2.06399989	0	200	0
-2.88599992	6.73190022	2.05699992	0	200	0
-2.8670001	6.73200035	2.05900002	0	200	0
-2.88800001	6.73190022	2.046	0	200	0
-2.89700007	6.73190022	2.01900005	0	200	0
-2.86899996	6.73200035	2.04900002	0	200	0
-2.88100004	6.73190022	2.04200006	0	200	0
-2.89599991	6.73190022	2.01399994	0	200	0
-2.8900001	6.73190022	2.02999997	0	200	0
-2.87700009	6.73200035	2.04200006	0	200	0
-2.86800003	6.73190022	2.03900003	0	200	0
-2.86800003	6.73200035	2.03900003	0	200	0
-2.86599994	6.73200035	2.03399992	0	200	0
-2.86400008	6.73200035	2.02399993	0	200	0
-2.71399999	6.73239994	1.78999996	0	200	0
-2.69700003	6.73250008	1.79900002	0	200	0
-2.71600008	6.73239994	1.79499996	0	200	0
-2.72199988	6.73239994	1.79799998	0	200	0
-2.67400002	6.73250008	1.82500005	0	200	0
-2.67400002	6.73250008	1.83500004	0	200	0
-2.89100003	6.73190022	2.11199999	0	200	0
-2.87899995	6.73200035	2.11400008	0	200	0
-2.67000008	6.73250008	1.81099999	0	200	0
-2.73099995	6.73239994	2.02099991	0	200	0
-2.73399997	6.73250008	2.0150001	0	200	0
-2.74799991	6.73239994	2.01300001	0	200	0
-2.71099997	6.73250008	2.00900006	0	200	0
-2.73200011	6.73250008	2.01099992	0	200	0
-2.73799992	6.73239994	2.00999999	0	200	0
-2.7349999	6.73239994	2.00500011	0	200	0
-2.7190001	6.73250008	1.99800003	0	200	0
-2.71000004	6.73250008	1.995	0	200	0
-2.71799994	6.73239994	1.78400004	0	200	0
-2.67400002	6.73250008	1.79999995	0	200	0
-2.66899991	6.73250008	1.73699999	0	200	0
-2.71000004	6.73239994	1.71500003	0	200	0
-2.69499993	6.73239994	1.72399998	0	200	0
-2.69899988	6.73239994	1.72800004	0	200	0
-2.67499995	6.73250008	1.745	0	200	0
-2.67199993	6.73250008	1.75100005	0	200	0
-2.671	6.73250008	1.75600004	0	200	0
-2.67199993	6.73250008	1.76100004	0	200	0
-2.70499992	6.73239994	1.73699999	0	200	0
-2.70300007	6.73239994	1.74199998	0	200	0
-2.67000008	6.73250008	1.77600002	0	200	0
-2.67000008	6.73250008	1.78600001	0	200	0
-2.70600009	6.73239994	1.74699998	0	200	0
-2.68600011	6.73250008	1.76699996	0	200	0
-2.67199993	6.73250008	1.796	0	200	0
-2.71600008	6.73239994	1.74899995	0	200	0
-2.71300006	6.73239994	1.75999999	0	200	0
-2.71600008	6.73239994	1.76400006	0	200	0
-2.71399999	6.73239994	1.76999998	0	200	0
-2.72099996	6.73239994	1.773	0	200	0
-2.73600006	6.73239994	2.08400011	0	200	0
-2.71300006	6.73250008	2.08699989	0	200	0
-2.73699999	6.73239994	2.07800007	0	200	0
-2.71300006	6.73250008	2.08200002	0	200	0
-2.73699999	6.73239994	2.06900001	0	200	0
-2.71499991	6.73250008	2.07200003	0	200	0
-2.73699999	6.73239994	2.06399989	0	200	0
-2.71300006	6.73250008	2.06800008	0	200	0
-2.73900008	6.73239994	2.05900002	0	200	0
-2.71499991	6.73250008	2.06200004	0	200	0
-2.73900008	6.73239994	2.0539999	0	200	0
-2.71300006	6.73250008	2.05800009	0	200	0
-2.65400004	6.73210001	1.98599994	0	200	0
-2.74699998	6.73239994	2.03800011	0	200	0
-2.73699999	6.73239994	2.04399991	0	200	0
-2.71199989	6.73250008	2.0480001	0	200	0
-2.71499991	6.73250008	2.04299998	0	200	0
-2.73399997	6.73239994	2.03500009	0	200	0
-2.71700001	6.73250008	2.03800011	0	200	0
-2.73200011	6.73239994	2.02999997	0	200	0
-2.71600008	6.73250008	2.03299999	0	200	0
-2.71499991	6.73250008	2.023	0	200	0
-2.68899989	6.73239994	1.71599996	0	200	0
-2.67199993	6.73250008	1.72599995	0	200	0
-2.6730001	6.73250008	1.73099995	0	200	0
-2.68799996	6.73340082	1.87100005	0	200	0
-2.73799992	6.73239994	2.08800006	0	200	0
-2.75099993	6.73239994	2.09100008	0	200	0
-2.69099998	6.73340082	1.89499998	0	200	0
-2.69400001	6.73340082	1.88900006	0	200	0
-2.9059999	6.73200035	2.19799995	0	200	0
-2.91199994	6.73200035	2.19199991	0	200	0
-2.90300012	6.73190022	2.19300008	0	200	0
-2.91799998	6.73190022	2.18700004	0	200	0
-2.92000008	6.73190022	2.18099999	0	200	0
-2.89400005	6.73200035	2.18899989	0	200	0
-2.89899993	6.73200035	2.18300009	0	200	0
-2.92400002	6.73190022	2.17000008	0	200	0
-2.91799998	6.73190022	2.16599989	0	200	0
-2.898	6.73200035	2.1730001	0	200	0
-2.91400003	6.73190022	2.16100001	0	200	0
-2.89599991	6.73200035	2.16799998	0	200	0
-2.89499998	6.73200035	2.16300011	0	200	0
-2.90799999	6.73190022	2.15700006	0	200	0
-2.89700007	6.73200035	2.15799999	0	200	0
-2.90799999	6.73190022	2.14700007	0	200	0
-2.90899992	6.73190022	2.14100003	0	200	0
-2.88599992	6.73200035	2.14899993	0	200	0
-2.89599991	6.73200035	2.14299989	0	200	0
-2.90300012	6.73190022	2.13700008	0	200	0
-2.90499997	6.73190022	2.13100004	0	200	0
-2.89100003	6.73200035	2.13800001	0	200	0
-2.87899995	6.73200035	2.13499999	0	200	0
-2.90100002	6.73190022	2.12199998	0	200	0
-2.90199995	6.73190022	2.11599994	0	200	0
-2.8900001	6.73200035	2.12299991	0	200	0
-2.87400007	6.73200035	2.11999989	0	200	0
-2.67400002	6.73250008	1.70000005	0	200	0
-2.68099999	6.73239994	1.69799995	0	200	0
-2.671	6.73250008	1.70599997	0	200	0
-2.6789999	6.73239994	1.70299995	0	200	0
-2.66799998	6.73250008	1.71200001	0	200	0
-2.69899988	6.73239994	1.70299995	0	200	0
-2.6730001	6.73250008	1.72000003	0	200	0
-2.92000008	6.73190022	2.20700002	0	200	0
-2.87700009	6.73200035	2.21099997	0	200	0
-2.74499989	6.73239994	2.1170001	0	200	0
-2.73799992	6.73250008	2.11299992	0	200	0
-2.71499991	6.73250008	2.11100006	0	200	0
-2.74300003	6.73239994	2.11199999	0	200	0
-2.71499991	6.73250008	2.10599995	0	200	0
-2.7420001	6.73239994	2.10700011	0	200	0
-2.74000001	6.73239994	2.10299993	0	200	0
-2.71700001	6.73250008	2.09599996	0	200	0
-2.71499991	6.73250008	2.09100008	0	200	0
-2.67799997	6.73239994	1.69299996	0	200	0
-2.67000008	6.73239994	1.64499998	0	200	0
-2.67199993	6.73239994	1.64900005	0	200	0
-2.67499995	6.73250008	1.65400004	0	200	0
-2.671	6.73239994	1.65499997	0	200	0
-2.67199993	6.73239994	1.65900004	0	200	0
-2.66199994	6.73250008	1.66299999	0	200	0
-2.671	6.73239994	1.66999996	0	200	0
-2.67700005	6.73239994	1.67299998	0	200	0
-2.66400003	6.73250008	1.67200005	0	200	0
-2.67400002	6.73239994	1.67900002	0	200	0
-2.67499995	6.73239994	1.68400002	0	200	0
-2.66599989	6.73250008	1.68700004	0	200	0
-2.66799998	6.73250008	1.69599998	0	200	0
-2.67000008	6.73239994	1.62399995	0	200	0
-2.66799998	6.73239994	1.63	0	200	0
-2.74000001	6.73250008	2.18000007	0	200	0
-2.75099993	6.73239994	2.1789999	0	200	0
-2.7190001	6.73250008	2.17799997	0	200	0
-2.74499989	6.73239994	2.17499995	0	200	0
-2.7190001	6.73250008	2.16799998	0	200	0
-2.71700001	6.73250008	2.16400003	0	200	0
-2.74000001	6.73239994	2.16599989	0	200	0
-2.7190001	6.73250008	2.15899992	0	200	0
-2.7420001	6.73239994	2.16100001	0	200	0
-2.71700001	6.73250008	2.15400004	0	200	0
-2.74300003	6.73239994	2.1559999	0	200	0
-2.75500011	6.73239994	2.14899993	0	200	0
-2.7190001	6.73250008	2.14400005	0	200	0
-2.73799992	6.73239994	2.14199996	0	200	0
-2.72099996	6.73250008	2.13899994	0	200	0
-2.74300003	6.73239994	2.13599992	0	200	0
-2.71799994	6.73250008	2.13000011	0	200	0
-2.74099994	6.73250008	2.13199997	0	200	0
-2.74499989	6.73239994	2.13100004	0	200	0
-2.74900007	6.73239994	2.12599993	0	200	0
-2.71600008	6.73250008	2.11999989	0	200	0
-2.66499996	6.73250008	1.62100005	0	200	0
-2.68099999	6.73400068	1.94599998	0	200	0
-2.68700004	6.73400068	1.92999995	0	200	0
-2.67700005	6.73400068	1.91799998	0	200	0
-2.68899989	6.73400068	1.90499997	0	200	0
-2.74799991	6.73239994	2.18400002	0	200	0
-2.74499989	6.73239994	2.19000006	0	200	0
-2.96700001	6.73200035	2.27099991	0	200	0
-2.96499991	6.73190022	2.26600003	0	200	0
-2.95900011	6.73200035	2.26600003	0	200	0
-2.95099998	6.73190022	2.26099992	0	200	0
-2.94700003	6.73200035	2.26200008	0	200	0
-2.94700003	6.73200035	2.25600004	0	200	0
-2.9460001	6.73190022	2.24600005	0	200	0
-2.96700001	6.73190022	2.19199991	0	200	0
-2.94700003	6.73200035	2.24099994	0	200	0
-2.93700004	6.73200035	2.24699998	0	200	0
-2.93899989	6.73190022	2.2420001	0	200	0
-2.94099998	6.73190022	2.23600006	0	200	0
-2.93700004	6.73200035	2.23099995	0	200	0
-2.92199993	6.73200035	2.23799992	0	200	0
-2.9289999	6.73190022	2.23200011	0	200	0
-2.93000007	6.73190022	2.22199988	0	200	0
-2.9230001	6.73200035	2.22199988	0	200	0
-2.92199993	6.73190022	2.21700001	0	200	0
-2.91799998	6.73200035	2.21799994	0	200	0
-2.921	6.73190022	2.21199989	0	200	0
-2.90799999	6.73200035	2.21300006	0	200	0
-2.66799998	6.73239994	1.60399997	0	200	0
-2.67000008	6.73239994	1.60899997	0	200	0
-2.97099996	6.73190022	2.29099989	0	200	0
-2.97000003	6.73200035	2.28600001	0	200	0
-2.977	6.73190022	2.27999997	0	200	0
-2.96799994	6.73190022	2.28600001	0	200	0
-2.96499991	6.73200035	2.2809999	0	200	0
-2.7579999	6.73239994	2.21300006	0	200	0
-2.7249999	6.73250008	2.21099997	0	200	0
-2.72000003	6.73250008	2.20700002	0	200	0
-2.74399996	6.73239994	2.20900011	0	200	0
-2.72199988	6.73250008	2.2019999	0	200	0
-2.74399996	6.73239994	2.204	0	200	0
-2.74399996	6.73239994	2.19899988	0	200	0
-2.72199988	6.73250008	2.19199991	0	200	0
-2.71799994	6.73250008	2.18799996	0	200	0
-2.66700006	6.73239994	1.59399998	0	200	0
-2.67199993	6.73239994	1.59800005	0	200	0
-2.66700006	6.73239994	1.55299997	0	200	0
-2.66400003	6.73250008	1.56900001	0	200	0
-2.70499992	6.73250008	1.58200002	0	200	0
-2.66599989	6.73239994	1.574	0	200	0
-2.66700006	6.73239994	1.58399999	0	200	0
-2.66400003	6.73239994	1.52699995	0	200	0
-2.6730001	6.73239994	1.52999997	0	200	0
-2.66499996	6.73239994	1.54299998	0	200	0
-2.72799993	6.73250008	2.27800012	0	200	0
-2.74799991	6.73239994	2.27699995	0	200	0
-2.73200011	6.73250008	2.273	0	200	0
-2.75099993	6.73239994	2.27099991	0	200	0
-2.73000002	6.73250008	2.26300001	0	200	0
-2.74900007	6.73239994	2.26200008	0	200	0
-2.74799991	6.73239994	2.25699997	0	200	0
-2.74600005	6.73250008	2.25699997	0	200	0
-2.72600007	6.73250008	2.25399995	0	200	0
-2.75600004	6.73239994	2.25200009	0	200	0
-2.72600007	6.73250008	2.24900007	0	200	0
-2.74600005	6.73239994	2.24799991	0	200	0
-2.72199988	6.73250008	2.24000001	0	200	0
-2.74799991	6.73239994	2.23799992	0	200	0
-2.74900007	6.73239994	2.23300004	0	200	0
-2.74600005	6.73250008	2.23300004	0	200	0
-2.74600005	6.73239994	2.22799993	0	200	0
-2.74399996	6.73250008	2.22799993	0	200	0
-2.72600007	6.73250008	2.2249999	0	200	0
-2.74399996	6.73239994	2.22399998	0	200	0
-2.72300005	6.73250008	2.21600008	0	200	0
-2.71700001	6.73400068	2.02200007	0	200	0
-2.71600008	6.73400068	2.01799989	0	200	0
-2.71799994	6.73400068	2.01200008	0	200	0
-2.6789999	6.73400068	1.99000001	0	200	0
-2.7019999	6.73400068	1.97599995	0	200	0
-2.75900006	6.73239994	2.2809999	0	200	0
-2.75	6.73239994	2.28600001	0	200	0
-2.7249999	6.73250008	2.28299999	0	200	0
-3.03699994	6.73200035	2.31900001	0	200	0
-3.02999997	6.73200035	2.31399989	0	200	0
-3.0079999	6.73190022	2.31999993	0	200	0
-3.00600004	6.73190022	2.31500006	0	200	0
-3.00600004	6.73200035	2.30999994	0	200	0
-2.99799991	6.73190022	2.30500007	0	200	0
-2.99799991	6.73200035	2.30500007	0	200	0
-2.97000003	6.73190022	2.31200004	0	200	0
-2.98399997	6.73190022	2.296	0	200	0
-2.9849999	6.73200035	2.296	0	200	0
-2.98900008	6.73200035	2.28999996	0	200	0
-3.03299999	6.73180008	2.1960001	0	200	0
-3.02999997	6.73180008	2.12199998	0	200	0
-3.03800011	6.73180008	2.13199997	0	200	0
-3.03999996	6.73180008	2.14700007	0	200	0
-3.03699994	6.73180008	2.15899992	0	200	0
-3.03699994	6.73180008	2.17499995	0	200	0
-3.03800011	6.73180008	2.18499994	0	200	0
-3.03299999	6.73180008	2.17000008	0	200	0
-3.023	6.73180008	2.18099999	0	200	0
-2.69499993	6.73250008	1.51100004	0	200	0
-2.66300011	6.73239994	1.50699997	0	200	0
-2.71700001	6.73250008	1.52400005	0	200	0
-2.66599989	6.73239994	1.51600003	0	200	0
-2.68799996	6.73250008	1.51900005	0	200	0
-2.66899991	6.73239994	1.51999998	0	200	0
-3.04900002	6.73200035	2.33400011	0	200	0
-2.75999999	6.73239994	2.30999994	0	200	0
-2.73300004	6.73250008	2.30599999	0	200	0
-2.72600007	6.73250008	2.30200005	0	200	0
-2.75	6.73239994	2.30500007	0	200	0
-2.73200011	6.73250008	2.29699993	0	200	0
-2.75099993	6.73239994	2.29999995	0	200	0
-2.75300002	6.73239994	2.296	0	200	0
-2.7249999	6.73250008	2.28800011	0	200	0
-2.68899989	6.73250008	1.49699998	0	200	0
-2.66400003	6.73239994	1.49600005	0	200	0
-2.66700006	6.73239994	1.46800005	0	200	0
-2.66700006	6.73239994	1.47899997	0	200	0
-2.66499996	6.73239994	1.49000001	0	200	0
-2.66700006	6.73250008	1.43599999	0	200	0
-2.66599989	6.73250008	1.44200003	0	200	0
-2.6960001	6.73239994	1.45200002	0	200	0
-2.7249999	6.73250008	2.37400007	0	200	0
-2.75900006	6.73239994	2.36800003	0	200	0
-2.73399997	6.73250008	2.36899996	0	200	0
-2.75699997	6.73239994	2.35800004	0	200	0
-2.72399998	6.73250008	2.3599999	0	200	0
-2.75300002	6.73239994	2.35400009	0	200	0
-2.727	6.73250008	2.35500002	0	200	0
-2.75300002	6.73239994	2.34899998	0	200	0
-2.75999999	6.73239994	2.34299994	0	200	0
-2.72600007	6.73250008	2.3499999	0	200	0
-2.72799993	6.73250008	2.34500003	0	200	0
-2.75200009	6.73239994	2.33400011	0	200	0
-2.7249999	6.73250008	2.33599997	0	200	0
-2.75099993	6.73239994	2.329	0	200	0
-2.75399995	6.73239994	2.32399988	0	200	0
-2.7249999	6.73250008	2.33100009	0	200	0
-2.75600004	6.73239994	2.31999993	0	200	0
-2.727	6.73250008	2.32599998	0	200	0
-2.72900009	6.73250008	2.3210001	0	200	0
-2.72799993	6.73250008	2.31200004	0	200	0
-2.7579999	6.73239994	2.37299991	0	200	0
-2.80999994	6.73390007	2.04200006	0	200	0
-2.80900002	6.73390007	2.03200006	0	200	0
-2.75600004	6.73239994	2.37800002	0	200	0
-2.72399998	6.73250008	2.37899995	0	200	0
-2.75399995	6.73239994	2.38199997	0	200	0
-2.66199994	6.73280096	2.35299993	0	200	0
-3.102	6.73200035	2.33699989	0	200	0
-3.07399988	6.73200035	2.35500002	0	200	0
-3.05999994	6.73200035	2.36100006	0	200	0
-3.07299995	6.73200035	2.3440001	0	200	0
-3.07399988	6.73200035	2.32800007	0	200	0
-2.66599989	6.73239994	1.426	0	200	0
-2.66499996	6.73250008	1.426	0	200	0
-2.67000008	6.73239994	1.40799999	0	200	0
-2.66799998	6.73239994	1.41400003	0	200	0
-2.72600007	6.73250008	2.40300012	0	200	0
-2.75600004	6.73239994	2.40700006	0	200	0
-2.72799993	6.73250008	2.398	0	200	0
-2.75600004	6.73239994	2.40199995	0	200	0
-2.7249999	6.73250008	2.39299989	0	200	0
-2.75999999	6.73239994	2.39700007	0	200	0
-2.75200009	6.73239994	2.39199996	0	200	0
-2.72600007	6.73250008	2.3829999	0	200	0
-2.66799998	6.73280096	2.36199999	0	200	0
-2.66799998	6.73239994	1.37	0	200	0
-2.67199993	6.73239994	1.38	0	200	0
-2.66799998	6.73250008	1.38100004	0	200	0
-2.671	6.73239994	1.38499999	0	200	0
-2.66700006	6.73250008	1.39300001	0	200	0
-2.67600012	6.73239994	1.39400005	0	200	0
-2.67400002	6.73239994	1.34000003	0	200	0
-2.66599989	6.73250008	1.34399998	0	200	0
-2.67499995	6.73239994	1.35099995	0	200	0
-2.70000005	6.73250008	1.35699999	0	200	0
-2.67600012	6.73239994	1.35599995	0	200	0
-2.67199993	6.73239994	1.36300004	0	200	0
-2.7579999	6.73239994	2.46399999	0	200	0
-2.72799993	6.73250008	2.4690001	0	200	0
-2.727	6.73250008	2.46499991	0	200	0
-2.7579999	6.73239994	2.45499992	0	200	0
-2.76099992	6.73239994	2.45000005	0	200	0
-2.72799993	6.73250008	2.45499992	0	200	0
-2.75600004	6.73239994	2.44499993	0	200	0
-2.66499996	6.73210001	2.40400004	0	200	0
-2.72600007	6.73250008	2.45000005	0	200	0
-2.66400003	6.73280096	2.40400004	0	200	0
-2.75300002	6.73239994	2.44000006	0	200	0
-2.73900008	6.73250008	2.44499993	0	200	0
-2.727	6.73250008	2.44099998	0	200	0
-2.75600004	6.73239994	2.43099999	0	200	0
-2.75699997	6.73239994	2.42600012	0	200	0
-2.75600004	6.73239994	2.421	0	200	0
-2.72600007	6.73250008	2.43099999	0	200	0
-2.73900008	6.73250008	2.42600012	0	200	0
-2.75600004	6.73239994	2.41599989	0	200	0
-2.72600007	6.73250008	2.42199993	0	200	0
-2.727	6.73250008	2.41700006	0	200	0
-2.72900009	6.73250008	2.40700006	0	200	0
-2.76200008	6.73239994	2.4690001	0	200	0
-2.8599999	6.73349953	1.972	0	200	0
-2.80900002	6.73409986	2.13199997	0	200	0
-2.86599994	6.73390007	2.11500001	0	200	0
-2.86199999	6.73349953	1.98800004	0	200	0
-2.85700011	6.73349953	1.99399996	0	200	0
-2.85800004	6.73349953	1.99899995	0	200	0
-2.85800004	6.73349953	2.00900006	0	200	0
-2.86100006	6.73349953	2.01900005	0	200	0
-2.85700011	6.73349953	2.01399994	0	200	0
-2.85899997	6.73349953	2.05999994	0	200	0
-2.85299993	6.73349953	2.06599998	0	200	0
-2.85899997	6.73349953	2.04500008	0	200	0
-2.82299995	6.73390007	2.04500008	0	200	0
-2.88000011	6.73349953	1.97899997	0	200	0
-2.8599999	6.73349953	1.96200001	0	200	0
-2.86500001	6.73349953	1.96599996	0	200	0
-2.75699997	6.73239994	2.47399998	0	200	0
-2.72900009	6.73250008	2.47399998	0	200	0
-2.75900006	6.73239994	2.47900009	0	200	0
-3.12599993	6.73190022	2.42400002	0	200	0
-3.11299992	6.73190022	2.4460001	0	200	0
-3.125	6.73190022	2.43499994	0	200	0
-2.67000008	6.73239994	1.33099997	0	200	0
-2.67499995	6.73239994	1.33500004	0	200	0
-2.67199993	6.73239994	1.31299996	0	200	0
-2.67000008	6.73239994	1.32599998	0	200	0
-2.75900006	6.73239994	2.49300003	0	200	0
-2.75999999	6.73239994	2.48900008	0	200	0
-2.72399998	6.73250008	2.49300003	0	200	0
-2.72900009	6.73250008	2.48799992	0	200	0
-2.72900009	6.73250008	2.47900009	0	200	0
-2.67000008	6.73239994	1.27499998	0	200	0
-2.67700005	6.73250008	1.278	0	200	0
-2.67700005	6.73250008	1.28299999	0	200	0
-2.66799998	6.73239994	1.28199995	0	200	0
-2.67199993	6.73239994	1.28600001	0	200	0
-2.6789999	6.73250008	1.29900002	0	200	0
-2.67000008	6.73239994	1.29799998	0	200	0
-2.671	6.73239994	1.30299997	0	200	0
-2.671	6.73239994	1.24100006	0	200	0
-2.69199991	6.73250008	1.24800003	0	200	0
-2.66700006	6.73239994	1.24800003	0	200	0
-2.66799998	6.73239994	1.25300002	0	200	0
-2.66899991	6.73239994	1.25899994	0	200	0
-2.68000007	6.73250008	1.26499999	0	200	0
-2.68199992	6.73250008	1.26999998	0	200	0
-2.66799998	6.73239994	1.26999998	0	200	0
-2.79399991	6.73289967	2.54200006	0	200	0
-2.7579999	6.73239994	2.56100011	0	200	0
-2.727	6.73250008	2.54999995	0	200	0
-2.727	6.73250008	2.546	0	200	0
-2.79399991	6.73289967	2.52699995	0	200	0
-2.75999999	6.73239994	2.55100012	0	200	0
-2.76099992	6.73239994	2.54699993	0	200	0
-2.7249999	6.73250008	2.53600001	0	200	0
-2.7420001	6.73250008	2.54099989	0	200	0
-2.75999999	6.73239994	2.54200006	0	200	0
-2.75600004	6.73239994	2.53699994	0	200	0
-2.7249999	6.73250008	2.52699995	0	200	0
-2.72799993	6.73250008	2.52200007	0	200	0
-2.72900009	6.73260021	2.51699996	0	200	0
-2.7249999	6.73250008	2.51699996	0	200	0
-2.76099992	6.73239994	2.52699995	0	200	0
-2.76099992	6.73239994	2.52200007	0	200	0
-2.75999999	6.73239994	2.51699996	0	200	0
-2.72799993	6.73250008	2.56500006	0	200	0
-2.72799993	6.73250008	2.55999994	0	200	0
-2.76200008	6.73239994	2.56599998	0	200	0
-2.80599999	6.73289967	2.53699994	0	200	0
-2.95300007	6.73340082	1.94500005	0	200	0
-2.91400003	6.73390007	2.03600001	0	200	0
-2.93899989	6.73390007	1.95299995	0	200	0
-2.94700003	6.73330021	1.95700002	0	200	0
-2.92799997	6.73390007	1.94500005	0	200	0
-2.9289999	6.73340082	1.94400001	0	200	0
-2.91000009	6.73330021	1.95799994	0	200	0
-2.9000001	6.73340082	1.93900001	0	200	0
-2.852	6.73349953	1.94799995	0	200	0
-2.954	6.73390007	2.16199994	0	200	0
-2.92799997	6.73390007	2.03900003	0	200	0
-2.954	6.73390007	2.15100002	0	200	0
-2.954	6.73390007	2.14100003	0	200	0
-2.954	6.73390007	2.13499999	0	200	0
-2.94000006	6.73390007	2.06399989	0	200	0
-2.92499995	6.73390007	2.04999995	0	200	0
-2.9289999	6.73390007	2.05999994	0	200	0
-2.91400003	6.73390007	2.05699992	0	200	0
-2.94000006	6.73390007	2.11100006	0	200	0
-2.93600011	6.73390007	2.13199997	0	200	0
-2.93700004	6.73390007	2.12700009	0	200	0
-2.92499995	6.73390007	2.07599998	0	200	0
-2.92600012	6.73390007	2.08100009	0	200	0
-2.9289999	6.73390007	2.102	0	200	0
-2.91100001	6.73390007	2.0940001	0	200	0
-2.97099996	6.73379993	2.00099993	0	200	0
-2.96300006	6.73330021	1.96500003	0	200	0
-2.76099992	6.73239994	2.5710001	0	200	0
-2.72799993	6.73250008	2.56999993	0	200	0
-2.76200008	6.73239994	2.57599998	0	200	0
-3.2019999	6.73190022	2.47799993	0	200	0
-3.15400004	6.73200035	2.49499989	0	200	0
-3.15899992	6.73200035	2.48900008	0	200	0
-3.11400008	6.73190022	2.49499989	0	200	0
-3.16199994	6.73200035	2.47799993	0	200	0
-3.11800003	6.73190022	2.48900008	0	200	0
-3.16100001	6.73200035	2.47300005	0	200	0
-3.10400009	6.73190022	2.47300005	0	200	0
-3.10599995	6.73190022	2.46799994	0	200	0
-3.13400006	6.73200035	2.46700001	0	200	0
-3.11500001	6.73190022	2.45099998	0	200	0
-3.13499999	6.73190022	2.44000006	0	200	0
-3.14700007	6.73190022	2.52200007	0	200	0
-2.67499995	6.73239994	1.222	0	200	0
-2.70000005	6.73250008	1.227	0	200	0
-2.70000005	6.73250008	1.23300004	0	200	0
-2.76200008	6.73239994	2.58999991	0	200	0
-2.72900009	6.73250008	2.58400011	0	200	0
-2.75999999	6.73239994	2.58500004	0	200	0
-2.72600007	6.73250008	2.57399988	0	200	0
-2.727	6.73250008	2.58899999	0	200	0
-2.68499994	6.73239994	1.18799996	0	200	0
-2.71499991	6.73250008	1.20299995	0	200	0
-2.72000003	6.73239994	1.20599997	0	200	0
-2.6789999	6.73239994	1.19700003	0	200	0
-2.70900011	6.73250008	1.21099997	0	200	0
-2.67700005	6.73239994	1.20899999	0	200	0
-2.7249999	6.73250008	1.16900003	0	200	0
-2.73799992	6.73250008	1.18700004	0	200	0
-2.71399999	6.73250008	1.17999995	0	200	0
-2.6960001	6.73239994	1.17700005	0	200	0
-2.88000011	6.73320007	2.579	0	200	0
-2.76200008	6.73239994	2.61899996	0	200	0
-2.72799993	6.73250008	2.59800005	0	200	0
-2.7579999	6.73239994	2.61400008	0	200	0
-2.72799993	6.73250008	2.5940001	0	200	0
-2.75999999	6.73239994	2.60899997	0	200	0
-2.76099992	6.73239994	2.5999999	0	200	0
-2.76200008	6.73239994	2.59500003	0	200	0
-2.76699996	6.73239994	2.65799999	0	200	0
-2.75099993	6.73250008	2.648	0	200	0
-2.75300002	6.73239994	2.648	0	200	0
-2.7249999	6.73250008	2.64100003	0	200	0
-2.7249999	6.73250008	2.63599992	0	200	0
-2.75699997	6.73239994	2.64299989	0	200	0
-2.72600007	6.73250008	2.63199997	0	200	0
-2.75900006	6.73239994	2.63800001	0	200	0
-2.75600004	6.73239994	2.6329999	0	200	0
-2.73000002	6.73260021	2.61800003	0	200	0
-2.72799993	6.73250008	2.6170001	0	200	0
-2.74799991	6.73250008	2.62299991	0	200	0
-2.7579999	6.73239994	2.62400007	0	200	0
-2.727	6.73250008	2.61299992	0	200	0
-2.72099996	6.73250008	2.60800004	0	200	0
-2.72799993	6.73250008	2.66100001	0	200	0
-2.727	6.73250008	2.6559999	0	200	0
-2.75600004	6.73239994	2.66199994	0	200	0
-3.02900004	6.73340082	1.97000003	0	200	0
-3.00699997	6.73330021	2	0	200	0
-3.00300002	6.73330021	1.99600005	0	200	0
-2.99799991	6.73330021	1.99100006	0	200	0
-3.00099993	6.73330021	1.98500001	0	200	0
-3.01099992	6.73340082	1.96700001	0	200	0
-3.01099992	6.73340082	1.96200001	0	200	0
-3.0079999	6.73340082	1.95700002	0	200	0
-3.00900006	6.73340082	1.94599998	0	200	0
-2.99600005	6.73330021	1.97500002	0	200	0
-3.00399995	6.73340082	1.94099998	0	200	0
-2.99099994	6.73330021	1.97099996	0	200	0
-2.99000001	6.73330021	1.96599996	0	200	0
-2.95000005	6.73390007	2.20900011	0	200	0
-2.96700001	6.73390007	2.2019999	0	200	0
-2.9690001	6.73390007	2.19099998	0	200	0
-2.9690001	6.73390007	2.18600011	0	200	0
-2.96600008	6.73390007	2.18099999	0	200	0
-2.96700001	6.73390007	2.17600012	0	200	0
-2.96199989	6.73390007	2.15499997	0	200	0
-2.96199989	6.73390007	2.16599989	0	200	0
-3.00699997	6.73349953	2.06500006	0	200	0
-3.01999998	6.73349953	2.06900001	0	200	0
-2.75900006	6.73239994	2.66700006	0	200	0
-2.727	6.73250008	2.66499996	0	200	0
-2.75699997	6.73239994	2.67199993	0	200	0
-2.73799992	6.73250008	1.15699995	0	200	0
-2.75999999	6.73239994	2.68700004	0	200	0
-2.72799993	6.73250008	2.68000007	0	200	0
-2.75699997	6.73239994	2.68199992	0	200	0
-2.7249999	6.73250008	2.67000008	0	200	0
-2.727	6.73250008	2.68899989	0	200	0
-2.72600007	6.73250008	2.68400002	0	200	0
-2.75099993	6.73250008	1.13300002	0	200	0
-2.75600004	6.73250008	1.14199996	0	200	0
-2.76600003	6.73250008	1.11899996	0	200	0
-2.93000007	6.7329998	2.6170001	0	200	0
-2.93600011	6.7329998	2.60100007	0	200	0
-2.76399994	6.73239994	2.71600008	0	200	0
-2.72600007	6.73250008	2.70799994	0	200	0
-2.727	6.73250008	2.704	0	200	0
-2.76300001	6.73239994	2.71099997	0	200	0
-2.75500011	6.73239994	2.70600009	0	200	0
-2.72799993	6.73250008	2.69400001	0	200	0
-2.7579999	6.73239994	2.6960001	0	200	0
-2.75699997	6.73239994	2.69199991	0	200	0
-2.76200008	6.73239994	2.75500011	0	200	0
-2.73000002	6.73250008	2.7420001	0	200	0
-2.72799993	6.73250008	2.73699999	0	200	0
-2.76200008	6.73239994	2.74499989	0	200	0
-2.72799993	6.73250008	2.73300004	0	200	0
-2.75699997	6.73239994	2.74000001	0	200	0
-2.7249999	6.73250008	2.727	0	200	0
-2.7579999	6.73239994	2.7349999	0	200	0
-2.72600007	6.73250008	2.71799994	0	200	0
-2.7579999	6.73239994	2.73000002	0	200	0
-2.7249999	6.73250008	2.71300006	0	200	0
-2.75900006	6.73239994	2.72099996	0	200	0
-2.72199988	6.73250008	2.75600004	0	200	0
-2.71499991	6.73250008	2.75099993	0	200	0
-2.76799989	6.73239994	2.76099992	0	200	0
-3.09599996	6.73330021	1.99699998	0	200	0
-3.0710001	6.73340082	1.98500001	0	200	0
-2.76200008	6.73239994	2.7650001	0	200	0
-2.72900009	6.73250008	2.76200008	0	200	0
-2.73000002	6.73250008	2.76699996	0	200	0
-2.75900006	6.73239994	2.76999998	0	200	0
-2.77099991	6.73239994	2.78600001	0	200	0
-2.73000002	6.73250008	2.7809999	0	200	0
-2.72600007	6.73250008	2.77600002	0	200	0
-2.7579999	6.73239994	2.77900004	0	200	0
-2.73200011	6.73250008	2.78600001	0	200	0
-2.7650001	6.73239994	2.81399989	0	200	0
-2.72600007	6.73250008	2.80500007	0	200	0
-2.7579999	6.73239994	2.80800009	0	200	0
-2.72900009	6.73250008	2.79999995	0	200	0
-2.7579999	6.73239994	2.8039999	0	200	0
-2.72799993	6.73250008	2.78999996	0	200	0
-2.76300001	6.73239994	2.79399991	0	200	0
-2.75500011	6.73239994	2.78900003	0	200	0
-2.73000002	6.73250008	2.84899998	0	200	0
-2.7579999	6.73239994	2.85299993	0	200	0
-2.72900009	6.73250008	2.83899999	0	200	0
-2.75699997	6.73239994	2.84299994	0	200	0
-2.72799993	6.73250008	2.83400011	0	200	0
-2.75999999	6.73239994	2.83800006	0	200	0
-2.727	6.73250008	2.829	0	200	0
-2.7579999	6.73239994	2.83299994	0	200	0
-2.72799993	6.73250008	2.82399988	0	200	0
-2.76099992	6.73239994	2.829	0	200	0
-2.72799993	6.73250008	2.81500006	0	200	0
-2.72799993	6.73250008	2.80999994	0	200	0
-2.75699997	6.73239994	2.81800008	0	200	0
-2.73000002	6.73250008	2.85400009	0	200	0
-2.7650001	6.73239994	2.85800004	0	200	0
-2.73000002	6.73250008	2.85899997	0	200	0
-2.75600004	6.73239994	2.86199999	0	200	0
-2.72799993	6.73250008	2.86299992	0	200	0
-2.75699997	6.73239994	2.8670001	0	200	0
-2.727	6.73250008	2.87299991	0	200	0
-2.75500011	6.73239994	2.88199997	0	200	0
-2.76099992	6.73239994	2.87800002	0	200	0
-2.72900009	6.73250008	2.87800002	0	200	0
-2.72900009	6.73250008	2.8829999	0	200	0
-2.73000002	6.73250008	2.90700006	0	200	0
-2.76900005	6.73239994	2.91300011	0	200	0
-2.73000002	6.73250008	2.90300012	0	200	0
-2.7650001	6.73239994	2.90799999	0	200	0
-2.73000002	6.73250008	2.898	0	200	0
-2.75699997	6.73239994	2.90199995	0	200	0
-2.73000002	6.73250008	2.88800001	0	200	0
-2.7579999	6.73239994	2.89199996	0	200	0
-2.76600003	6.73239994	2.88800001	0	200	0
-2.76200008	6.73239994	2.94199991	0	200	0
-2.72900009	6.73250008	2.9460001	0	200	0
-2.76099992	6.73239994	2.93700004	0	200	0
-2.76699996	6.73239994	2.93300009	0	200	0
-2.72900009	6.73250008	2.93700004	0	200	0
-2.75900006	6.73239994	2.92700005	0	200	0
-2.73000002	6.73250008	2.93199992	0	200	0
-2.73099995	6.73250008	2.92700005	0	200	0
-2.72799993	6.73250008	2.92199993	0	200	0
-2.75600004	6.73239994	2.91599989	0	200	0
-2.73099995	6.73250008	2.91300011	0	200	0
-2.76200008	6.73239994	2.9519999	0	200	0
-2.75999999	6.73250008	2.95700002	0	200	0
-2.7579999	6.73239994	2.95600009	0	200	0
-2.75900006	6.73239994	2.96099997	0	200	0
-2.73000002	6.73250008	2.96099997	0	200	0
-2.75699997	6.73239994	2.96600008	0	200	0
-2.76600003	6.73250008	2.96300006	0	200	0
-2.72900009	6.73250008	2.97600007	0	200	0
-2.76300001	6.73250008	2.977	0	200	0
-2.75999999	6.73239994	2.977	0	200	0
-2.72900009	6.73250008	3.00600004	0	200	0
-2.75600004	6.73239994	3.00099993	0	200	0
-2.73000002	6.73250008	3.00099993	0	200	0
-2.75900006	6.73239994	2.99099994	0	200	0
-2.73000002	6.73250008	2.99600005	0	200	0
-2.76200008	6.73250008	2.98699999	0	200	0
-2.75699997	6.73239994	2.98600006	0	200	0
-2.76099992	6.73239994	2.98200011	0	200	0
-2.73000002	6.73250008	2.98600006	0	200	0
-2.7579999	6.73239994	3.01099992	0	200	0
-2.75399995	6.73239994	3.00500011	0	200	0
-2.75600004	6.73239994	3.04099989	0	200	0
-2.73399997	6.73250008	3.03600001	0	200	0
-2.75500011	6.73239994	3.03600001	0	200	0
-2.73300004	6.73250008	3.0309999	0	200	0
-2.73200011	6.73250008	3.02600002	0	200	0
-2.75699997	6.73239994	3.0309999	0	200	0
-2.73000002	6.73250008	3.02099991	0	200	0
-2.75600004	6.73239994	3.02600002	0	200	0
-2.73000002	6.73250008	3.01099992	0	200	0
-2.76099992	6.73239994	3.01699996	0	200	0
-2.75399995	6.73239994	3.05100012	0	200	0
-2.73200011	6.73250008	3.046	0	200	0
-2.75200009	6.73239994	3.05500007	0	200	0
-2.73200011	6.73250008	3.05100012	0	200	0
-2.73000002	6.73250008	3.05500007	0	200	0
-2.73200011	6.73250008	3.06100011	0	200	0
-2.75600004	6.73239994	3.06100011	0	200	0
-2.73000002	6.73250008	3.0710001	0	200	0
-2.75099993	6.73239994	3.07500005	0	200	0
-2.76699996	6.73239994	3.06800008	0	200	0
-2.75300002	6.73239994	3.10100007	0	200	0
-2.76600003	6.73250008	3.0940001	0	200	0
-2.73000002	6.73250008	3.10100007	0	200	0
-2.73099995	6.73250008	3.09599996	0	200	0
-2.75500011	6.73239994	3.09100008	0	200	0
-2.76600003	6.73250008	3.08299994	0	200	0
-2.75500011	6.73239994	3.08599997	0	200	0
-2.75399995	6.73239994	3.08100009	0	200	0
-2.73399997	6.73250008	3.08100009	0	200	0
-2.75099993	6.73239994	3.1099999	0	200	0
-2.7349999	6.73250008	3.10700011	0	200	0
-2.75399995	6.73239994	3.10599995	0	200	0
-2.76600003	6.73239994	3.13899994	0	200	0
-2.73300004	6.73250008	3.13599992	0	200	0
-2.73200011	6.73250008	3.13100004	0	200	0
-2.75600004	6.73239994	3.13199997	0	200	0
-2.73399997	6.73250008	3.12700009	0	200	0
-2.75399995	6.73239994	3.12599993	0	200	0
-2.72799993	6.73250008	3.11999989	0	200	0
-2.76799989	6.73250008	3.11899996	0	200	0
-2.75900006	6.73239994	3.1170001	0	200	0
-2.73099995	6.73250008	3.14599991	0	200	0
-2.75900006	6.73239994	3.14299989	0	200	0
-2.72900009	6.73250008	3.15100002	0	200	0
-2.75900006	6.73239994	3.15300012	0	200	0
-2.75399995	6.73239994	3.15700006	0	200	0
-2.73099995	6.73250008	3.1559999	0	200	0
-2.76099992	6.73239994	3.16400003	0	200	0
-2.73799992	6.73250008	3.16300011	0	200	0
-2.75699997	6.73239994	3.16799998	0	200	0
-2.73399997	6.73250008	3.19799995	0	200	0
-2.7579999	6.73239994	3.19400001	0	200	0
-2.7349999	6.73250008	3.18799996	0	200	0
-2.76099992	6.73239994	3.18899989	0	200	0
-2.73300004	6.73250008	3.18199992	0	200	0
-2.77200007	6.73250008	3.18199992	0	200	0
-2.75399995	6.73239994	3.18199992	0	200	0
-2.76399994	6.73239994	3.18000007	0	200	0
-2.72900009	6.73250008	3.17600012	0	200	0
-2.73399997	6.73250008	3.20799994	0	200	0
-2.75500011	6.73239994	3.20300007	0	200	0
-2.73300004	6.73250008	3.22300005	0	200	0
-2.75399995	6.73239994	3.22900009	0	200	0
-2.73099995	6.73250008	3.21199989	0	200	0
-2.75399995	6.73239994	3.2190001	0	200	0
-2.74900007	6.73239994	3.21199989	0	200	0
-2.73300004	6.73250008	3.23300004	0	200	0
-2.74900007	6.73239994	3.23799992	0	200	0
-2.73099995	6.73250008	3.23799992	0	200	0
-2.73300004	6.73250008	3.24900007	0	200	0
-2.75500011	6.73239994	3.24399996	0	200	0
-2.73399997	6.73250008	3.25900006	0	200	0
-2.76600003	6.73239994	3.2579999	0	200	0
-2.73399997	6.73250008	3.26399994	0	200	0
-2.75699997	6.73239994	3.26600003	0	200	0
-2.73600006	6.73250008	3.29099989	0	200	0
-2.74699998	6.73239994	3.28900003	0	200	0
-2.73000002	6.73250008	3.28399992	0	200	0
-2.75200009	6.73239994	3.27999997	0	200	0
-2.73399997	6.73250008	3.2750001	0	200	0
-2.75099993	6.73239994	3.26900005	0	200	0
-2.75	6.73239994	3.30599999	0	200	0
-2.75200009	6.73239994	3.296	0	200	0
-2.74900007	6.73239994	3.31599998	0	200	0
-2.73600006	6.73250008	3.31699991	0	200	0
-2.75999999	6.73250008	3.30900002	0	200	0
-2.73200011	6.73250008	3.31100011	0	200	0
-2.75200009	6.73239994	3.32200003	0	200	0
-2.73600006	6.73250008	3.32800007	0	200	0
-2.77200007	6.73239994	3.33899999	0	200	0
-2.73699999	6.73250008	3.3440001	0	200	0
-2.74499989	6.73239994	3.34100008	0	200	0
-2.7349999	6.73250008	3.33800006	0	200	0
-2.74399996	6.73239994	3.35700011	0	200	0
-2.73900008	6.73250008	3.35500002	0	200	0
-2.75099993	6.73239994	3.34800005	0	200	0
-2.74699998	6.73250008	3.38400006	0	200	0
-2.74399996	6.73239994	3.3829999	0	200	0
-2.74699998	6.73239994	3.37299991	0	200	0
-2.74699998	6.73250008	3.37299991	0	200	0
-2.75	6.73239994	3.36899996	0	200	0
-2.74300003	6.73250008	3.3670001	0	200	0
-2.75200009	6.73239994	3.40199995	0	200	0
-2.75300002	6.73250008	3.39700007	0	200	0
-2.74399996	6.73239994	3.39400005	0	200	0
-2.76200008	6.73250008	3.40499997	0	200	0
-2.76799989	6.73239994	3.41799998	0	200	0
-2.76200008	6.73250008	3.41599989	0	200	0
-2.76799989	6.73250008	3.43400002	0	200	0
-2.76099992	6.73250008	3.42600012	0	200	0
-2.75999999	6.73239994	3.42600012	0	200	0
-2.77099991	6.73250008	3.4460001	0	200	0
-2.78500009	6.73250008	3.46700001	0	200	0
-2.80200005	6.73239994	3.4460001	0	200	0
-2.77600002	6.73239994	3.45799994	0	200	0
-2.77600002	6.73250008	3.45799994	0	200	0
-2.78999996	6.73250008	3.49099994	0	200	0
-2.80500007	6.73239994	3.47399998	0	200	0
-2.79099989	6.73250008	3.48000002	0	200	0
-2.80800009	6.73239994	3.48600006	0	200	0
-2.81999993	6.73239994	3.50200009	0	200	0
-2.80999994	6.73250008	3.50300002	0	200	0
-2.81999993	6.73250008	3.51799989	0	200	0
-2.82500005	6.73239994	3.50900006	0	200	0
-2.85700011	6.73239994	3.54299998	0	200	0
-2.84299994	6.73250008	3.55500007	0	200	0
