-3.26699996	6.92980003	-0.425000012	200	0	0
-3.27800012	6.92980003	-0.395000011	200	0	0
-3.26799989	6.92980003	-0.416000009	200	0	0
-3.26699996	6.92980003	-0.405000001	200	0	0
-3.26999998	6.92980003	-0.356999993	200	0	0
-3.2750001	6.92980003	-0.321999997	200	0	0
-3.27999997	6.92980003	-0.345999986	200	0	0
-3.27600002	6.92980003	-0.331999987	200	0	0
-3.2650001	6.92980003	-0.455000013	200	0	0
-3.25699997	6.92980003	-0.458000004	200	0	0
-3.273	6.92989969	-0.441000015	200	0	0
-3.2750001	6.92989969	-0.432999998	200	0	0
-3.27200007	6.92999983	-0.368999988	200	0	0
-3.27200007	6.92989969	-0.409000009	200	0	0
-3.27600002	6.92989969	-0.333000004	200	0	0
-3.2750001	6.92989969	-0.342000008	200	0	0
-3.27699995	6.92989969	-0.393999994	200	0	0
-3.27600002	6.92989969	-0.381999999	200	0	0
-3.27099991	6.92989969	-0.358999997	200	0	0
-3.26699996	6.92989969	-0.36500001	200	0	0
-3.26099992	6.92989969	-0.460999995	200	0	0
-3.2650001	6.92989969	-0.455000013	200	0	0
-3.26699996	6.92989969	-0.414999992	200	0	0
-3.28200006	6.92999983	-0.398000002	200	0	0
-3.26999998	6.92999983	-0.407999992	200	0	0
-3.27099991	6.92999983	-0.358999997	200	0	0
-3.27600002	6.92989969	-0.323000014	200	0	0
-3.27600002	6.92999983	-0.342999995	200	0	0
-3.2750001	6.92999983	-0.331999987	200	0	0
-3.2650001	6.92999983	-0.414000005	200	0	0
-3.27399993	6.92999983	-0.381000012	200	0	0
-3.2750001	6.92999983	-0.321999997	200	0	0
-3.26300001	6.92999983	-0.453000009	200	0	0
-3.26900005	6.92999983	-0.437999994	200	0	0
-3.27399993	6.92999983	-0.432000011	200	0	0
-3.27600002	6.93009996	-0.323000014	200	0	0
-3.273	6.93009996	-0.330000013	200	0	0
-3.27399993	6.93009996	-0.391000003	200	0	0
-3.27399993	6.93009996	-0.381000012	200	0	0
-3.27399993	6.93009996	-0.340999991	200	0	0
-3.26900005	6.93009996	-0.367000014	200	0	0
-3.27200007	6.93009996	-0.358999997	200	0	0
-3.27800012	6.93009996	-0.314999998	200	0	0
-3.25600004	6.93009996	-0.467000008	200	0	0
-3.26300001	6.93009996	-0.463	200	0	0
-3.26200008	6.93009996	-0.451999992	200	0	0
-3.26999998	6.93009996	-0.407999992	200	0	0
-3.26900005	6.93009996	-0.416999996	200	0	0
-3.27099991	6.93009996	-0.439999998	200	0	0
-3.2750001	6.93009996	-0.432999998	200	0	0
-3.2650001	6.9302001	-0.435000002	200	0	0
-3.27200007	6.9302001	-0.358999997	200	0	0
-3.2650001	6.9302001	-0.423000008	200	0	0
-3.27200007	6.9302001	-0.419999987	200	0	0
-3.27200007	6.9302001	-0.368999988	200	0	0
-3.26799989	6.9302001	-0.405999988	200	0	0
-3.27999997	6.9302001	-0.386000007	200	0	0
-3.27399993	6.9302001	-0.391000003	200	0	0
-3.2750001	6.93039989	-0.342000008	200	0	0
-3.27900004	6.93030071	-0.38499999	200	0	0
-3.27600002	6.93030071	-0.372999996	200	0	0
-3.28200006	6.93030071	-0.317999989	200	0	0
-3.27399993	6.93030071	-0.32100001	200	0	0
-3.273	6.93030071	-0.360000014	200	0	0
-3.27600002	6.93030071	-0.333000004	200	0	0
-3.27699995	6.93030071	-0.342999995	200	0	0
-3.27399993	6.9302001	-0.32100001	200	0	0
-3.27800012	6.9302001	-0.333999991	200	0	0
-3.2750001	6.9302001	-0.342000008	200	0	0
-3.2579999	6.9302001	-0.458000004	200	0	0
-3.25699997	6.9302001	-0.448000014	200	0	0
-3.27399993	6.93030071	-0.391000003	200	0	0
-3.26900005	6.93030071	-0.437999994	200	0	0
-3.27099991	6.93030071	-0.42899999	200	0	0
-3.26999998	6.93030071	-0.407000005	200	0	0
-3.27399993	6.93030071	-0.421999991	200	0	0
-3.27600002	6.93039989	-0.331999987	200	0	0
-3.25900006	6.93030071	-0.460000008	200	0	0
-3.27399993	6.93039989	-0.32100001	200	0	0
-3.26200008	6.93039989	-0.430999994	200	0	0
-3.26200008	6.93039989	-0.421000004	200	0	0
-3.25699997	6.93039989	-0.446999997	200	0	0
-3.25699997	6.93039989	-0.458000004	200	0	0
-3.27699995	6.93039989	-0.374000013	200	0	0
-3.27399993	6.93039989	-0.381000012	200	0	0
-3.273	6.93039989	-0.389999986	200	0	0
-3.26300001	6.93039989	-0.412	200	0	0
-3.26900005	6.93039989	-0.407000005	200	0	0
-3.27099991	6.93050003	-0.42899999	200	0	0
-3.26799989	6.93039989	-0.356000006	200	0	0
-3.27800012	6.93039989	-0.31400001	200	0	0
-3.27399993	6.93050003	-0.32100001	200	0	0
-3.26399994	6.93050003	-0.372000009	200	0	0
-3.27099991	6.93060017	-0.388000011	200	0	0
-3.25999999	6.93060017	-0.449999988	200	0	0
-3.27099991	6.93060017	-0.409000009	200	0	0
-3.26799989	6.93050003	-0.386000007	200	0	0
-3.26799989	6.93060017	-0.437000006	200	0	0
-3.26999998	6.93060017	-0.428000003	200	0	0
-3.25	6.93050003	-0.460999995	200	0	0
-3.25900006	6.93050003	-0.398000002	200	0	0
-3.25500011	6.93050003	-0.456	200	0	0
-3.26099992	6.93050003	-0.409999996	200	0	0
-3.25699997	6.93050003	-0.446999997	200	0	0
-3.26600003	6.93050003	-0.435000002	200	0	0
-3.2650001	6.93050003	-0.352999985	200	0	0
-3.27099991	6.93050003	-0.368000001	200	0	0
-3.27600002	6.93050003	-0.331999987	200	0	0
-3.26900005	6.93050003	-0.337000012	200	0	0
-3.27399993	6.93060017	-0.340999991	200	0	0
-3.26900005	6.93060017	-0.356999993	200	0	0
-3.26699996	6.93060017	-0.36500001	200	0	0
-3.27900004	6.93060017	-0.386000007	200	0	0
-3.27699995	6.93060017	-0.333999991	200	0	0
-3.27399993	6.93060017	-0.32100001	200	0	0
-3.273	6.9307003	-0.411000013	200	0	0
-3.27600002	6.9307003	-0.342999995	200	0	0
-3.27399993	6.9307003	-0.391000003	200	0	0
-3.2650001	6.9307003	-0.363000005	200	0	0
-3.273	6.9307003	-0.360000014	200	0	0
-3.27200007	6.9307003	-0.379999995	200	0	0
-3.26999998	6.9307003	-0.419	200	0	0
-3.25500011	6.9307003	-0.456999987	200	0	0
-3.25999999	6.9307003	-0.449999988	200	0	0
-3.273	6.9307003	-0.430999994	200	0	0
-3.27099991	6.9307003	-0.439999998	200	0	0
-3.27099991	6.9307003	-0.319000006	200	0	0
-3.26900005	6.9307003	-0.326999992	200	0	0
-3.26900005	6.93079996	-0.407000005	200	0	0
-3.25900006	6.93079996	-0.419	200	0	0
-3.26799989	6.93079996	-0.416999996	200	0	0
-3.25999999	6.93079996	-0.451000005	200	0	0
-3.27200007	6.93079996	-0.441000015	200	0	0
-3.27200007	6.93090105	-0.328999996	200	0	0
-3.28399992	6.93090105	-0.400000006	200	0	0
-3.27399993	6.93090105	-0.340999991	200	0	0
-3.27399993	6.93079996	-0.32100001	200	0	0
-3.26900005	6.93090105	-0.356999993	200	0	0
-3.27099991	6.93090105	-0.368999988	200	0	0
-3.273	6.93079996	-0.331	200	0	0
-3.27399993	6.93079996	-0.340999991	200	0	0
-3.27099991	6.93079996	-0.388999999	200	0	0
-3.27800012	6.93079996	-0.38499999	200	0	0
-3.26799989	6.93079996	-0.356000006	200	0	0
-3.27200007	6.93079996	-0.368999988	200	0	0
-3.27399993	6.93090105	-0.432999998	200	0	0
-3.27200007	6.93090105	-0.419999987	200	0	0
-3.27600002	6.93090105	-0.414000005	200	0	0
-3.273	6.93090105	-0.442000002	200	0	0
-3.27200007	6.93090105	-0.319999993	200	0	0
-3.2750001	6.93090105	-0.312000006	200	0	0
-3.25500011	6.93090105	-0.456	200	0	0
-3.26699996	6.93090105	-0.456999987	200	0	0
-3.27399993	6.93099976	-0.321999997	200	0	0
-3.24900007	6.93090105	-0.462000012	200	0	0
-3.27699995	6.93099976	-0.363999993	200	0	0
-3.25999999	6.93099976	-0.358999997	200	0	0
-3.26799989	6.93099976	-0.335999995	200	0	0
-3.273	6.93099976	-0.330000013	200	0	0
-3.273	6.93109989	-0.331	200	0	0
-3.27399993	6.93109989	-0.39199999	200	0	0
-3.26300001	6.93099976	-0.432000011	200	0	0
-3.26799989	6.93099976	-0.426999986	200	0	0
-3.26900005	6.93099976	-0.418000013	200	0	0
-3.26799989	6.93099976	-0.407000005	200	0	0
-3.27200007	6.93099976	-0.379999995	200	0	0
-3.27699995	6.93099976	-0.393999994	200	0	0
-3.273	6.93109989	-0.381000012	200	0	0
-3.27399993	6.93109989	-0.342000008	200	0	0
-3.27099991	6.93109989	-0.360000014	200	0	0
-3.25600004	6.93109989	-0.467999995	200	0	0
-3.25999999	6.93099976	-0.451000005	200	0	0
-3.2579999	6.93099976	-0.458999991	200	0	0
-3.27099991	6.93109989	-0.439999998	200	0	0
-3.26099992	6.93109989	-0.462000012	200	0	0
-3.2579999	6.93109989	-0.449000001	200	0	0
-3.27200007	6.93109989	-0.421000004	200	0	0
-3.27099991	6.93109989	-0.430000007	200	0	0
-3.273	6.93109989	-0.32100001	200	0	0
-3.27900004	6.93109989	-0.375999987	200	0	0
-3.27200007	6.93120003	-0.370000005	200	0	0
-3.25999999	6.93120003	-0.400000006	200	0	0
-3.2750001	6.93130016	-0.382999986	200	0	0
-3.27399993	6.93130016	-0.372000009	200	0	0
-3.27200007	6.93120003	-0.389999986	200	0	0
-3.273	6.93130016	-0.32100001	200	0	0
-3.26200008	6.93130016	-0.351000011	200	0	0
-3.2650001	6.93130016	-0.333999991	200	0	0
-3.273	6.93130016	-0.331	200	0	0
-3.273	6.93120003	-0.381000012	200	0	0
-3.27600002	6.93120003	-0.31400001	200	0	0
-3.27200007	6.93120003	-0.319999993	200	0	0
-3.26799989	6.93120003	-0.356999993	200	0	0
-3.26600003	6.93120003	-0.335000008	200	0	0
-3.273	6.93120003	-0.331	200	0	0
-3.26999998	6.93120003	-0.419	200	0	0
-3.27099991	6.93130016	-0.388999999	200	0	0
-3.27399993	6.93120003	-0.432000011	200	0	0
-3.26999998	6.93130016	-0.43900001	200	0	0
-3.25500011	6.93120003	-0.456999987	200	0	0
-3.26600003	6.93120003	-0.456	200	0	0
-3.27099991	6.93120003	-0.441000015	200	0	0
-3.27099991	6.93130016	-0.430000007	200	0	0
-3.26699996	6.93130016	-0.405999988	200	0	0
-3.25900006	6.93130016	-0.460000008	200	0	0
-3.25300002	6.93130016	-0.465000004	200	0	0
-3.26399994	6.93130016	-0.455000013	200	0	0
-3.26699996	6.93130016	-0.416000009	200	0	0
-3.27399993	6.9314003	-0.39199999	200	0	0
-3.25699997	6.9314003	-0.458000004	200	0	0
-3.25999999	6.9314003	-0.451000005	200	0	0
-3.273	6.9314003	-0.411000013	200	0	0
-3.26300001	6.9314003	-0.412999988	200	0	0
-3.26600003	6.9314003	-0.43599999	200	0	0
-3.26799989	6.9314003	-0.428000003	200	0	0
-3.26799989	6.9314003	-0.356000006	200	0	0
-3.27399993	6.9314003	-0.342000008	200	0	0
-3.273	6.9314003	-0.331	200	0	0
-3.27699995	6.9314003	-0.314999998	200	0	0
-3.273	6.9314003	-0.381000012	200	0	0
-3.27099991	6.9314003	-0.368999988	200	0	0
-3.26799989	6.93150091	-0.428000003	200	0	0
-3.26600003	6.93150091	-0.354999989	200	0	0
-3.26399994	6.93150091	-0.414000005	200	0	0
-3.26900005	6.93150091	-0.368000001	200	0	0
-3.26600003	6.93150091	-0.405999988	200	0	0
-3.27600002	6.93150091	-0.384000003	200	0	0
-3.26999998	6.93150091	-0.388999999	200	0	0
-3.24900007	6.93150091	-0.472000003	200	0	0
-3.2650001	6.93150091	-0.435000002	200	0	0
-3.25699997	6.93150091	-0.458999991	200	0	0
-3.25900006	6.93150091	-0.451000005	200	0	0
-3.27200007	6.93159962	-0.340999991	200	0	0
-3.27399993	6.93150091	-0.321999997	200	0	0
-3.27099991	6.93150091	-0.330000013	200	0	0
-3.26799989	6.93150091	-0.337000012	200	0	0
-3.26999998	6.93159962	-0.368999988	200	0	0
-3.27099991	6.93159962	-0.379999995	200	0	0
-3.27099991	6.93159962	-0.441000015	200	0	0
-3.25699997	6.93159962	-0.398000002	200	0	0
-3.27399993	6.93159962	-0.393000007	200	0	0
-3.26699996	6.93159962	-0.426999986	200	0	0
-3.26600003	6.93159962	-0.416000009	200	0	0
-3.27600002	6.93169975	-0.344000012	200	0	0
-3.27099991	6.93159962	-0.319999993	200	0	0
-3.2650001	6.93159962	-0.354000002	200	0	0
-3.273	6.93159962	-0.331999987	200	0	0
-3.27099991	6.93169975	-0.419999987	200	0	0
-3.2579999	6.93159962	-0.460000008	200	0	0
-3.26699996	6.93179989	-0.407000005	200	0	0
-3.25500011	6.93169975	-0.44600001	200	0	0
-3.27200007	6.93169975	-0.370999992	200	0	0
-3.26900005	6.93169975	-0.437999994	200	0	0
-3.27900004	6.93169975	-0.386000007	200	0	0
-3.2650001	6.93169975	-0.425000012	200	0	0
-3.27099991	6.93169975	-0.389999986	200	0	0
-3.26600003	6.93169975	-0.405000001	200	0	0
-3.25200009	6.93169975	-0.455000013	200	0	0
-3.25	6.93169975	-0.462000012	200	0	0
-3.27099991	6.93190002	-0.330000013	200	0	0
-3.273	6.93179989	-0.372000009	200	0	0
-3.27099991	6.93179989	-0.360000014	200	0	0
-3.27800012	6.93179989	-0.344999999	200	0	0
-3.27600002	6.93179989	-0.31400001	200	0	0
-3.27200007	6.93179989	-0.319999993	200	0	0
-3.273	6.93179989	-0.331	200	0	0
-3.26900005	6.93169975	-0.35800001	200	0	0
-3.27600002	6.93169975	-0.31400001	200	0	0
-3.27399993	6.93169975	-0.321999997	200	0	0
-3.27200007	6.93169975	-0.330000013	200	0	0
-3.26300001	6.93179989	-0.432999998	200	0	0
-3.26999998	6.93179989	-0.42899999	200	0	0
-3.26600003	6.93179989	-0.416000009	200	0	0
-3.27600002	6.93179989	-0.384000003	200	0	0
-3.2750001	6.93179989	-0.393000007	200	0	0
-3.27200007	6.93190002	-0.340000004	200	0	0
-3.26699996	6.93190002	-0.356000006	200	0	0
-3.27099991	6.93190002	-0.430999994	200	0	0
-3.25399995	6.93179989	-0.456	200	0	0
-3.25	6.93179989	-0.442000002	200	0	0
-3.273	6.93190002	-0.32100001	200	0	0
-3.26600003	6.93190002	-0.405000001	200	0	0
-3.26799989	6.93190002	-0.386999995	200	0	0
-3.27600002	6.93190002	-0.384000003	200	0	0
-3.26699996	6.93190002	-0.365999997	200	0	0
-3.2650001	6.93200016	-0.363999993	200	0	0
-3.26699996	6.93200016	-0.356000006	200	0	0
-3.27699995	6.93200016	-0.314999998	200	0	0
-3.27699995	6.93200016	-0.344999999	200	0	0
-3.273	6.93200016	-0.32100001	200	0	0
-3.273	6.93200016	-0.331	200	0	0
-3.26399994	6.93200016	-0.433999985	200	0	0
-3.26999998	6.93200016	-0.42899999	200	0	0
-3.26600003	6.93200016	-0.416000009	200	0	0
-3.26600003	6.93190002	-0.43599999	200	0	0
-3.26799989	6.93200016	-0.407000005	200	0	0
-3.27200007	6.93200016	-0.381000012	200	0	0
-3.27699995	6.93200016	-0.395000011	200	0	0
-3.26799989	6.93190002	-0.418000013	200	0	0
-3.26099992	6.93190002	-0.462000012	200	0	0
-3.2579999	6.93190002	-0.449999988	200	0	0
-3.26600003	6.93200016	-0.456999987	200	0	0
-3.26099992	6.93200016	-0.462000012	200	0	0
-3.25600004	6.93200016	-0.467999995	200	0	0
-3.27099991	6.93219948	-0.370000005	200	0	0
-3.27200007	6.9321003	-0.411000013	200	0	0
-3.27399993	6.9321003	-0.331999987	200	0	0
-3.2809999	6.9321003	-0.398999989	200	0	0
-3.27399993	6.9321003	-0.342000008	200	0	0
-3.27800012	6.9321003	-0.386000007	200	0	0
-3.26999998	6.9321003	-0.358999997	200	0	0
-3.26699996	6.9321003	-0.365999997	200	0	0
-3.26900005	6.9321003	-0.439999998	200	0	0
-3.27200007	6.9321003	-0.430999994	200	0	0
-3.26799989	6.9321003	-0.418000013	200	0	0
-3.273	6.93219948	-0.340999991	200	0	0
-3.2750001	6.93219948	-0.423999995	200	0	0
-3.26799989	6.93219948	-0.356999993	200	0	0
-3.26900005	6.93219948	-0.409000009	200	0	0
-3.273	6.93219948	-0.39199999	200	0	0
-3.27099991	6.93219948	-0.379999995	200	0	0
-3.27800012	6.9321003	-0.316000015	200	0	0
-3.27699995	6.93219948	-0.335000008	200	0	0
-3.27200007	6.9321003	-0.32100001	200	0	0
-3.273	6.93229961	-0.32100001	200	0	0
-3.26999998	6.93219948	-0.319000006	200	0	0
-3.25900006	6.9321003	-0.460999995	200	0	0
-3.26399994	6.9321003	-0.456	200	0	0
-3.26600003	6.93219948	-0.456999987	200	0	0
-3.2750001	6.93219948	-0.435000002	200	0	0
-3.26600003	6.93219948	-0.43599999	200	0	0
-3.26600003	6.93229961	-0.405999988	200	0	0
-3.2650001	6.93229961	-0.456	200	0	0
-3.27399993	6.93229961	-0.432999998	200	0	0
-3.26799989	6.93229961	-0.356999993	200	0	0
-3.26399994	6.93229961	-0.363000005	200	0	0
-3.273	6.93229961	-0.421999991	200	0	0
-3.27800012	6.93229961	-0.386000007	200	0	0
-3.27200007	6.93229961	-0.391000003	200	0	0
-3.27600002	6.93229961	-0.444999993	200	0	0
-3.2650001	6.93229961	-0.467000008	200	0	0
-3.25399995	6.93229961	-0.467000008	200	0	0
-3.26399994	6.93239975	-0.414000005	200	0	0
-3.27399993	6.93229961	-0.333000004	200	0	0
-3.27200007	6.93229961	-0.340000004	200	0	0
-3.27399993	6.93239975	-0.342000008	200	0	0
-3.27200007	6.93239975	-0.331	200	0	0
-3.27699995	6.93239975	-0.314999998	200	0	0
-3.26999998	6.93249989	-0.430000007	200	0	0
-3.26399994	6.93239975	-0.465000004	200	0	0
-3.2809999	6.93239975	-0.398999989	200	0	0
-3.26699996	6.93239975	-0.458000004	200	0	0
-3.2650001	6.93239975	-0.405000001	200	0	0
-3.26399994	6.93239975	-0.435000002	200	0	0
-3.273	6.93239975	-0.432000011	200	0	0
-3.26699996	6.93249989	-0.356000006	200	0	0
-3.273	6.93239975	-0.321999997	200	0	0
-3.27600002	6.93239975	-0.384000003	200	0	0
-3.2650001	6.93239975	-0.354000002	200	0	0
-3.27600002	6.93249989	-0.384000003	200	0	0
-3.26300001	6.93249989	-0.433999985	200	0	0
-3.25699997	6.93249989	-0.458999991	200	0	0
-3.27699995	6.93249989	-0.375	200	0	0
-3.27200007	6.93249989	-0.32100001	200	0	0
-3.27099991	6.93249989	-0.330000013	200	0	0
-3.27399993	6.93249989	-0.342000008	200	0	0
-3.27200007	6.93249989	-0.411000013	200	0	0
-3.26699996	6.93249989	-0.386000007	200	0	0
-3.26900005	6.93249989	-0.418000013	200	0	0
-3.25900006	6.93249989	-0.470999986	200	0	0
-3.26600003	6.93249989	-0.456999987	200	0	0
-3.27699995	6.93260002	-0.38499999	200	0	0
-3.27699995	6.93260002	-0.314999998	200	0	0
-3.2650001	6.93260002	-0.36500001	200	0	0
-3.273	6.93260002	-0.32100001	200	0	0
-3.26699996	6.93260002	-0.356000006	200	0	0
-3.27099991	6.93260002	-0.330000013	200	0	0
-3.273	6.93260002	-0.340999991	200	0	0
-3.25600004	6.93260002	-0.458000004	200	0	0
-3.26300001	6.93260002	-0.453999996	200	0	0
-3.27600002	6.93260002	-0.393999994	200	0	0
-3.26699996	6.93260002	-0.437000006	200	0	0
-3.27600002	6.93260002	-0.435000002	200	0	0
-3.26699996	6.93260002	-0.407000005	200	0	0
-3.26699996	6.93260002	-0.416000009	200	0	0
-3.27399993	6.93270016	-0.444000006	200	0	0
-3.27800012	6.93270016	-0.437000006	200	0	0
-3.27900004	6.93270016	-0.386999995	200	0	0
-3.27399993	6.93270016	-0.423000008	200	0	0
-3.27399993	6.93270016	-0.39199999	200	0	0
-3.26999998	6.93270016	-0.409000009	200	0	0
-3.25900006	6.93260002	-0.470999986	200	0	0
-3.26399994	6.93280077	-0.363000005	200	0	0
-3.273	6.93280077	-0.361000001	200	0	0
-3.273	6.93280077	-0.32100001	200	0	0
-3.2650001	6.93280077	-0.335000008	200	0	0
-3.26399994	6.93270016	-0.363000005	200	0	0
-3.26799989	6.93270016	-0.356000006	200	0	0
-3.27399993	6.93270016	-0.342000008	200	0	0
-3.27399993	6.93270016	-0.321999997	200	0	0
-3.27399993	6.93270016	-0.331999987	200	0	0
-3.26399994	6.93270016	-0.455000013	200	0	0
-3.27099991	6.93289995	-0.338999987	200	0	0
-3.273	6.93280077	-0.381000012	200	0	0
-3.26799989	6.93289995	-0.356000006	200	0	0
-3.2750001	6.93280077	-0.393000007	200	0	0
-3.26200008	6.93280077	-0.463	200	0	0
-3.26300001	6.93280077	-0.453999996	200	0	0
-3.273	6.93280077	-0.412	200	0	0
-3.27099991	6.93280077	-0.419999987	200	0	0
-3.27699995	6.93280077	-0.43599999	200	0	0
-3.26399994	6.93300009	-0.363000005	200	0	0
-3.27999997	6.93289995	-0.397000015	200	0	0
-3.273	6.93289995	-0.331999987	200	0	0
-3.273	6.93289995	-0.381000012	200	0	0
-3.26999998	6.93289995	-0.368999988	200	0	0
-3.26799989	6.93300009	-0.356999993	200	0	0
-3.27099991	6.93289995	-0.319999993	200	0	0
-3.273	6.93300009	-0.32100001	200	0	0
-3.26099992	6.93289995	-0.462000012	200	0	0
-3.26900005	6.93289995	-0.407999992	200	0	0
-3.26300001	6.93289995	-0.453999996	200	0	0
-3.26600003	6.93289995	-0.416000009	200	0	0
-3.27200007	6.93289995	-0.442000002	200	0	0
-3.26600003	6.93289995	-0.425999999	200	0	0
-3.27600002	6.93300009	-0.393999994	200	0	0
-3.273	6.93309975	-0.331	200	0	0
-3.26999998	6.93309975	-0.409000009	200	0	0
-3.27099991	6.93300009	-0.419999987	200	0	0
-3.27399993	6.93309975	-0.342000008	200	0	0
-3.27699995	6.93309975	-0.395000011	200	0	0
-3.26600003	6.93309975	-0.354999989	200	0	0
-3.26999998	6.93309975	-0.377999991	200	0	0
-3.26600003	6.93309975	-0.36500001	200	0	0
-3.27099991	6.93300009	-0.330000013	200	0	0
-3.26600003	6.93300009	-0.405000001	200	0	0
-3.27200007	6.93300009	-0.340000004	200	0	0
-3.28200006	6.93300009	-0.388999999	200	0	0
-3.25500011	6.93300009	-0.446999997	200	0	0
-3.27200007	6.93300009	-0.442000002	200	0	0
-3.27699995	6.93300009	-0.435000002	200	0	0
-3.26300001	6.93300009	-0.463999987	200	0	0
-3.27200007	6.93309975	-0.430999994	200	0	0
-3.26799989	6.93309975	-0.418000013	200	0	0
-3.273	6.93309975	-0.32100001	200	0	0
-3.26200008	6.93309975	-0.463	200	0	0
-3.26399994	6.93309975	-0.455000013	200	0	0
-3.27399993	6.93309975	-0.442999989	200	0	0
-3.26300001	6.93319988	-0.361999989	200	0	0
-3.26300001	6.93319988	-0.351999998	200	0	0
-3.27200007	6.93319988	-0.340000004	200	0	0
-3.26999998	6.93319988	-0.328000009	200	0	0
-3.27600002	6.93319988	-0.31400001	200	0	0
-3.273	6.93319988	-0.32100001	200	0	0
-3.25500011	6.93309975	-0.467000008	200	0	0
-3.25399995	6.93319988	-0.444999993	200	0	0
-3.26600003	6.93319988	-0.435000002	200	0	0
-3.26999998	6.93319988	-0.377999991	200	0	0
-3.26799989	6.93319988	-0.426999986	200	0	0
-3.27600002	6.93319988	-0.393000007	200	0	0
-3.26600003	6.93319988	-0.414999992	200	0	0
-3.26600003	6.93319988	-0.405000001	200	0	0
-3.2579999	6.93319988	-0.469999999	200	0	0
-3.2579999	6.93319988	-0.458999991	200	0	0
-3.273	6.93330002	-0.379999995	200	0	0
-3.25500011	6.93330002	-0.44600001	200	0	0
-3.27099991	6.93330002	-0.439999998	200	0	0
-3.27200007	6.93330002	-0.389999986	200	0	0
-3.2650001	6.93330002	-0.423999995	200	0	0
-3.26799989	6.93330002	-0.407000005	200	0	0
-3.26900005	6.93330002	-0.418000013	200	0	0
-3.273	6.93330002	-0.31099999	200	0	0
-3.26399994	6.93330002	-0.363000005	200	0	0
-3.27200007	6.93330002	-0.319999993	200	0	0
-3.2650001	6.93330002	-0.352999985	200	0	0
-3.27099991	6.93330002	-0.328999996	200	0	0
-3.26900005	6.93330002	-0.337000012	200	0	0
-3.27399993	6.93340111	-0.391000003	200	0	0
-3.25300002	6.93340111	-0.465000004	200	0	0
-3.25600004	6.93340111	-0.456999987	200	0	0
-3.27200007	6.93340111	-0.409999996	200	0	0
-3.25699997	6.93340111	-0.416999996	200	0	0
-3.26399994	6.93340111	-0.412999988	200	0	0
-3.26799989	6.93340111	-0.437999994	200	0	0
-3.25699997	6.93330002	-0.467999995	200	0	0
-3.2579999	6.93330002	-0.458999991	200	0	0
-3.27200007	6.93340111	-0.319999993	200	0	0
-3.27600002	6.93340111	-0.382999986	200	0	0
-3.273	6.93340111	-0.330000013	200	0	0
-3.26799989	6.93340111	-0.335999995	200	0	0
-3.26300001	6.93340111	-0.361999989	200	0	0
-3.2650001	6.93340111	-0.354000002	200	0	0
-3.25399995	6.93340111	-0.476000011	200	0	0
-3.2579999	6.93349981	-0.458999991	200	0	0
-3.273	6.93349981	-0.330000013	200	0	0
-3.26699996	6.93349981	-0.38499999	200	0	0
-3.26600003	6.93349981	-0.456	200	0	0
-3.26799989	6.93349981	-0.426999986	200	0	0
-3.26200008	6.93349981	-0.351000011	200	0	0
-3.26399994	6.93349981	-0.414000005	200	0	0
-3.26799989	6.93349981	-0.407000005	200	0	0
-3.27099991	6.93349981	-0.379000008	200	0	0
-3.26900005	6.93349981	-0.337000012	200	0	0
-3.27099991	6.93349981	-0.319000006	200	0	0
-3.26600003	6.93359995	-0.354999989	200	0	0
-3.273	6.93359995	-0.330000013	200	0	0
-3.25699997	6.93359995	-0.458000004	200	0	0
-3.26799989	6.93349981	-0.437000006	200	0	0
-3.24699998	6.93349981	-0.469999999	200	0	0
-3.26600003	6.93359995	-0.414999992	200	0	0
-3.25300002	6.93359995	-0.465000004	200	0	0
-3.2650001	6.93359995	-0.423999995	200	0	0
-3.2579999	6.93359995	-0.448000014	200	0	0
-3.26999998	6.93359995	-0.43900001	200	0	0
-3.26099992	6.93359995	-0.400000006	200	0	0
-3.26200008	6.93359995	-0.361000001	200	0	0
-3.27099991	6.93359995	-0.379000008	200	0	0
-3.27099991	6.93359995	-0.388999999	200	0	0
-3.26999998	6.93370008	-0.409000009	200	0	0
-3.26300001	6.93380022	-0.361999989	200	0	0
-3.26900005	6.93370008	-0.326999992	200	0	0
-3.26999998	6.93370008	-0.388000011	200	0	0
-3.27200007	6.93370008	-0.338999987	200	0	0
-3.27600002	6.93370008	-0.384000003	200	0	0
-3.27099991	6.93359995	-0.319000006	200	0	0
-3.26300001	6.93370008	-0.351999998	200	0	0
-3.26999998	6.93370008	-0.368000001	200	0	0
-3.26900005	6.93359995	-0.337000012	200	0	0
-3.27800012	6.93370008	-0.314999998	200	0	0
-3.26900005	6.93370008	-0.317000002	200	0	0
-3.273	6.93380022	-0.379999995	200	0	0
-3.26999998	6.93380022	-0.317999989	200	0	0
-3.2650001	6.93380022	-0.354000002	200	0	0
-3.27099991	6.93380022	-0.328999996	200	0	0
-3.26999998	6.93380022	-0.338	200	0	0
-3.26200008	6.93370008	-0.411000013	200	0	0
-3.26999998	6.93380022	-0.388000011	200	0	0
-3.27200007	6.93370008	-0.430999994	200	0	0
-3.26600003	6.93370008	-0.43599999	200	0	0
-3.2579999	6.93370008	-0.448000014	200	0	0
-3.25500011	6.93370008	-0.456	200	0	0
-3.25900006	6.93370008	-0.469999999	200	0	0
-3.273	6.93380022	-0.411000013	200	0	0
-3.26399994	6.93390036	-0.402999997	200	0	0
-3.26799989	6.93390036	-0.326000005	200	0	0
-3.26600003	6.93380022	-0.414999992	200	0	0
-3.27200007	6.93390036	-0.389999986	200	0	0
-3.27200007	6.93390036	-0.340000004	200	0	0
-3.26999998	6.93390036	-0.377999991	200	0	0
-3.2650001	6.93390036	-0.352999985	200	0	0
-3.26300001	6.93390036	-0.361999989	200	0	0
-3.26999998	6.93380022	-0.43900001	200	0	0
-3.26399994	6.93380022	-0.423000008	200	0	0
-3.26999998	6.93390036	-0.317999989	200	0	0
-3.24799991	6.93380022	-0.470999986	200	0	0
-3.25200009	6.93380022	-0.453000009	200	0	0
-3.25900006	6.93380022	-0.449999988	200	0	0
-3.26399994	6.93390036	-0.423000008	200	0	0
-3.2650001	6.93390036	-0.414000005	200	0	0
-3.27200007	6.93409967	-0.330000013	200	0	0
-3.26200008	6.93400097	-0.361000001	200	0	0
-3.2650001	6.93400097	-0.352999985	200	0	0
-3.26999998	6.93400097	-0.317999989	200	0	0
-3.27200007	6.93400097	-0.338999987	200	0	0
-3.26900005	6.93400097	-0.326999992	200	0	0
-3.25300002	6.93390036	-0.465000004	200	0	0
-3.26099992	6.93390036	-0.460999995	200	0	0
-3.27099991	6.93400097	-0.439999998	200	0	0
-3.26999998	6.93400097	-0.377999991	200	0	0
-3.26799989	6.93400097	-0.386999995	200	0	0
-3.26399994	6.93390036	-0.453999996	200	0	0
-3.26799989	6.93400097	-0.426999986	200	0	0
-3.2650001	6.93400097	-0.414000005	200	0	0
-3.26900005	6.93400097	-0.407000005	200	0	0
-3.26900005	6.93390036	-0.437999994	200	0	0
-3.26399994	6.93400097	-0.453999996	200	0	0
-3.26799989	6.93409967	-0.416000009	200	0	0
-3.26399994	6.93409967	-0.402999997	200	0	0
-3.27200007	6.93409967	-0.389999986	200	0	0
-3.27099991	6.93409967	-0.338999987	200	0	0
-3.273	6.93409967	-0.379999995	200	0	0
-3.26300001	6.93409967	-0.351999998	200	0	0
-3.26300001	6.93409967	-0.361999989	200	0	0
-3.26999998	6.93409967	-0.317999989	200	0	0
-3.27200007	6.93419981	-0.338999987	200	0	0
-3.26900005	6.93419981	-0.326999992	200	0	0
-3.25500011	6.93409967	-0.465999991	200	0	0
-3.26799989	6.93409967	-0.426999986	200	0	0
-3.26600003	6.93409967	-0.43599999	200	0	0
-3.25500011	6.93409967	-0.456999987	200	0	0
-3.26099992	6.93409967	-0.451999992	200	0	0
-3.27699995	6.93419981	-0.393999994	200	0	0
-3.25999999	6.93419981	-0.409999996	200	0	0
-3.2650001	6.93419981	-0.354000002	200	0	0
-3.26399994	6.93419981	-0.402999997	200	0	0
-3.26600003	6.93419981	-0.363999993	200	0	0
-3.273	6.93419981	-0.379999995	200	0	0
-3.27399993	6.93419981	-0.432999998	200	0	0
-3.25399995	6.93419981	-0.465999991	200	0	0
-3.26799989	6.93419981	-0.437000006	200	0	0
-3.25099993	6.93419981	-0.453000009	200	0	0
-3.26099992	6.93419981	-0.451000005	200	0	0
-3.27200007	6.93429995	-0.439999998	200	0	0
-3.27099991	6.93419981	-0.319000006	200	0	0
-3.27200007	6.93429995	-0.319999993	200	0	0
-3.26399994	6.93429995	-0.352999985	200	0	0
-3.26999998	6.93429995	-0.328000009	200	0	0
-3.27399993	6.93440008	-0.39199999	200	0	0
-3.27099991	6.93429995	-0.42899999	200	0	0
-3.26699996	6.93429995	-0.36500001	200	0	0
-3.26200008	6.93429995	-0.411000013	200	0	0
-3.26600003	6.93429995	-0.374000013	200	0	0
-3.25900006	6.93429995	-0.398999989	200	0	0
-3.26799989	6.93429995	-0.386999995	200	0	0
-3.26300001	6.93429995	-0.453000009	200	0	0
-3.26399994	6.93429995	-0.463999987	200	0	0
-3.24799991	6.93429995	-0.470999986	200	0	0
-3.25699997	6.93429995	-0.467999995	200	0	0
-3.26600003	6.93440008	-0.435000002	200	0	0
-3.273	6.93440008	-0.32100001	200	0	0
-3.26699996	6.93429995	-0.335000008	200	0	0
-3.26999998	6.93440008	-0.328000009	200	0	0
-3.26300001	6.93440008	-0.361999989	200	0	0
-3.26300001	6.93440008	-0.351999998	200	0	0
-3.26999998	6.93440008	-0.42899999	200	0	0
-3.25699997	6.93440008	-0.467999995	200	0	0
-3.26099992	6.93440008	-0.451000005	200	0	0
-3.26099992	6.93440008	-0.462000012	200	0	0
-3.27399993	6.93440008	-0.312000006	200	0	0
-3.27099991	6.93440008	-0.338999987	200	0	0
-3.26099992	6.93440008	-0.409999996	200	0	0
-3.26300001	6.93440008	-0.40200001	200	0	0
-3.26799989	6.93440008	-0.375999987	200	0	0
-3.27399993	6.93450022	-0.32100001	200	0	0
-3.26600003	6.93450022	-0.38499999	200	0	0
-3.273	6.93450022	-0.330000013	200	0	0
-3.26999998	6.93450022	-0.377999991	200	0	0
-3.27600002	6.93450022	-0.342999995	200	0	0
-3.26399994	6.93450022	-0.363000005	200	0	0
-3.26300001	6.93450022	-0.351999998	200	0	0
-3.26600003	6.93450022	-0.425000012	200	0	0
-3.26099992	6.93450022	-0.430999994	200	0	0
-3.25500011	6.93450022	-0.44600001	200	0	0
-3.26399994	6.93450022	-0.463999987	200	0	0
-3.25500011	6.93450022	-0.465999991	200	0	0
-3.26900005	6.93450022	-0.407000005	200	0	0
-3.26399994	6.93450022	-0.412999988	200	0	0
-3.26799989	6.93460035	-0.365999997	200	0	0
-3.25900006	6.93460035	-0.449999988	200	0	0
-3.273	6.93460035	-0.379999995	200	0	0
-3.26699996	6.93460035	-0.43599999	200	0	0
-3.26799989	6.93460035	-0.386999995	200	0	0
-3.27099991	6.93460035	-0.42899999	200	0	0
-3.27099991	6.93460035	-0.419999987	200	0	0
-3.26900005	6.93460035	-0.407000005	200	0	0
-3.2750001	6.93469954	-0.323000014	200	0	0
-3.27999997	6.93469954	-0.397000015	200	0	0
-3.25900006	6.93469954	-0.398999989	200	0	0
-3.27399993	6.93469954	-0.331999987	200	0	0
-3.27200007	6.93469954	-0.340000004	200	0	0
-3.26999998	6.93469954	-0.377999991	200	0	0
-3.27399993	6.93460035	-0.32100001	200	0	0
-3.26600003	6.93469954	-0.354999989	200	0	0
-3.26600003	6.93469954	-0.363999993	200	0	0
-3.2750001	6.93460035	-0.331999987	200	0	0
-3.27399993	6.93460035	-0.340999991	200	0	0
-3.26399994	6.93460035	-0.352999985	200	0	0
-3.273	6.93469954	-0.421000004	200	0	0
-3.26900005	6.93479967	-0.337000012	200	0	0
-3.26799989	6.93469954	-0.426999986	200	0	0
-3.2579999	6.93460035	-0.469999999	200	0	0
-3.26300001	6.93460035	-0.463	200	0	0
-3.27200007	6.93469954	-0.441000015	200	0	0
-3.26600003	6.93479967	-0.363999993	200	0	0
-3.2650001	6.93469954	-0.455000013	200	0	0
-3.27399993	6.93479967	-0.432999998	200	0	0
-3.27600002	6.93479967	-0.384000003	200	0	0
-3.273	6.93479967	-0.391000003	200	0	0
-3.26699996	6.93479967	-0.416000009	200	0	0
-3.26699996	6.93479967	-0.405999988	200	0	0
-3.26300001	6.93479967	-0.351999998	200	0	0
-3.273	6.93479967	-0.331	200	0	0
-3.273	6.93479967	-0.32100001	200	0	0
-3.27200007	6.93489981	-0.340000004	200	0	0
-3.25500011	6.93469954	-0.467000008	200	0	0
-3.26399994	6.93479967	-0.463999987	200	0	0
-3.26699996	6.93479967	-0.456999987	200	0	0
-3.25999999	6.93499994	-0.358999997	200	0	0
-3.2650001	6.93499994	-0.352999985	200	0	0
-3.26699996	6.93489981	-0.375999987	200	0	0
-3.27200007	6.93499994	-0.340000004	200	0	0
-3.27800012	6.93499994	-0.324999988	200	0	0
-3.27399993	6.93499994	-0.331999987	200	0	0
-3.26600003	6.93489981	-0.363999993	200	0	0
-3.26799989	6.93489981	-0.356999993	200	0	0
-3.27200007	6.93489981	-0.330000013	200	0	0
-3.27699995	6.93489981	-0.395000011	200	0	0
-3.26900005	6.93489981	-0.407000005	200	0	0
-3.2579999	6.93489981	-0.469999999	200	0	0
-3.26799989	6.93489981	-0.467999995	200	0	0
-3.26999998	6.93489981	-0.418000013	200	0	0
-3.26799989	6.93489981	-0.458000004	200	0	0
-3.27099991	6.93489981	-0.42899999	200	0	0
-3.27800012	6.93489981	-0.44600001	200	0	0
-3.27099991	6.93499994	-0.379000008	200	0	0
-3.26600003	6.93499994	-0.405000001	200	0	0
-3.2809999	6.93499994	-0.449000001	200	0	0
-3.27999997	6.93499994	-0.426999986	200	0	0
-3.273	6.93510008	-0.379999995	200	0	0
-3.26600003	6.93510008	-0.363999993	200	0	0
-3.2650001	6.93510008	-0.354000002	200	0	0
-3.27699995	6.93510008	-0.333999991	200	0	0
-3.27600002	6.93510008	-0.342999995	200	0	0
-3.27200007	6.93499994	-0.460999995	200	0	0
-3.26699996	6.93499994	-0.467000008	200	0	0
-3.26200008	6.93499994	-0.47299999	200	0	0
-3.26699996	6.93510008	-0.43599999	200	0	0
-3.27699995	6.93510008	-0.435000002	200	0	0
-3.26999998	6.93510008	-0.407999992	200	0	0
-3.26999998	6.93510008	-0.388000011	200	0	0
-3.26900005	6.93510008	-0.469000012	200	0	0
-3.27200007	6.93510008	-0.460999995	200	0	0
-3.2650001	6.93510008	-0.476000011	200	0	0
-3.26200008	6.93520021	-0.47299999	200	0	0
-3.273	6.93520021	-0.47299999	200	0	0
-3.27099991	6.93520021	-0.409000009	200	0	0
-3.27099991	6.93520021	-0.419	200	0	0
-3.26699996	6.93520021	-0.456	200	0	0
-3.27999997	6.93520021	-0.437999994	200	0	0
-3.2750001	6.93520021	-0.442999989	200	0	0
-3.26699996	6.93520021	-0.354999989	200	0	0
-3.27200007	6.93520021	-0.338999987	200	0	0
-3.27600002	6.93520021	-0.333999991	200	0	0
-3.27600002	6.93520021	-0.384000003	200	0	0
-3.26399994	6.93520021	-0.382999986	200	0	0
-3.26900005	6.93520021	-0.367000014	200	0	0
-3.26699996	6.93530083	-0.354999989	200	0	0
-3.27699995	6.93530083	-0.423999995	200	0	0
-3.273	6.93530083	-0.411000013	200	0	0
-3.26999998	6.93530083	-0.377999991	200	0	0
-3.27600002	6.93530083	-0.393000007	200	0	0
-3.26699996	6.93530083	-0.467000008	200	0	0
-3.27200007	6.93530083	-0.462000012	200	0	0
-3.27699995	6.93530083	-0.444999993	200	0	0
-3.27800012	6.93530083	-0.43599999	200	0	0
-3.27699995	6.93530083	-0.344000012	200	0	0
-3.27699995	6.93530083	-0.333999991	200	0	0
-3.27099991	6.93540001	-0.35800001	200	0	0
-3.27800012	6.93540001	-0.344999999	200	0	0
-3.27399993	6.93540001	-0.331999987	200	0	0
-3.27999997	6.93540001	-0.326999992	200	0	0
-3.26600003	6.93549967	-0.38499999	200	0	0
-3.26799989	6.93540001	-0.426999986	200	0	0
-3.27399993	6.93540001	-0.421999991	200	0	0
-3.28299999	6.93540001	-0.400000006	200	0	0
-3.26900005	6.93540001	-0.407000005	200	0	0
-3.26600003	6.93540001	-0.36500001	200	0	0
-3.27999997	6.93540001	-0.386999995	200	0	0
-3.26699996	6.93540001	-0.467000008	200	0	0
-3.27099991	6.93540001	-0.460000008	200	0	0
-3.27699995	6.93540001	-0.44600001	200	0	0
-3.27099991	6.93549967	-0.409000009	200	0	0
-3.27699995	6.93549967	-0.333999991	200	0	0
-3.27800012	6.93549967	-0.344999999	200	0	0
-3.27699995	6.93549967	-0.384000003	200	0	0
-3.26799989	6.93549967	-0.356999993	200	0	0
-3.26600003	6.93549967	-0.363999993	200	0	0
-3.26699996	6.93549967	-0.416000009	200	0	0
-3.28299999	6.93549967	-0.441000015	200	0	0
-3.2809999	6.93549967	-0.449000001	200	0	0
-3.2579999	6.93549967	-0.449000001	200	0	0
-3.27200007	6.9355998	-0.360000014	200	0	0
-3.27800012	6.9355998	-0.344999999	200	0	0
-3.27800012	6.9355998	-0.335000008	200	0	0
-3.27699995	6.9355998	-0.435000002	200	0	0
-3.26999998	6.9355998	-0.368000001	200	0	0
-3.27399993	6.9355998	-0.421999991	200	0	0
-3.273	6.9355998	-0.411000013	200	0	0
-3.27900004	6.9355998	-0.386000007	200	0	0
-3.27699995	6.9355998	-0.395000011	200	0	0
-3.27099991	6.9355998	-0.460000008	200	0	0
-3.273	6.9355998	-0.442000002	200	0	0
-3.27200007	6.93569994	-0.368999988	200	0	0
-3.26999998	6.93569994	-0.35800001	200	0	0
-3.27699995	6.93569994	-0.344000012	200	0	0
-3.27900004	6.93569994	-0.335999995	200	0	0
-3.27200007	6.9355998	-0.472000003	200	0	0
-3.27999997	6.93569994	-0.397000015	200	0	0
-3.28200006	6.93569994	-0.388999999	200	0	0
-3.26200008	6.93569994	-0.463	200	0	0
-3.26399994	6.93569994	-0.453999996	200	0	0
-3.27699995	6.93569994	-0.414999992	200	0	0
-3.27099991	6.93569994	-0.419	200	0	0
-3.2750001	6.93569994	-0.444000006	200	0	0
-3.27399993	6.93569994	-0.432999998	200	0	0
-3.27200007	6.93580008	-0.368999988	200	0	0
-3.27099991	6.93580008	-0.358999997	200	0	0
-3.27900004	6.93580008	-0.335999995	200	0	0
-3.27800012	6.93580008	-0.344999999	200	0	0
-3.27999997	6.93590069	-0.397000015	200	0	0
-3.27600002	6.93580008	-0.412999988	200	0	0
-3.27999997	6.93590069	-0.326999992	200	0	0
-3.27600002	6.93590069	-0.333999991	200	0	0
-3.27900004	6.93590069	-0.345999986	200	0	0
-3.26999998	6.93590069	-0.377999991	200	0	0
-3.27099991	6.93590069	-0.368999988	200	0	0
-3.27999997	6.93580008	-0.397000015	200	0	0
-3.27099991	6.93590069	-0.35800001	200	0	0
-3.27900004	6.93580008	-0.386000007	200	0	0
-3.27099991	6.93580008	-0.42899999	200	0	0
-3.2750001	6.93580008	-0.423000008	200	0	0
-3.27200007	6.93580008	-0.441000015	200	0	0
-3.26399994	6.93580008	-0.453999996	200	0	0
-3.26200008	6.93580008	-0.463	200	0	0
-3.2650001	6.93590069	-0.414000005	200	0	0
-3.2750001	6.93590069	-0.412999988	200	0	0
-3.26999998	6.93590069	-0.43900001	200	0	0
-3.27099991	6.93590069	-0.430000007	200	0	0
-3.2579999	6.93590069	-0.458999991	200	0	0
-3.26399994	6.93590069	-0.453999996	200	0	0
-3.26900005	6.93599987	-0.418000013	200	0	0
-3.27699995	6.93599987	-0.344000012	200	0	0
-3.273	6.93599987	-0.411000013	200	0	0
-3.27099991	6.93599987	-0.35800001	200	0	0
-3.26900005	6.93599987	-0.367000014	200	0	0
-3.27600002	6.93599987	-0.393000007	200	0	0
-3.2750001	6.93599987	-0.381999999	200	0	0
-3.27900004	6.93599987	-0.335999995	200	0	0
-3.27699995	6.93610001	-0.344000012	200	0	0
-3.2579999	6.93599987	-0.469999999	200	0	0
-3.26399994	6.93599987	-0.465000004	200	0	0
-3.26300001	6.93599987	-0.453000009	200	0	0
-3.27399993	6.93599987	-0.442000002	200	0	0
-3.273	6.93599987	-0.430999994	200	0	0
-3.27699995	6.93610001	-0.435000002	200	0	0
-3.26799989	6.93610001	-0.467999995	200	0	0
-3.27399993	6.93610001	-0.442000002	200	0	0
-3.26999998	6.93610001	-0.460000008	200	0	0
-3.26999998	6.93610001	-0.367000014	200	0	0
-3.27999997	6.93610001	-0.386000007	200	0	0
-3.27999997	6.93610001	-0.397000015	200	0	0
-3.26799989	6.93610001	-0.416999996	200	0	0
-3.26600003	6.93610001	-0.405000001	200	0	0
-3.26799989	6.93620014	-0.356000006	200	0	0
-3.28200006	6.93610001	-0.328999996	200	0	0
-3.27900004	6.93610001	-0.335999995	200	0	0
-3.26999998	6.93610001	-0.35800001	200	0	0
-3.26999998	6.93620014	-0.368000001	200	0	0
-3.26900005	6.93620014	-0.386999995	200	0	0
-3.27099991	6.93620014	-0.379000008	200	0	0
-3.27900004	6.93620014	-0.335999995	200	0	0
-3.2750001	6.93620014	-0.342000008	200	0	0
-3.27699995	6.93630028	-0.423999995	200	0	0
-3.26399994	6.93620014	-0.453999996	200	0	0
-3.2650001	6.93620014	-0.402999997	200	0	0
-3.27800012	6.93620014	-0.44600001	200	0	0
-3.26799989	6.93620014	-0.416999996	200	0	0
-3.273	6.93620014	-0.430999994	200	0	0
-3.27600002	6.93630028	-0.393000007	200	0	0
-3.27200007	6.93620014	-0.470999986	200	0	0
-3.27099991	6.93630028	-0.460000008	200	0	0
-3.27699995	6.93630028	-0.444999993	200	0	0
-3.27900004	6.93630028	-0.437000006	200	0	0
-3.27699995	6.93630028	-0.344000012	200	0	0
-3.27699995	6.93630028	-0.384000003	200	0	0
-3.27999997	6.93630028	-0.337000012	200	0	0
-3.26300001	6.93630028	-0.361999989	200	0	0
-3.27200007	6.93630028	-0.360000014	200	0	0
-3.273	6.93639994	-0.421000004	200	0	0
-3.27399993	6.93639994	-0.412	200	0	0
-3.273	6.93639994	-0.360000014	200	0	0
-3.27200007	6.93639994	-0.368999988	200	0	0
-3.27699995	6.93639994	-0.393999994	200	0	0
-3.27800012	6.93639994	-0.38499999	200	0	0
-3.26699996	6.93630028	-0.405999988	200	0	0
-3.26999998	6.93630028	-0.469999999	200	0	0
-3.26099992	6.93630028	-0.472000003	200	0	0
-3.27699995	6.93639994	-0.444999993	200	0	0
-3.27699995	6.93639994	-0.435000002	200	0	0
-3.27800012	6.93639994	-0.324999988	200	0	0
-3.27399993	6.93639994	-0.340999991	200	0	0
-3.27600002	6.93639994	-0.333000004	200	0	0
-3.273	6.93639994	-0.462000012	200	0	0
-3.27200007	6.93659973	-0.360000014	200	0	0
-3.28399992	6.93650103	-0.400000006	200	0	0
-3.27900004	6.93650103	-0.386000007	200	0	0
-3.27800012	6.93650103	-0.335000008	200	0	0
-3.27800012	6.93650103	-0.344999999	200	0	0
-3.26900005	6.93650103	-0.367000014	200	0	0
-3.273	6.93650103	-0.360000014	200	0	0
-3.27900004	6.93659973	-0.335999995	200	0	0
-3.27399993	6.93650103	-0.474000007	200	0	0
-3.27399993	6.93650103	-0.463	200	0	0
-3.27699995	6.93650103	-0.414999992	200	0	0
-3.27099991	6.93650103	-0.419999987	200	0	0
-3.27800012	6.93650103	-0.44600001	200	0	0
-3.27699995	6.93650103	-0.435000002	200	0	0
-3.27099991	6.93659973	-0.368999988	200	0	0
-3.273	6.93659973	-0.421000004	200	0	0
-3.27800012	6.93659973	-0.395000011	200	0	0
-3.27099991	6.93669987	-0.368999988	200	0	0
-3.27600002	6.93659973	-0.342999995	200	0	0
-3.27600002	6.93659973	-0.384000003	200	0	0
-3.27800012	6.93669987	-0.344999999	200	0	0
-3.27800012	6.93669987	-0.335000008	200	0	0
-3.27600002	6.93659973	-0.412999988	200	0	0
-3.28299999	6.93659973	-0.441000015	200	0	0
-3.27999997	6.93659973	-0.448000014	200	0	0
-3.26799989	6.93659973	-0.458000004	200	0	0
-3.27099991	6.93669987	-0.419999987	200	0	0
-3.26900005	6.93669987	-0.407000005	200	0	0
-3.26900005	6.93669987	-0.386999995	200	0	0
-3.27600002	6.93669987	-0.384000003	200	0	0
-3.27200007	6.9368	-0.360000014	200	0	0
-3.27900004	6.9368	-0.335999995	200	0	0
-3.27900004	6.9368	-0.345999986	200	0	0
-3.26999998	6.9368	-0.43900001	200	0	0
-3.27600002	6.9368	-0.435000002	200	0	0
-3.28299999	6.93669987	-0.449999988	200	0	0
-3.26900005	6.9368	-0.367000014	200	0	0
-3.27600002	6.9368	-0.423999995	200	0	0
-3.26999998	6.9368	-0.409000009	200	0	0
-3.27999997	6.9368	-0.386999995	200	0	0
-3.27900004	6.9368	-0.395999998	200	0	0
-3.27800012	6.93669987	-0.43599999	200	0	0
-3.27699995	6.93690014	-0.333999991	200	0	0
-3.27200007	6.93690014	-0.368999988	200	0	0
-3.27200007	6.93690014	-0.360000014	200	0	0
-3.26900005	6.93669987	-0.469000012	200	0	0
-3.26600003	6.93669987	-0.456	200	0	0
-3.26600003	6.9368	-0.476000011	200	0	0
-3.26999998	6.9368	-0.469999999	200	0	0
-3.27399993	6.9368	-0.463999987	200	0	0
-3.2809999	6.93690014	-0.449000001	200	0	0
-3.27999997	6.93690014	-0.386999995	200	0	0
-3.27699995	6.93690014	-0.393999994	200	0	0
-3.27999997	6.93690014	-0.437999994	200	0	0
-3.28200006	6.93690014	-0.419	200	0	0
-3.273	6.93690014	-0.421000004	200	0	0
-3.27399993	6.93690014	-0.340999991	200	0	0
-3.27399993	6.93700027	-0.381999999	200	0	0
-3.26699996	6.93700027	-0.36500001	200	0	0
-3.273	6.93700027	-0.360000014	200	0	0
-3.27999997	6.93700027	-0.337000012	200	0	0
-3.27800012	6.93700027	-0.344999999	200	0	0
-3.27399993	6.93690014	-0.463	200	0	0
-3.26699996	6.93690014	-0.477999985	200	0	0
-3.26300001	6.93700027	-0.463999987	200	0	0
-3.26999998	6.93700027	-0.409000009	200	0	0
-3.27099991	6.93700027	-0.460999995	200	0	0
-3.26999998	6.93700027	-0.418000013	200	0	0
-3.27399993	6.93700027	-0.442999989	200	0	0
-3.27600002	6.93700027	-0.433999985	200	0	0
-3.27099991	6.93700027	-0.388999999	200	0	0
-3.26799989	6.93719959	-0.356999993	200	0	0
-3.27699995	6.93710041	-0.393999994	200	0	0
-3.27099991	6.93710041	-0.379000008	200	0	0
-3.27999997	6.93710041	-0.337000012	200	0	0
-3.27999997	6.93710041	-0.345999986	200	0	0
-3.27099991	6.93710041	-0.368999988	200	0	0
-3.27699995	6.93710041	-0.363999993	200	0	0
-3.27900004	6.93710041	-0.425999999	200	0	0
-3.28200006	6.93710041	-0.419	200	0	0
-3.27399993	6.93719959	-0.340999991	200	0	0
-3.27699995	6.93719959	-0.384000003	200	0	0
-3.27099991	6.93719959	-0.460999995	200	0	0
-3.27099991	6.93719959	-0.388999999	200	0	0
-3.2809999	6.93719959	-0.449000001	200	0	0
-3.26799989	6.93710041	-0.467999995	200	0	0
-3.28200006	6.93719959	-0.43900001	200	0	0
-3.273	6.93719959	-0.411000013	200	0	0
-3.26799989	6.93719959	-0.416999996	200	0	0
-3.2750001	6.93710041	-0.463999987	200	0	0
-3.27999997	6.93710041	-0.448000014	200	0	0
-3.27900004	6.93710041	-0.437000006	200	0	0
-3.27200007	6.93719959	-0.472000003	200	0	0
-3.27600002	6.93719959	-0.333999991	200	0	0
-3.27099991	6.93729973	-0.379000008	200	0	0
-3.27399993	6.93729973	-0.463	200	0	0
-3.27900004	6.93729973	-0.446999997	200	0	0
-3.28299999	6.93729973	-0.398999989	200	0	0
-3.26600003	6.93729973	-0.405000001	200	0	0
-3.27399993	6.93729973	-0.432999998	200	0	0
-3.26900005	6.93729973	-0.418000013	200	0	0
-3.27600002	6.93729973	-0.333999991	200	0	0
-3.27399993	6.93729973	-0.342000008	200	0	0
-3.26600003	6.93729973	-0.354999989	200	0	0
-3.26900005	6.93729973	-0.367000014	200	0	0
-3.27800012	6.93739986	-0.44600001	200	0	0
-3.27600002	6.93729973	-0.476000011	200	0	0
-3.26999998	6.93739986	-0.418000013	200	0	0
-3.27699995	6.93739986	-0.414999992	200	0	0
-3.2750001	6.9375	-0.381999999	200	0	0
-3.2750001	6.9375	-0.342999995	200	0	0
-3.26900005	6.9375	-0.367000014	200	0	0
-3.26699996	6.9375	-0.354999989	200	0	0
-3.2809999	6.93739986	-0.398000002	200	0	0
-3.273	6.93739986	-0.379999995	200	0	0
-3.27800012	6.93739986	-0.344999999	200	0	0
-3.26799989	6.93739986	-0.365999997	200	0	0
-3.26900005	6.93739986	-0.356999993	200	0	0
-3.28600001	6.9375	-0.40200001	200	0	0
-3.28600001	6.93739986	-0.442999989	200	0	0
-3.27699995	6.9375	-0.476000011	200	0	0
-3.27999997	6.93739986	-0.469000012	200	0	0
-3.27699995	6.93739986	-0.476999998	200	0	0
-3.27200007	6.9375	-0.409999996	200	0	0
-3.28399992	6.9375	-0.451999992	200	0	0
-3.28399992	6.9375	-0.441000015	200	0	0
-3.27600002	6.9375	-0.423999995	200	0	0
-3.273	6.93760014	-0.411000013	200	0	0
-3.2750001	6.93760014	-0.333000004	200	0	0
-3.27399993	6.93760014	-0.340999991	200	0	0
-3.27399993	6.93760014	-0.391000003	200	0	0
-3.26600003	6.93760014	-0.354999989	200	0	0
-3.27399993	6.93760014	-0.381999999	200	0	0
-3.26600003	6.93760014	-0.36500001	200	0	0
-3.28200006	6.9375	-0.470999986	200	0	0
-3.28600001	6.93760014	-0.453999996	200	0	0
-3.27900004	6.93760014	-0.437000006	200	0	0
-3.27600002	6.93760014	-0.423999995	200	0	0
-3.28500009	6.93770027	-0.400999993	200	0	0
-3.28500009	6.93770027	-0.391000003	200	0	0
-3.27600002	6.93770027	-0.333999991	200	0	0
-3.27399993	6.93770027	-0.342000008	200	0	0
-3.26600003	6.93770027	-0.363999993	200	0	0
-3.26900005	6.93770027	-0.356999993	200	0	0
-3.27900004	6.93770027	-0.477999985	200	0	0
-3.27699995	6.93770027	-0.465999991	200	0	0
-3.27600002	6.93770027	-0.414000005	200	0	0
-3.28900003	6.93770027	-0.44600001	200	0	0
-3.27399993	6.93770027	-0.421999991	200	0	0
-3.2809999	6.93770027	-0.449000001	200	0	0
-3.27800012	6.93760014	-0.467000008	200	0	0
-3.26799989	6.93780088	-0.365999997	200	0	0
-3.26600003	6.93780088	-0.354999989	200	0	0
-3.273	6.93780088	-0.340999991	200	0	0
-3.2750001	6.93780088	-0.393000007	200	0	0
-3.27900004	6.93780088	-0.386000007	200	0	0
-3.27699995	6.93780088	-0.414999992	200	0	0
-3.28600001	6.93780088	-0.474000007	200	0	0
-3.28699994	6.93780088	-0.433999985	200	0	0
-3.29099989	6.93780088	-0.448000014	200	0	0
-3.28600001	6.93780088	-0.453999996	200	0	0
-3.27900004	6.93789959	-0.386000007	200	0	0
-3.27699995	6.93789959	-0.395000011	200	0	0
-3.27800012	6.93789959	-0.416000009	200	0	0
-3.26900005	6.93789959	-0.356999993	200	0	0
-3.26900005	6.93789959	-0.367000014	200	0	0
-3.27699995	6.93799973	-0.344000012	200	0	0
-3.28600001	6.93789959	-0.432999998	200	0	0
-3.28699994	6.93789959	-0.444000006	200	0	0
-3.28999996	6.93789959	-0.456999987	200	0	0
-3.27999997	6.93789959	-0.479000002	200	0	0
-3.27999997	6.93789959	-0.469000012	200	0	0
-3.26999998	6.93799973	-0.409000009	200	0	0
-3.26699996	6.93799973	-0.416000009	200	0	0
-3.27699995	6.93809986	-0.393999994	200	0	0
-3.27600002	6.93809986	-0.382999986	200	0	0
-3.27600002	6.93809986	-0.342999995	200	0	0
-3.2809999	6.93799973	-0.398000002	200	0	0
-3.26999998	6.93809986	-0.368000001	200	0	0
-3.26999998	6.93809986	-0.35800001	200	0	0
-3.27900004	6.93799973	-0.386000007	200	0	0
-3.27699995	6.93799973	-0.333999991	200	0	0
-3.26900005	6.93799973	-0.367000014	200	0	0
-3.27099991	6.93799973	-0.358999997	200	0	0
-3.27999997	6.93799973	-0.469000012	200	0	0
-3.28699994	6.93799973	-0.453999996	200	0	0
-3.28800011	6.93799973	-0.444999993	200	0	0
-3.27600002	6.93809986	-0.423999995	200	0	0
-3.273	6.93809986	-0.411000013	200	0	0
-3.2809999	6.93809986	-0.43900001	200	0	0
-3.27399993	6.93809986	-0.474000007	200	0	0
-3.27999997	6.93809986	-0.469000012	200	0	0
-3.27900004	6.93799973	-0.477999985	200	0	0
-3.27399993	6.9382	-0.340999991	200	0	0
-3.26900005	6.9382	-0.356999993	200	0	0
-3.28399992	6.9382	-0.389999986	200	0	0
-3.26900005	6.9382	-0.367000014	200	0	0
-3.27099991	6.9382	-0.388999999	200	0	0
-3.28399992	6.9382	-0.421000004	200	0	0
-3.27699995	6.9382	-0.425000012	200	0	0
-3.28399992	6.9382	-0.441000015	200	0	0
-3.27699995	6.9382	-0.465999991	200	0	0
-3.26799989	6.93830013	-0.407000005	200	0	0
-3.27399993	6.93830013	-0.421999991	200	0	0
-3.27800012	6.93830013	-0.467000008	200	0	0
-3.273	6.93830013	-0.430999994	200	0	0
-3.2809999	6.93830013	-0.449000001	200	0	0
-3.273	6.93830013	-0.379999995	200	0	0
-3.27699995	6.93830013	-0.395000011	200	0	0
-3.273	6.93840075	-0.421000004	200	0	0
-3.27699995	6.93840075	-0.344000012	200	0	0
-3.27399993	6.93840075	-0.412	200	0	0
-3.27200007	6.93840075	-0.360000014	200	0	0
-3.2650001	6.93840075	-0.363999993	200	0	0
-3.27999997	6.93840075	-0.397000015	200	0	0
-3.27600002	6.93840075	-0.384000003	200	0	0
-3.27600002	6.93830013	-0.342999995	200	0	0
-3.26699996	6.93830013	-0.354999989	200	0	0
-3.27200007	6.93830013	-0.368999988	200	0	0
-3.27900004	6.93840075	-0.335999995	200	0	0
-3.26999998	6.93840075	-0.42899999	200	0	0
-3.2750001	6.93840075	-0.444000006	200	0	0
-3.27200007	6.93849993	-0.368999988	200	0	0
-3.27600002	6.93849993	-0.444000006	200	0	0
-3.27800012	6.93849993	-0.384000003	200	0	0
-3.27099991	6.93849993	-0.42899999	200	0	0
-3.27800012	6.93849993	-0.395000011	200	0	0
-3.26799989	6.93849993	-0.416000009	200	0	0
-3.26999998	6.93849993	-0.407999992	200	0	0
-3.26999998	6.93849993	-0.356999993	200	0	0
-3.27900004	6.93849993	-0.344999999	200	0	0
-3.2809999	6.93849993	-0.337000012	200	0	0
