-3.74799991	6.96479988	-0.252999991	200	0	0
-3.73200011	6.96570015	-0.293000013	200	0	0
-3.72900009	6.96549988	-0.319999993	200	0	0
-3.727	6.96570015	-0.218999997	200	0	0
-3.73000002	6.96530104	-0.171000004	200	0	0
-3.727	6.96539974	-0.179000005	200	0	0
-3.73399997	6.96530104	-0.335000008	200	0	0
-3.73000002	6.96560001	-0.201000005	200	0	0
-3.72799993	6.96570015	-0.280000001	200	0	0
-3.73300004	6.96560001	-0.303000003	200	0	0
-3.72799993	6.96570015	-0.229000002	200	0	0
-3.73099995	6.96549988	-0.192000002	200	0	0
-3.73000002	6.96570015	-0.270999998	200	0	0
-3.73000002	6.96539974	-0.321999997	200	0	0
-3.73000002	6.96520042	-0.171000004	200	0	0
-3.73000002	6.96570015	-0.240999997	200	0	0
-3.73200011	6.96570015	-0.252000004	200	0	0
-3.7349999	6.96560001	-0.294999987	200	0	0
-3.73000002	6.96530104	-0.180999994	200	0	0
-3.727	6.96560001	-0.218999997	200	0	0
-3.73099995	6.96549988	-0.202000007	200	0	0
-3.7349999	6.96549988	-0.305000007	200	0	0
-3.73099995	6.96530104	-0.321999997	200	0	0
-3.72799993	6.96560001	-0.280000001	200	0	0
-3.73300004	6.96510029	-0.172999993	200	0	0
-3.72600007	6.96560001	-0.228	200	0	0
-3.73300004	6.96539974	-0.193000004	200	0	0
-3.72900009	6.96520042	-0.180000007	200	0	0
-3.73000002	6.96560001	-0.270999998	200	0	0
-3.7349999	6.96549988	-0.294999987	200	0	0
-3.73099995	6.96560001	-0.252000004	200	0	0
-3.7349999	6.96560001	-0.244000003	200	0	0
-3.73099995	6.96539974	-0.202000007	200	0	0
-3.7349999	6.96539974	-0.305000007	200	0	0
-3.72900009	6.96549988	-0.219999999	200	0	0
-3.73200011	6.96510029	-0.181999996	200	0	0
-3.7349999	6.96530104	-0.194999993	200	0	0
-3.72900009	6.96549988	-0.280000001	200	0	0
-3.72900009	6.96549988	-0.230000004	200	0	0
-3.72900009	6.96549988	-0.270000011	200	0	0
-3.73799992	6.96530104	-0.307000011	200	0	0
-3.73399997	6.96539974	-0.294	200	0	0
-3.73300004	6.96530104	-0.202999994	200	0	0
-3.73300004	6.96549988	-0.243000001	200	0	0
-3.73399997	6.96549988	-0.254000008	200	0	0
-3.73000002	6.96539974	-0.219999999	200	0	0
-3.73699999	6.96520042	-0.195999995	200	0	0
-3.72799993	6.96539974	-0.280000001	200	0	0
-3.72799993	6.96539974	-0.229000002	200	0	0
-3.73600006	6.96530104	-0.294999987	200	0	0
-3.73699999	6.96510029	-0.195999995	200	0	0
-3.73099995	6.96539974	-0.270999998	200	0	0
-3.7190001	6.96520042	-0.291999996	200	0	0
-3.7349999	6.96539974	-0.244000003	200	0	0
-3.73900008	6.96520042	-0.207000002	200	0	0
-3.73399997	6.96539974	-0.254000008	200	0	0
-3.73200011	6.96530104	-0.222000003	200	0	0
-3.73200011	6.96530104	-0.282000005	200	0	0
-3.7349999	6.96520042	-0.294	200	0	0
-3.73000002	6.96530104	-0.230000004	200	0	0
-3.73099995	6.96530104	-0.270999998	200	0	0
-3.74000001	6.96510029	-0.208000004	200	0	0
-3.73200011	6.96520042	-0.222000003	200	0	0
-3.7349999	6.96530104	-0.254000008	200	0	0
-3.73099995	6.96520042	-0.280999988	200	0	0
-3.73799992	6.96530104	-0.246000007	200	0	0
-3.73099995	6.96520042	-0.231000006	200	0	0
-3.73399997	6.96520042	-0.273000002	200	0	0
-3.73699999	6.96520042	-0.245000005	200	0	0
-3.73600006	6.96520042	-0.254999995	200	0	0
-3.74799991	6.96479988	-0.252999991	200	0	0
-3.72399998	6.96619987	-0.379000008	200	0	0
-3.73699999	6.96539974	-0.388000011	200	0	0
-3.72199988	6.96630001	-0.215000004	200	0	0
-3.72600007	6.96650076	-0.349999994	200	0	0
-3.72799993	6.9659996	-0.200000003	200	0	0
-3.7249999	6.96650076	-0.238000005	200	0	0
-3.7249999	6.96630001	-0.368999988	200	0	0
-3.72099996	6.96659994	-0.324999988	200	0	0
-3.7249999	6.96609974	-0.379000008	200	0	0
-3.72300005	6.96659994	-0.266000003	200	0	0
-3.72799993	6.96640015	-0.230000004	200	0	0
-3.72300005	6.96659994	-0.316000015	200	0	0
-3.73200011	6.9659009	-0.202000007	200	0	0
-3.73099995	6.96549988	-0.384000003	200	0	0
-3.72900009	6.96570015	-0.200000003	200	0	0
-3.72099996	6.96659994	-0.275000006	200	0	0
-3.72300005	6.96619987	-0.216000006	200	0	0
-3.7249999	6.96650076	-0.338	200	0	0
-3.73099995	6.96580029	-0.202000007	200	0	0
-3.727	6.96650076	-0.248999998	200	0	0
-3.72399998	6.9659996	-0.379000008	200	0	0
-3.72900009	6.9659009	-0.381999999	200	0	0
-3.72900009	6.96640015	-0.351000011	200	0	0
-3.72399998	6.96659994	-0.296999991	200	0	0
-3.72600007	6.96659994	-0.287999988	200	0	0
-3.72399998	6.96630001	-0.225999996	200	0	0
-3.73000002	6.96570015	-0.382999986	200	0	0
-3.72900009	6.96560001	-0.381999999	200	0	0
-3.72600007	6.96640015	-0.238000005	200	0	0
-3.72099996	6.96609974	-0.214000002	200	0	0
-3.72099996	6.96619987	-0.365999997	200	0	0
-3.72799993	6.96580029	-0.381000012	200	0	0
-3.72300005	6.96650076	-0.326000005	200	0	0
-3.73000002	6.96640015	-0.342000008	200	0	0
-3.72399998	6.96609974	-0.368000001	200	0	0
-3.72300005	6.96650076	-0.266000003	200	0	0
-3.72900009	6.96539974	-0.372000009	200	0	0
-3.72300005	6.96619987	-0.225999996	200	0	0
-3.72399998	6.96650076	-0.317000002	200	0	0
-3.72799993	6.96630001	-0.351000011	200	0	0
-3.72000003	6.96650076	-0.273999989	200	0	0
-3.72600007	6.9659996	-0.370000005	200	0	0
-3.72799993	6.96640015	-0.248999998	200	0	0
-3.72600007	6.96630001	-0.238000005	200	0	0
-3.72900009	6.96549988	-0.372000009	200	0	0
-3.72600007	6.9659996	-0.217999995	200	0	0
-3.727	6.96650076	-0.298999995	200	0	0
-3.72799993	6.96650076	-0.289999992	200	0	0
-3.72600007	6.9659009	-0.370000005	200	0	0
-3.72900009	6.96580029	-0.372000009	200	0	0
-3.72900009	6.96560001	-0.372000009	200	0	0
-3.72099996	6.96609974	-0.224999994	200	0	0
-3.72900009	6.96570015	-0.372000009	200	0	0
-3.7249999	6.9659009	-0.217999995	200	0	0
-3.72300005	6.96640015	-0.326000005	200	0	0
-3.73000002	6.96630001	-0.342000008	200	0	0
-3.73900008	6.96530104	-0.358999997	200	0	0
-3.72900009	6.96619987	-0.351000011	200	0	0
-3.72300005	6.96640015	-0.266000003	200	0	0
-3.72799993	6.96580029	-0.218999997	200	0	0
-3.72199988	6.96640015	-0.316000015	200	0	0
-3.72799993	6.96619987	-0.238999993	200	0	0
-3.72099996	6.96640015	-0.273999989	200	0	0
-3.72900009	6.96630001	-0.250999987	200	0	0
-3.73099995	6.96609974	-0.352999985	200	0	0
-3.72600007	6.9659996	-0.228	200	0	0
-3.727	6.96640015	-0.298999995	200	0	0
-3.72399998	6.9659009	-0.225999996	200	0	0
-3.72900009	6.96640015	-0.291000009	200	0	0
-3.7349999	6.96539974	-0.356000006	200	0	0
-3.72399998	6.96630001	-0.326999992	200	0	0
-3.72900009	6.96619987	-0.340999991	200	0	0
-3.727	6.96609974	-0.238999993	200	0	0
-3.73099995	6.9659996	-0.352999985	200	0	0
-3.72199988	6.96630001	-0.264999986	200	0	0
-3.727	6.96619987	-0.248999998	200	0	0
-3.73600006	6.96530104	-0.345999986	200	0	0
-3.7349999	6.96549988	-0.356000006	200	0	0
-3.72399998	6.96630001	-0.317000002	200	0	0
-3.727	6.96580029	-0.229000002	200	0	0
-3.73300004	6.9659009	-0.354000002	200	0	0
-3.7349999	6.96580029	-0.356000006	200	0	0
-3.7349999	6.96560001	-0.356000006	200	0	0
-3.72199988	6.96630001	-0.275000006	200	0	0
-3.73000002	6.96609974	-0.342000008	200	0	0
-3.73699999	6.96539974	-0.347000003	200	0	0
-3.72799993	6.9659996	-0.238999993	200	0	0
-3.7249999	6.96619987	-0.328000009	200	0	0
-3.73200011	6.96570015	-0.354000002	200	0	0
-3.727	6.96630001	-0.298999995	200	0	0
-3.72600007	6.96630001	-0.287999988	200	0	0
-3.72600007	6.96609974	-0.247999996	200	0	0
-3.73600006	6.96549988	-0.347000003	200	0	0
-3.72300005	6.96619987	-0.266000003	200	0	0
-3.73099995	6.9659996	-0.342000008	200	0	0
-3.72600007	6.96619987	-0.319000006	200	0	0
-3.73399997	6.9659009	-0.344999999	200	0	0
-3.73399997	6.9659009	-0.243000001	200	0	0
-3.72300005	6.96619987	-0.275999993	200	0	0
-3.73600006	6.96570015	-0.345999986	200	0	0
-3.72399998	6.96609974	-0.326999992	200	0	0
-3.73399997	6.96560001	-0.344999999	200	0	0
-3.73099995	6.96580029	-0.241999999	200	0	0
-3.73200011	6.96580029	-0.344000012	200	0	0
-3.73000002	6.9659996	-0.250999987	200	0	0
-3.72900009	6.96619987	-0.300999999	200	0	0
-3.72799993	6.96619987	-0.289999992	200	0	0
-3.73099995	6.96539974	-0.331999987	200	0	0
-3.72300005	6.96609974	-0.266000003	200	0	0
-3.72799993	6.9659996	-0.330000013	200	0	0
-3.72199988	6.96609974	-0.316000015	200	0	0
-3.73300004	6.96549988	-0.333999991	200	0	0
-3.72199988	6.96609974	-0.275000006	200	0	0
-3.73300004	6.9659009	-0.252999991	200	0	0
-3.72900009	6.9659009	-0.331	200	0	0
-3.73099995	6.96580029	-0.252000004	200	0	0
-3.72199988	6.9659996	-0.264999986	200	0	0
-3.73200011	6.96609974	-0.303000003	200	0	0
-3.73000002	6.96580029	-0.331999987	200	0	0
-3.72900009	6.96609974	-0.289999992	200	0	0
-3.7249999	6.9659996	-0.317999989	200	0	0
-3.73099995	6.96570015	-0.331999987	200	0	0
-3.72799993	6.96560001	-0.330000013	200	0	0
-3.72199988	6.9659996	-0.275000006	200	0	0
-3.72799993	6.9659009	-0.319999993	200	0	0
-3.727	6.9659009	-0.268999994	200	0	0
-3.73300004	6.9659996	-0.303000003	200	0	0
-3.73000002	6.9659996	-0.291000009	200	0	0
-3.72600007	6.96560001	-0.319000006	200	0	0
-3.727	6.96580029	-0.319000006	200	0	0
-3.727	6.96570015	-0.319000006	200	0	0
-3.72900009	6.96580029	-0.270000011	200	0	0
-3.727	6.9659009	-0.279000014	200	0	0
-3.73200011	6.9659009	-0.303000003	200	0	0
-3.73300004	6.9659009	-0.293000013	200	0	0
-3.727	6.96580029	-0.279000014	200	0	0
-3.73399997	6.96580029	-0.30399999	200	0	0
-3.73399997	6.96570015	-0.30399999	200	0	0
-3.73300004	6.96580029	-0.293000013	200	0	0
-3.72300005	6.96630001	-0.377000004	200	0	0
-3.73000002	6.9659996	-0.404000014	200	0	0
-3.73399997	6.9659009	-0.407000005	200	0	0
-3.73600006	6.96580029	-0.407999992	200	0	0
-3.72600007	6.96609974	-0.391000003	200	0	0
-3.73200011	6.9659996	-0.395000011	200	0	0
-3.73699999	6.96549988	-0.409000009	200	0	0
-3.73600006	6.96560001	-0.407999992	200	0	0
-3.73300004	6.96570015	-0.405999988	200	0	0
-3.73399997	6.9659009	-0.395999998	200	0	0
-3.74000001	6.96530104	-0.400999993	200	0	0
-3.7420001	6.96539974	-0.40200001	200	0	0
-3.73200011	6.96580029	-0.395000011	200	0	0
-3.73399997	6.96570015	-0.397000015	200	0	0
-3.73200011	6.96560001	-0.395000011	200	0	0
-3.74600005	6.96530104	-0.384000003	200	0	0
-3.72199988	6.96659994	-0.175999999	200	0	0
-3.72900009	6.96549988	-0.122000001	200	0	0
-3.72600007	6.96640015	-0.149000004	200	0	0
-3.73200011	6.96520042	-0.134000003	200	0	0
-3.727	6.96580029	-0.120999999	200	0	0
-3.727	6.96560001	-0.120999999	200	0	0
-3.72799993	6.96630001	-0.141000003	200	0	0
-3.727	6.96570015	-0.120999999	200	0	0
-3.72300005	6.9659996	-0.127000004	200	0	0
-3.73000002	6.96530104	-0.131999999	200	0	0
-3.7249999	6.96650076	-0.167999998	200	0	0
-3.727	6.96659994	-0.248999998	200	0	0
-3.72799993	6.96659994	-0.189999998	200	0	0
-3.73900008	6.96510029	-0.148000002	200	0	0
-3.72799993	6.96539974	-0.130999997	200	0	0
-3.7249999	6.9659009	-0.128999993	200	0	0
-3.727	6.96659994	-0.199000001	200	0	0
-3.7249999	6.96659994	-0.238000005	200	0	0
-3.72900009	6.96619987	-0.142000005	200	0	0
-3.727	6.96630001	-0.150000006	200	0	0
-3.727	6.96659994	-0.229000002	200	0	0
-3.72199988	6.96659994	-0.216000006	200	0	0
-3.7349999	6.96520042	-0.144999996	200	0	0
-3.73000002	6.96549988	-0.131999999	200	0	0
-3.727	6.96570015	-0.129999995	200	0	0
-3.72000003	6.96640015	-0.165000007	200	0	0
-3.72799993	6.96560001	-0.130999997	200	0	0
-3.72799993	6.96609974	-0.141000003	200	0	0
-3.73799992	6.96510029	-0.157000005	200	0	0
-3.7249999	6.96619987	-0.149000004	200	0	0
-3.73200011	6.96580029	-0.134000003	200	0	0
-3.72799993	6.96650076	-0.189999998	200	0	0
-3.7349999	6.96530104	-0.144999996	200	0	0
-3.72900009	6.9659996	-0.141000003	200	0	0
-3.72000003	6.96640015	-0.174999997	200	0	0
-3.7249999	6.96650076	-0.197999999	200	0	0
-3.7190001	6.96630001	-0.164000005	200	0	0
-3.73200011	6.96539974	-0.143999994	200	0	0
-3.73600006	6.96520042	-0.156000003	200	0	0
-3.72300005	6.96650076	-0.225999996	200	0	0
-3.72199988	6.96650076	-0.215000004	200	0	0
-3.727	6.96609974	-0.150000006	200	0	0
-3.72900009	6.9659009	-0.142000005	200	0	0
-3.72900009	6.96580029	-0.142000005	200	0	0
-3.73399997	6.96549988	-0.144999996	200	0	0
-3.73099995	6.96560001	-0.143000007	200	0	0
-3.73099995	6.96570015	-0.143000007	200	0	0
-3.73399997	6.96530104	-0.155000001	200	0	0
-3.73000002	6.96640015	-0.192000002	200	0	0
-3.72099996	6.96630001	-0.174999997	200	0	0
-3.73000002	6.9659996	-0.151999995	200	0	0
-3.72399998	6.96640015	-0.196999997	200	0	0
-3.72300005	6.96619987	-0.165999994	200	0	0
-3.73300004	6.96539974	-0.153999999	200	0	0
-3.72900009	6.9659009	-0.150999993	200	0	0
-3.72000003	6.96640015	-0.214000002	200	0	0
-3.72300005	6.96630001	-0.186000004	200	0	0
-3.73200011	6.96549988	-0.153999999	200	0	0
-3.73000002	6.96560001	-0.151999995	200	0	0
-3.72099996	6.96619987	-0.174999997	200	0	0
-3.73200011	6.96580029	-0.153999999	200	0	0
-3.73200011	6.96570015	-0.153999999	200	0	0
-3.7249999	6.96609974	-0.167999998	200	0	0
-3.72799993	6.96630001	-0.200000003	200	0	0
-3.72099996	6.9659996	-0.165000007	200	0	0
-3.72099996	6.96609974	-0.174999997	200	0	0
-3.72600007	6.96539974	-0.169	200	0	0
-3.73099995	6.96619987	-0.192000002	200	0	0
-3.72399998	6.96619987	-0.196999997	200	0	0
-3.72799993	6.96549988	-0.170000002	200	0	0
-3.72900009	6.9659009	-0.171000004	200	0	0
-3.7249999	6.96560001	-0.167999998	200	0	0
-3.72399998	6.9659996	-0.177000001	200	0	0
-3.727	6.96580029	-0.169	200	0	0
-3.727	6.96570015	-0.169	200	0	0
-3.72799993	6.96609974	-0.189999998	200	0	0
-3.72799993	6.96609974	-0.200000003	200	0	0
-3.72799993	6.96549988	-0.180000007	200	0	0
-3.72399998	6.96580029	-0.177000001	200	0	0
-3.72600007	6.96560001	-0.178000003	200	0	0
-3.72900009	6.9659996	-0.189999998	200	0	0
-3.72600007	6.96570015	-0.178000003	200	0	0
-3.72900009	6.9659009	-0.189999998	200	0	0
-3.73099995	6.96580029	-0.192000002	200	0	0
-3.73300004	6.96560001	-0.193000004	200	0	0
-3.73099995	6.96570015	-0.192000002	200	0	0
-3.72399998	6.96570015	-0.0799999982	200	0	0
-3.727	6.96539974	-0.0719999969	200	0	0
-3.72900009	6.96549988	-0.074000001	200	0	0
-3.73000002	6.9659009	-0.0939999968	200	0	0
-3.72900009	6.9659996	-0.103	200	0	0
-3.72000003	6.96609974	-0.115999997	200	0	0
-3.72900009	6.96530104	-0.074000001	200	0	0
-3.73099995	6.96520042	-0.075000003	200	0	0
-3.7349999	6.96510029	-0.0780000016	200	0	0
-3.72600007	6.96560001	-0.0820000023	200	0	0
-3.72300005	6.96609974	-0.127000004	200	0	0
-3.72600007	6.96549988	-0.0820000023	200	0	0
-3.73000002	6.9659009	-0.103	200	0	0
-3.73300004	6.96580029	-0.0960000008	200	0	0
-3.72600007	6.96539974	-0.0820000023	200	0	0
-3.72399998	6.9659996	-0.118000001	200	0	0
-3.73300004	6.96510029	-0.0860000029	200	0	0
-3.73099995	6.96520042	-0.0850000009	200	0	0
-3.73099995	6.96530104	-0.0850000009	200	0	0
-3.73200011	6.96570015	-0.0949999988	200	0	0
-3.73099995	6.96580029	-0.104000002	200	0	0
-3.73300004	6.96560001	-0.0960000008	200	0	0
-3.73000002	6.96549988	-0.0939999968	200	0	0
-3.72900009	6.96570015	-0.103	200	0	0
-3.72600007	6.9659009	-0.119999997	200	0	0
-3.73300004	6.96530104	-0.0960000008	200	0	0
-3.73399997	6.96539974	-0.0970000029	200	0	0
-3.73600006	6.96520042	-0.0979999974	200	0	0
-3.74099994	6.96510029	-0.101000004	200	0	0
-3.73200011	6.96560001	-0.104999997	200	0	0
-3.73099995	6.96549988	-0.104000002	200	0	0
-3.73099995	6.96539974	-0.104000002	200	0	0
-3.73600006	6.96510029	-0.107000001	200	0	0
-3.73300004	6.96530104	-0.105999999	200	0	0
-3.73600006	6.96520042	-0.107000001	200	0	0
-3.73399997	6.96510029	-0.125	200	0	0
-3.72799993	6.96530104	-0.120999999	200	0	0
-3.72900009	6.96539974	-0.122000001	200	0	0
-3.73000002	6.96520042	-0.123000003	200	0	0
-3.73399997	6.96510029	-0.135000005	200	0	0
-3.72199988	6.96619987	-0.127000004	200	0	0
-3.73099995	6.96570015	-0.425000012	200	0	0
-3.71300006	6.96570015	-0.421999991	200	0	0
-3.73300004	6.96549988	-0.426999986	200	0	0
-3.72900009	6.96560001	-0.423999995	200	0	0
-3.72900009	6.96630001	-0.476999998	200	0	0
-3.727	6.9659996	-0.474999994	200	0	0
-3.727	6.96609974	-0.474999994	200	0	0
-3.7349999	6.96570015	-0.460000008	200	0	0
-3.7190001	6.96689987	-0.31400001	200	0	0
-3.72600007	6.9666996	-0.298000008	200	0	0
-3.70600009	6.9659996	-0.469000012	200	0	0
-3.72900009	6.96679974	-0.444999993	200	0	0
-3.72099996	6.96679974	-0.314999998	200	0	0
-3.72399998	6.96689987	-0.326999992	200	0	0
-3.73300004	6.9666996	-0.449000001	200	0	0
-3.72099996	6.9666996	-0.449000001	200	0	0
-3.70799994	6.96619987	-0.460000008	200	0	0
-3.73600006	6.96580029	-0.449999988	200	0	0
-3.7349999	6.96630001	-0.460000008	200	0	0
-3.72099996	6.9666996	-0.314999998	200	0	0
-3.7249999	6.96689987	-0.338	200	0	0
-3.727	6.96560001	-0.432999998	200	0	0
-3.72399998	6.96679974	-0.326999992	200	0	0
-3.727	6.96689987	-0.349999994	200	0	0
-3.72000003	6.9666996	-0.324000001	200	0	0
-3.71399999	6.96570015	-0.432999998	200	0	0
-3.7249999	6.96689987	-0.400999993	200	0	0
-3.72300005	6.96679974	-0.419999987	200	0	0
-3.72399998	6.9666996	-0.430999994	200	0	0
-3.72099996	6.96689987	-0.365999997	200	0	0
-3.72799993	6.96679974	-0.340999991	200	0	0
-3.7249999	6.96689987	-0.389999986	200	0	0
-3.72300005	6.96689987	-0.377999991	200	0	0
-3.7249999	6.9659009	-0.442000002	200	0	0
-3.72799993	6.96640015	-0.444999993	200	0	0
-3.72799993	6.96679974	-0.351000011	200	0	0
-3.7249999	6.96580029	-0.430999994	200	0	0
-3.72399998	6.9659996	-0.441000015	200	0	0
-3.72099996	6.96659994	-0.42899999	200	0	0
-3.72399998	6.96679974	-0.400000006	200	0	0
-3.72799993	6.9666996	-0.340999991	200	0	0
-3.72000003	6.9666996	-0.416999996	200	0	0
-3.727	6.96679974	-0.39199999	200	0	0
-3.73000002	6.96580029	-0.425000012	200	0	0
-3.72199988	6.96679974	-0.367000014	200	0	0
-3.72099996	6.96679974	-0.375999987	200	0	0
-3.72300005	6.9659009	-0.430000007	200	0	0
-3.7190001	6.96630001	-0.437000006	200	0	0
-3.72399998	6.96659994	-0.421000004	200	0	0
-3.72600007	6.9666996	-0.349999994	200	0	0
-3.71499991	6.96609974	-0.433999985	200	0	0
-3.72900009	6.96659994	-0.340999991	200	0	0
-3.727	6.9666996	-0.40200001	200	0	0
-3.71399999	6.96619987	-0.432999998	200	0	0
-3.72099996	6.96640015	-0.428000003	200	0	0
-3.727	6.9659009	-0.421999991	200	0	0
-3.727	6.9666996	-0.39199999	200	0	0
-3.72399998	6.9666996	-0.368999988	200	0	0
-3.72099996	6.9666996	-0.375999987	200	0	0
-3.71600008	6.9659996	-0.423999995	200	0	0
-3.72600007	6.96659994	-0.349999994	200	0	0
-3.72000003	6.96650076	-0.416999996	200	0	0
-3.73000002	6.96659994	-0.404000014	200	0	0
-3.72300005	6.96640015	-0.419	200	0	0
-3.72300005	6.9659996	-0.419	200	0	0
-3.71000004	6.96609974	-0.419999987	200	0	0
-3.72600007	6.96609974	-0.421999991	200	0	0
-3.72900009	6.96659994	-0.393000007	200	0	0
-3.7249999	6.96619987	-0.421000004	200	0	0
-3.72199988	6.96659994	-0.367000014	200	0	0
-3.72099996	6.96630001	-0.418000013	200	0	0
-3.72199988	6.96659994	-0.377000004	200	0	0
-3.72799993	6.96650076	-0.402999997	200	0	0
-3.72199988	6.96650076	-0.367000014	200	0	0
-3.7249999	6.96650076	-0.389999986	200	0	0
-3.72799993	6.96640015	-0.402999997	200	0	0
-3.72399998	6.96650076	-0.379000008	200	0	0
-3.73000002	6.96609974	-0.404000014	200	0	0
-3.73000002	6.96619987	-0.404000014	200	0	0
-3.727	6.96630001	-0.40200001	200	0	0
-3.7249999	6.96640015	-0.388999999	200	0	0
-3.72600007	6.96640015	-0.370000005	200	0	0
-3.72399998	6.96640015	-0.379000008	200	0	0
-3.72900009	6.96630001	-0.393000007	200	0	0
-3.72900009	6.96619987	-0.393000007	200	0	0
-3.72600007	6.96679974	-0.129999995	200	0	0
-3.7190001	6.9666996	-0.125	200	0	0
-3.72099996	6.96630001	-0.116999999	200	0	0
-3.727	6.96679974	-0.298999995	200	0	0
-3.72300005	6.96689987	-0.137999997	200	0	0
-3.72300005	6.96640015	-0.118000001	200	0	0
-3.72300005	6.96619987	-0.118000001	200	0	0
-3.72399998	6.96689987	-0.287	200	0	0
-3.72099996	6.96659994	-0.127000004	200	0	0
-3.72399998	6.96679974	-0.137999997	200	0	0
-3.72300005	6.96689987	-0.147	200	0	0
-3.72199988	6.96650076	-0.127000004	200	0	0
-3.72199988	6.96640015	-0.127000004	200	0	0
-3.72600007	6.96679974	-0.287999988	200	0	0
-3.72300005	6.96630001	-0.128000006	200	0	0
-3.7249999	6.9666996	-0.138999999	200	0	0
-3.72199988	6.96689987	-0.275000006	200	0	0
-3.727	6.9666996	-0.289000005	200	0	0
-3.72300005	6.96679974	-0.148000002	200	0	0
-3.72600007	6.96659994	-0.140000001	200	0	0
-3.72300005	6.96679974	-0.275999993	200	0	0
-3.7249999	6.96650076	-0.138999999	200	0	0
-3.72000003	6.96689987	-0.165000007	200	0	0
-3.72099996	6.96689987	-0.264999986	200	0	0
-3.72600007	6.9666996	-0.149000004	200	0	0
-3.7249999	6.96640015	-0.138999999	200	0	0
-3.71799994	6.96689987	-0.172999993	200	0	0
-3.7249999	6.96659994	-0.149000004	200	0	0
-3.72099996	6.9666996	-0.275000006	200	0	0
-3.72000003	6.96679974	-0.165000007	200	0	0
-3.72399998	6.96650076	-0.148000002	200	0	0
-3.7190001	6.96679974	-0.263000011	200	0	0
-3.7249999	6.96689987	-0.247999996	200	0	0
-3.72399998	6.96689987	-0.187999994	200	0	0
-3.7249999	6.96689987	-0.238000005	200	0	0
-3.72099996	6.96679974	-0.174999997	200	0	0
-3.72099996	6.9666996	-0.165000007	200	0	0
-3.72099996	6.9666996	-0.264999986	200	0	0
-3.72399998	6.96689987	-0.196999997	200	0	0
-3.727	6.96689987	-0.229000002	200	0	0
-3.727	6.96679974	-0.248999998	200	0	0
-3.72099996	6.96689987	-0.215000004	200	0	0
-3.7190001	6.96659994	-0.164000005	200	0	0
-3.71799994	6.9666996	-0.172999993	200	0	0
-3.72399998	6.96679974	-0.187999994	200	0	0
-3.727	6.96679974	-0.238999993	200	0	0
-3.72399998	6.96679974	-0.197999999	200	0	0
-3.72000003	6.96679974	-0.224000007	200	0	0
-3.72300005	6.9666996	-0.246000007	200	0	0
-3.72199988	6.96679974	-0.216000006	200	0	0
-3.72300005	6.9666996	-0.186000004	200	0	0
-3.72399998	6.9666996	-0.237000003	200	0	0
-3.7249999	6.9666996	-0.197999999	200	0	0
-3.72099996	6.9666996	-0.224999994	200	0	0
-3.72199988	6.9666996	-0.216000006	200	0	0
-3.72600007	6.96689987	-0.298000008	200	0	0
-3.72000003	6.96650076	-0.115999997	200	0	0
-3.73099995	6.9659009	-0.477999985	200	0	0
-3.73300004	6.96580029	-0.479999989	200	0	0
-3.73000002	6.9659009	-0.488000005	200	0	0
-3.7190001	6.96659994	-0.0769999996	200	0	0
-3.72600007	6.96609974	-0.0909999982	200	0	0
-3.72000003	6.96650076	-0.0780000016	200	0	0
-3.72099996	6.9666996	-0.0780000016	200	0	0
-3.72300005	6.96679974	-0.0799999982	200	0	0
-3.727	6.96619987	-0.0920000002	200	0	0
-3.72399998	6.96689987	-0.0900000036	200	0	0
-3.72399998	6.96630001	-0.0900000036	200	0	0
-3.7249999	6.96609974	-0.100000001	200	0	0
-3.72399998	6.96679974	-0.0900000036	200	0	0
-3.72600007	6.96640015	-0.0909999982	200	0	0
-3.72399998	6.9666996	-0.0900000036	200	0	0
-3.7249999	6.96659994	-0.0900000036	200	0	0
-3.7249999	6.96619987	-0.100000001	200	0	0
-3.7249999	6.96650076	-0.0909999982	200	0	0
-3.72399998	6.96689987	-0.100000001	200	0	0
-3.72799993	6.96630001	-0.101999998	200	0	0
-3.72399998	6.96640015	-0.0989999995	200	0	0
-3.727	6.96679974	-0.101999998	200	0	0
-3.7249999	6.96650076	-0.100000001	200	0	0
-3.72399998	6.9666996	-0.100000001	200	0	0
-3.72799993	6.96659994	-0.103	200	0	0
-3.7190001	6.96689987	-0.115999997	200	0	0
-3.72099996	6.96679974	-0.116999999	200	0	0
-3.72099996	6.9666996	-0.116999999	200	0	0
-3.72199988	6.96659994	-0.116999999	200	0	0
-3.72099996	6.96689987	-0.127000004	200	0	0
-3.72600007	6.96609974	-0.0430000015	200	0	0
-3.72799993	6.96530104	-0.0250000004	200	0	0
-3.72399998	6.9659009	-0.0320000015	200	0	0
-3.72600007	6.96560001	-0.0240000002	200	0	0
-3.7249999	6.96549988	-0.0240000002	200	0	0
-3.72799993	6.96619987	-0.0540000014	200	0	0
-3.727	6.96539974	-0.0250000004	200	0	0
-3.72099996	6.96630001	-0.0680000037	200	0	0
-3.73600006	6.96500015	-0.0399999991	200	0	0
-3.7349999	6.96490002	-0.0489999987	200	0	0
-3.73200011	6.96510029	-0.0370000005	200	0	0
-3.727	6.96580029	-0.0350000001	200	0	0
-3.72900009	6.96520042	-0.0350000001	200	0	0
-3.72799993	6.9659996	-0.0450000018	200	0	0
-3.72000003	6.96630001	-0.0780000016	200	0	0
-3.727	6.96490002	-0.0529999994	200	0	0
-3.7249999	6.96570015	-0.0329999998	200	0	0
-3.727	6.96609974	-0.0540000014	200	0	0
-3.72399998	6.96560001	-0.0320000015	200	0	0
-3.72399998	6.96549988	-0.0320000015	200	0	0
-3.72799993	6.96530104	-0.0350000001	200	0	0
-3.72199988	6.96619987	-0.0689999983	200	0	0
-3.72799993	6.96539974	-0.0350000001	200	0	0
-3.72799993	6.9659009	-0.0450000018	200	0	0
-3.73900008	6.96500015	-0.0520000011	200	0	0
-3.72900009	6.9659996	-0.0549999997	200	0	0
-3.72000003	6.96619987	-0.0780000016	200	0	0
-3.73799992	6.96510029	-0.050999999	200	0	0
-3.72900009	6.96580029	-0.0460000001	200	0	0
-3.72199988	6.96609974	-0.0689999983	200	0	0
-3.7349999	6.96520042	-0.0489999987	200	0	0
-3.72799993	6.9659009	-0.0540000014	200	0	0
-3.72900009	6.96570015	-0.0460000001	200	0	0
-3.72900009	6.96560001	-0.0460000001	200	0	0
-3.73000002	6.96549988	-0.0460000001	200	0	0
-3.7349999	6.96530104	-0.0489999987	200	0	0
-3.73099995	6.96539974	-0.0469999984	200	0	0
-3.73699999	6.96510029	-0.0599999987	200	0	0
-3.72199988	6.96609974	-0.0790000036	200	0	0
-3.72900009	6.96580029	-0.0549999997	200	0	0
-3.72199988	6.9659996	-0.0689999983	200	0	0
-3.7349999	6.96520042	-0.0579999983	200	0	0
-3.73200011	6.96570015	-0.057	200	0	0
-3.73200011	6.96530104	-0.057	200	0	0
-3.72900009	6.96539974	-0.0549999997	200	0	0
-3.72300005	6.9659009	-0.0700000003	200	0	0
-3.73200011	6.96560001	-0.057	200	0	0
-3.73200011	6.96549988	-0.057	200	0	0
-3.7249999	6.9659996	-0.0810000002	200	0	0
-3.72300005	6.96580029	-0.0700000003	200	0	0
-3.72300005	6.9659009	-0.0790000036	200	0	0
-3.72799993	6.9659996	-0.0920000002	200	0	0
-3.72300005	6.96570015	-0.0700000003	200	0	0
-3.72600007	6.96580029	-0.0820000023	200	0	0
-3.72799993	6.96560001	-0.0729999989	200	0	0
-3.727	6.96659994	-0.0540000014	200	0	0
-3.7249999	6.96650076	-0.0529999994	200	0	0
-3.72600007	6.96630001	-0.0529999994	200	0	0
-3.72600007	6.96640015	-0.0529999994	200	0	0
-3.72099996	6.96689987	-0.0689999983	200	0	0
-3.72000003	6.96689987	-0.0780000016	200	0	0
-3.7249999	6.96679974	-0.0719999969	200	0	0
-3.7190001	6.9666996	-0.0680000037	200	0	0
-3.72000003	6.96659994	-0.0680000037	200	0	0
-3.72199988	6.96650076	-0.0700000003	200	0	0
-3.72199988	6.96640015	-0.0700000003	200	0	0
-3.72000003	6.96640015	-0.0780000016	200	0	0
-3.7349999	6.96490002	-0.0390000008	200	0	0
-3.72600007	6.96640015	-0.0439999998	200	0	0
-3.72399998	6.96619987	-0.0320000015	200	0	0
-3.7249999	6.9659009	-0.0240000002	200	0	0
-3.72600007	6.96570015	-0.0240000002	200	0	0
-3.727	6.96580029	-0.0250000004	200	0	0
-3.72300005	6.96609974	-0.0320000015	200	0	0
-3.727	6.96630001	-0.0439999998	200	0	0
-3.72399998	6.9659996	-0.0320000015	200	0	0
-3.7249999	6.96619987	-0.0430000015	200	0	0
-3.72600007	6.9666996	-0.0529999994	200	0	0
-3.7249999	6.96650076	-0.0430000015	200	0	0
-3.72900009	6.96530104	0.0109999999	200	0	0
-3.7349999	6.96510029	-0.00200000009	200	0	0
-3.727	6.96539974	0.0130000003	200	0	0
-3.72600007	6.96619987	0.00400000019	200	0	0
-3.7249999	6.96659994	-0.0430000015	200	0	0
-3.7420001	6.96500015	-0.0160000008	200	0	0
-3.72199988	6.96560001	0.0160000008	200	0	0
-3.7249999	6.9659009	0.0140000004	200	0	0
-3.72399998	6.96549988	0.0140000004	200	0	0
-3.72199988	6.96570015	0.0160000008	200	0	0
-3.727	6.96630001	-0.00600000005	200	0	0
-3.73600006	6.96490002	-0.0299999993	200	0	0
-3.7249999	6.96580029	0.0140000004	200	0	0
-3.72099996	6.96650076	-0.0309999995	200	0	0
-3.7349999	6.96520042	-0.00200000009	200	0	0
-3.72600007	6.96609974	0.00400000019	200	0	0
-3.72099996	6.96640015	-0.0209999997	200	0	0
-3.73900008	6.96510029	-0.0140000004	200	0	0
-3.7249999	6.96619987	-0.00499999989	200	0	0
-3.7249999	6.9659996	0.00499999989	200	0	0
-3.73300004	6.96530104	0	200	0	0
-3.7349999	6.96500015	-0.0299999993	200	0	0
-3.7249999	6.9659009	0.00400000019	200	0	0
-3.73200011	6.96539974	0	200	0	0
-3.73600006	6.96520042	-0.0120000001	200	0	0
-3.72300005	6.96640015	-0.0320000015	200	0	0
-3.72600007	6.96609974	-0.00600000005	200	0	0
-3.727	6.96560001	0.00300000003	200	0	0
-3.72199988	6.96630001	-0.0219999999	200	0	0
-3.727	6.96570015	0.00300000003	200	0	0
-3.73099995	6.96549988	0	200	0	0
-3.72799993	6.96580029	0.00200000009	200	0	0
-3.7349999	6.96530104	-0.0109999999	200	0	0
-3.72600007	6.9659996	-0.00600000005	200	0	0
-3.73300004	6.96510029	-0.0289999992	200	0	0
-3.72000003	6.96630001	-0.0299999993	200	0	0
-3.72000003	6.96619987	-0.0199999996	200	0	0
-3.73200011	6.96539974	-0.00999999978	200	0	0
-3.72900009	6.9659009	-0.00800000038	200	0	0
-3.727	6.96570015	-0.00600000005	200	0	0
-3.73000002	6.96549988	-0.00899999961	200	0	0
-3.72900009	6.96520042	-0.0260000005	200	0	0
-3.73000002	6.96580029	-0.00800000038	200	0	0
-3.73000002	6.96560001	-0.00800000038	200	0	0
-3.72000003	6.96609974	-0.0199999996	200	0	0
-3.72300005	6.9659996	-0.023	200	0	0
-3.7249999	6.96570015	0.023	200	0	0
-3.72300005	6.96560001	0.0250000004	200	0	0
-3.7349999	6.96500015	0.0170000009	200	0	0
-3.72600007	6.96520042	0.023	200	0	0
-3.73200011	6.96510029	0.0189999994	200	0	0
-3.727	6.96549988	0.0219999999	200	0	0
-3.72799993	6.96530104	0.0209999997	200	0	0
-3.72900009	6.96539974	0.0209999997	200	0	0
-3.73600006	6.96500015	0.00700000022	200	0	0
-3.73399997	6.96510029	0.00800000038	200	0	0
-3.73000002	6.96520042	0.0109999999	200	0	0
-3.73799992	6.96500015	-0.00400000019	200	0	0
-3.72600007	6.96679974	-0.0529999994	200	0	0
-3.7190001	6.96650076	-0.0199999996	200	0	0
-3.7249999	6.9666996	-0.0430000015	200	0	0
-3.72199988	6.96659994	-0.0320000015	200	0	0
-3.727	6.96679974	-0.0450000018	200	0	0
-3.727	6.96679974	-0.508000016	200	0	0
-3.73000002	6.96679974	-0.499000013	200	0	0
-3.70900011	6.96679974	-0.472000003	200	0	0
-3.72099996	6.9666996	-0.0309999995	200	0	0
-3.72199988	6.96679974	-0.0309999995	200	0	0
-3.72300005	6.96689987	-0.0419999994	200	0	0
-3.72399998	6.96689987	-0.0520000011	200	0	0
-3.72000003	6.96689987	-0.0299999993	200	0	0
-3.72300005	6.9666996	-0.023	200	0	0
-3.72300005	6.96679974	-0.023	200	0	0
-3.7190001	6.96659994	-0.0199999996	200	0	0
-3.72000003	6.96630001	0.0170000009	200	0	0
-3.72199988	6.96689987	0.0160000008	200	0	0
-3.72000003	6.96640015	0.0170000009	200	0	0
-3.72000003	6.9666996	0.0170000009	200	0	0
-3.72000003	6.96650076	0.0170000009	200	0	0
-3.72300005	6.96679974	0.0149999997	200	0	0
-3.72199988	6.96659994	0.0160000008	200	0	0
-3.72399998	6.96689987	0.00499999989	200	0	0
-3.7249999	6.96630001	0.00400000019	200	0	0
-3.7249999	6.96679974	0.00400000019	200	0	0
-3.727	6.96640015	0.00300000003	200	0	0
-3.72300005	6.9666996	0.00499999989	200	0	0
-3.72300005	6.96650076	0.00499999989	200	0	0
-3.727	6.96659994	0.00200000009	200	0	0
-3.72600007	6.96689987	-0.00600000005	200	0	0
-3.72600007	6.96640015	-0.00600000005	200	0	0
-3.72799993	6.96679974	-0.00700000022	200	0	0
-3.7249999	6.96659994	-0.00499999989	200	0	0
-3.72600007	6.9666996	-0.00600000005	200	0	0
-3.72600007	6.96650076	-0.00600000005	200	0	0
-3.71799994	6.96689987	-0.0199999996	200	0	0
-3.72099996	6.96619987	0.0160000008	200	0	0
-3.72399998	6.96640015	0.050999999	200	0	0
-3.72099996	6.96679974	0.0250000004	200	0	0
-3.72799993	6.96560001	0.0399999991	200	0	0
-3.72900009	6.96580029	0.0489999987	200	0	0
-3.72399998	6.96630001	0.050999999	200	0	0
-3.72799993	6.96659994	0.0390000008	200	0	0
-3.72399998	6.96609974	0.0520000011	200	0	0
-3.72399998	6.96619987	0.050999999	200	0	0
-3.72399998	6.9659996	0.050999999	200	0	0
-3.72399998	6.96650076	0.0419999994	200	0	0
-3.72900009	6.9659009	0.0480000004	200	0	0
-3.72799993	6.96570015	0.0399999991	200	0	0
-3.72199988	6.9666996	0.0250000004	200	0	0
-3.72399998	6.96640015	0.0419999994	200	0	0
-3.72900009	6.96580029	0.0390000008	200	0	0
-3.7249999	6.96630001	0.0419999994	200	0	0
-3.7249999	6.96619987	0.0419999994	200	0	0
-3.727	6.9659009	0.0399999991	200	0	0
-3.72399998	6.96609974	0.0419999994	200	0	0
-3.72099996	6.96659994	0.0250000004	200	0	0
-3.727	6.9659996	0.0399999991	200	0	0
-3.72199988	6.96650076	0.0250000004	200	0	0
-3.72199988	6.96640015	0.0250000004	200	0	0
-3.7249999	6.96580029	0.023	200	0	0
-3.7190001	6.96619987	0.0270000007	200	0	0
-3.72199988	6.96630001	0.0250000004	200	0	0
-3.72300005	6.9659009	0.0240000002	200	0	0
-3.72099996	6.96609974	0.0260000005	200	0	0
-3.72199988	6.9659996	0.0250000004	200	0	0
-3.72099996	6.96609974	0.0170000009	200	0	0
-3.72199988	6.9659996	0.0160000008	200	0	0
-3.7249999	6.96580029	0.0610000007	200	0	0
-3.7249999	6.96549988	0.0700000003	200	0	0
-3.7249999	6.96539974	0.0700000003	200	0	0
-3.72399998	6.96570015	0.0610000007	200	0	0
-3.7349999	6.96500015	0.064000003	200	0	0
-3.72799993	6.96530104	0.0680000037	200	0	0
-3.72900009	6.96520042	0.0670000017	200	0	0
-3.73300004	6.96510029	0.0649999976	200	0	0
-3.7249999	6.96560001	0.0599999987	200	0	0
-3.7249999	6.96549988	0.0599999987	200	0	0
-3.7249999	6.96539974	0.0610000007	200	0	0
-3.73399997	6.96500015	0.0549999997	200	0	0
-3.72900009	6.96570015	0.0489999987	200	0	0
-3.72799993	6.96520042	0.0579999983	200	0	0
-3.73300004	6.96510029	0.0560000017	200	0	0
-3.72799993	6.96530104	0.0579999983	200	0	0
-3.73000002	6.96560001	0.0469999984	200	0	0
-3.73000002	6.96549988	0.0469999984	200	0	0
-3.74000001	6.96500015	0.0410000011	200	0	0
-3.73200011	6.96520042	0.0469999984	200	0	0
-3.73099995	6.96539974	0.0469999984	200	0	0
-3.73699999	6.96510029	0.0439999998	200	0	0
-3.73399997	6.96530104	0.0450000018	200	0	0
-3.73699999	6.96500015	0.0340000018	200	0	0
-3.73000002	6.96549988	0.0379999988	200	0	0
-3.73099995	6.96539974	0.0379999988	200	0	0
-3.73600006	6.96510029	0.0350000001	200	0	0
-3.73099995	6.96530104	0.0379999988	200	0	0
-3.73300004	6.96520042	0.0370000005	200	0	0
-3.7190001	6.96609974	0.064000003	200	0	0
-3.72000003	6.9659996	0.063000001	200	0	0
-3.72199988	6.9659009	0.061999999	200	0	0
-3.72300005	6.9659009	0.0710000023	200	0	0
-3.72300005	6.96580029	0.0710000023	200	0	0
-3.72199988	6.96570015	0.0710000023	200	0	0
-3.72300005	6.96560001	0.0710000023	200	0	0
-3.72399998	6.9666996	0.0419999994	200	0	0
-3.72600007	6.96679974	0.0399999991	200	0	0
-3.72199988	6.96689987	0.0250000004	200	0	0
-3.7249999	6.9666996	0.050999999	200	0	0
-3.72399998	6.96659994	0.050999999	200	0	0
-3.72399998	6.96650076	0.050999999	200	0	0
-3.72099996	6.96650076	0.063000001	200	0	0
-3.71799994	6.96619987	0.0649999976	200	0	0
-3.72199988	6.96640015	0.061999999	200	0	0
-3.72099996	6.96630001	0.063000001	200	0	0
-3.72000003	6.9659996	0.0729999989	200	0	0
-3.72199988	6.96689987	0.0430000015	200	0	0
-3.72600007	6.96679974	0.0500000007	200	0	0
-3.72199988	6.96549988	0.108000003	200	0	0
-3.727	6.96580029	0.0960000008	200	0	0
-3.7249999	6.9659009	0.0879999995	200	0	0
-3.73600006	6.96500015	0.100000001	200	0	0
-3.727	6.96530104	0.104999997	200	0	0
-3.727	6.96570015	0.0960000008	200	0	0
-3.72900009	6.96520042	0.104000002	200	0	0
-3.72799993	6.96539974	0.104000002	200	0	0
-3.73200011	6.96510029	0.101999998	200	0	0
-3.72600007	6.96580029	0.0879999995	200	0	0
-3.72900009	6.96560001	0.0949999988	200	0	0
-3.72600007	6.96570015	0.0869999975	200	0	0
-3.73699999	6.96500015	0.0900000036	200	0	0
-3.72799993	6.96539974	0.0949999988	200	0	0
-3.73099995	6.96549988	0.0930000022	200	0	0
-3.7349999	6.96510029	0.0909999982	200	0	0
-3.73200011	6.96520042	0.0930000022	200	0	0
-3.727	6.96560001	0.0869999975	200	0	0
-3.73300004	6.96530104	0.0920000002	200	0	0
-3.72600007	6.96549988	0.0869999975	200	0	0
-3.727	6.96539974	0.0869999975	200	0	0
-3.73699999	6.96500015	0.0810000002	200	0	0
-3.73600006	6.96510029	0.0810000002	200	0	0
-3.73300004	6.96530104	0.0829999968	200	0	0
-3.73399997	6.96520042	0.0820000023	200	0	0
-3.72000003	6.96619987	0.0719999969	200	0	0
-3.72600007	6.96570015	0.105999999	200	0	0
-3.72199988	6.96560001	0.108000003	200	0	0
-3.727	6.9659009	0.0960000008	200	0	0
-3.72399998	6.9659996	0.0890000015	200	0	0
-3.71700001	6.96609974	0.075000003	200	0	0
-3.7249999	6.9666996	0.0879999995	200	0	0
-3.7249999	6.96650076	0.0970000029	200	0	0
-3.72099996	6.96689987	0.0719999969	200	0	0
-3.7249999	6.9659996	0.0970000029	200	0	0
-3.72399998	6.96630001	0.0979999974	200	0	0
-3.72600007	6.96640015	0.0960000008	200	0	0
-3.7249999	6.96609974	0.0970000029	200	0	0
-3.72399998	6.96619987	0.0970000029	200	0	0
-3.7190001	6.96689987	0.064000003	200	0	0
-3.727	6.96659994	0.0869999975	200	0	0
-3.72199988	6.96679974	0.0710000023	200	0	0
-3.7249999	6.96650076	0.0879999995	200	0	0
-3.72300005	6.96630001	0.0890000015	200	0	0
-3.72399998	6.96609974	0.0890000015	200	0	0
-3.7190001	6.9666996	0.0729999989	200	0	0
-3.72600007	6.96640015	0.0869999975	200	0	0
-3.72399998	6.96619987	0.0890000015	200	0	0
-3.72399998	6.96689987	0.050999999	200	0	0
-3.72300005	6.96679974	0.0610000007	200	0	0
-3.72099996	6.96659994	0.0719999969	200	0	0
-3.72000003	6.9666996	0.063000001	200	0	0
-3.72000003	6.96650076	0.0719999969	200	0	0
-3.72099996	6.96640015	0.0719999969	200	0	0
-3.72199988	6.96659994	0.061999999	200	0	0
-3.7190001	6.96630001	0.0729999989	200	0	0
-3.72199988	6.9659009	0.108000003	200	0	0
-3.7249999	6.96580029	0.105999999	200	0	0
-3.7190001	6.96609974	0.109999999	200	0	0
-3.71799994	6.9659996	0.111000001	200	0	0
-3.72000003	6.9659996	0.118000001	200	0	0
-3.72099996	6.9659009	0.118000001	200	0	0
-3.72600007	6.96539974	0.115000002	200	0	0
-3.72300005	6.96549988	0.116999999	200	0	0
-3.72099996	6.96580029	0.118000001	200	0	0
-3.72300005	6.96560001	0.116999999	200	0	0
-3.72399998	6.96570015	0.115999997	200	0	0
-3.72799993	6.96520042	0.112999998	200	0	0
-3.727	6.96530104	0.115000002	200	0	0
-3.73099995	6.96510029	0.112000003	200	0	0
-3.73600006	6.96500015	0.108999997	200	0	0
-3.72099996	6.96659994	0.108999997	200	0	0
-3.72399998	6.96679974	0.0970000029	200	0	0
-3.71799994	6.96630001	0.111000001	200	0	0
-3.7190001	6.96640015	0.109999999	200	0	0
-3.7190001	6.96619987	0.109999999	200	0	0
-3.72199988	6.96650076	0.108000003	200	0	0
-3.72399998	6.96689987	0.0879999995	200	0	0
-3.7249999	6.9666996	0.0970000029	200	0	0
-3.72300005	6.96679974	0.0890000015	200	0	0
-3.72600007	6.96659994	0.0960000008	200	0	0
-3.7190001	6.9666996	0.109999999	200	0	0
-3.7190001	6.96689987	0.109999999	200	0	0
-3.72099996	6.96679974	0.108000003	200	0	0
-3.72399998	6.96689987	0.0970000029	200	0	0
-3.73600006	6.9666996	0.143999994	200	0	0
-3.73000002	6.9659996	0.138999999	200	0	0
-3.7349999	6.96659994	0.144999996	200	0	0
-3.7249999	6.96689987	0.133000001	200	0	0
-3.72600007	6.9659009	0.133000001	200	0	0
-3.73300004	6.96630001	0.145999998	200	0	0
-3.72799993	6.96609974	0.141000003	200	0	0
-3.73099995	6.9666996	0.137999997	200	0	0
-3.72799993	6.96619987	0.140000001	200	0	0
-3.7249999	6.9659996	0.133000001	200	0	0
-3.73000002	6.96659994	0.138999999	200	0	0
-3.72900009	6.96650076	0.140000001	200	0	0
-3.72799993	6.96630001	0.140000001	200	0	0
-3.72900009	6.96679974	0.130999997	200	0	0
-3.7249999	6.96609974	0.133000001	200	0	0
-3.72600007	6.9666996	0.131999999	200	0	0
-3.7249999	6.96619987	0.133000001	200	0	0
-3.72099996	6.96689987	0.116999999	200	0	0
-3.72600007	6.96630001	0.133000001	200	0	0
-3.7249999	6.96650076	0.133000001	200	0	0
-3.72799993	6.96659994	0.130999997	200	0	0
-3.727	6.96640015	0.131999999	200	0	0
-3.72199988	6.96679974	0.116999999	200	0	0
-3.72000003	6.96609974	0.118000001	200	0	0
-3.72099996	6.9666996	0.118000001	200	0	0
-3.72099996	6.96619987	0.118000001	200	0	0
-3.72099996	6.96659994	0.116999999	200	0	0
-3.72000003	6.96650076	0.118000001	200	0	0
-3.72000003	6.96630001	0.118000001	200	0	0
-3.72099996	6.96640015	0.118000001	200	0	0
-3.73699999	6.96510029	0.126000002	200	0	0
-3.73000002	6.96570015	0.138999999	200	0	0
-3.73399997	6.96539974	0.136999995	200	0	0
-3.73200011	6.96549988	0.137999997	200	0	0
-3.73200011	6.96560001	0.137999997	200	0	0
-3.73399997	6.96520042	0.128000006	200	0	0
-3.73300004	6.96530104	0.128999993	200	0	0
-3.72900009	6.96580029	0.130999997	200	0	0
-3.727	6.96570015	0.131999999	200	0	0
-3.73000002	6.96539974	0.129999995	200	0	0
-3.73000002	6.96549988	0.129999995	200	0	0
-3.73000002	6.96560001	0.129999995	200	0	0
-3.73099995	6.9659009	0.148000002	200	0	0
-3.7349999	6.9659996	0.144999996	200	0	0
-3.73799992	6.96560001	0.143999994	200	0	0
-3.7349999	6.96580029	0.144999996	200	0	0
-3.73799992	6.96570015	0.143999994	200	0	0
-3.72799993	6.9659009	0.141000003	200	0	0
-3.73000002	6.96580029	0.138999999	200	0	0
-3.73300004	6.96609974	0.145999998	200	0	0
-3.73399997	6.96520042	0.136999995	200	0	0
-3.74300003	6.96530104	0.141000003	200	0	0
-3.73699999	6.96539974	0.143999994	200	0	0
-3.7349999	6.96530104	0.136999995	200	0	0
-3.74099994	6.96580029	0.150999993	200	0	0
-3.7349999	6.96549988	0.144999996	200	0	0
-3.74399996	6.96500015	0.141000003	200	0	0
-3.74399996	6.96510029	0.140000001	200	0	0
-3.74099994	6.96500015	0.133000001	200	0	0
-3.74099994	6.96520042	0.142000005	200	0	0
-3.74099994	6.96510029	0.133000001	200	0	0
-3.73900008	6.96500015	0.125	200	0	0
-3.73000002	6.96689987	0.138999999	200	0	0
-3.73399997	6.96689987	0.145999998	200	0	0
-3.73399997	6.96679974	0.144999996	200	0	0
