-8.29475021	6.65119982	1.80524993	0	255	0
-8.28349972	6.65119982	1.80524993	0	255	0
-8.29475021	6.65119982	1.67449999	0	255	0
-8.28349972	6.65119982	1.67449999	0	255	0
-8.29475021	6.65022469	1.80524993	0	255	0
-8.29475021	6.65022469	1.67449999	0	255	0
-8.28349972	6.65119982	1.6091249	0	255	0
-8.28349972	6.65119982	1.80524993	0	255	0
-8.26099968	6.65119982	1.80524993	0	255	0
-8.26099968	6.65119982	1.6091249	0	255	0
-8.28349972	6.65022469	1.41299999	0	255	0
-8.26099968	6.65022469	1.80524993	0	255	0
-8.26099968	6.65022469	1.6091249	0	255	0
-8.28349972	6.65022469	1.6091249	0	255	0
-8.30599976	6.64973736	1.80524993	0	255	0
-8.30599976	6.65022469	1.67449999	0	255	0
-8.30599976	6.64973736	1.67449999	0	255	0
-8.29475021	6.64925003	1.80524993	0	255	0
-8.29475021	6.64925003	1.67449999	0	255	0
-8.27224922	6.65022469	1.80524993	0	255	0
-8.26099968	6.65022469	1.73987496	0	255	0
-8.26099968	6.65022469	1.67449999	0	255	0
-8.27224922	6.64973736	1.67449999	0	255	0
-8.26099968	6.64973736	1.80524993	0	255	0
-8.26099968	6.64925003	1.80524993	0	255	0
-8.30599976	6.65119982	1.93599999	0	255	0
-8.30599976	6.65119982	1.73987496	0	255	0
-8.26099968	6.65119982	1.73987496	0	255	0
-8.30599976	6.64925003	1.73987496	0	255	0
-8.30599976	6.64925003	1.67449999	0	255	0
-8.26099968	6.64925003	1.73987496	0	255	0
-8.26099968	6.64925003	1.93599999	0	255	0
-8.3172493	6.6487627	1.47837496	0	255	0
-8.3172493	6.6487627	1.54375005	0	255	0
-8.30599976	6.6487627	1.41299999	0	255	0
-8.30599976	6.6487627	1.47837496	0	255	0
-8.3172493	6.64827538	1.41299999	0	255	0
-8.30599976	6.64827538	1.47837496	0	255	0
-8.3172493	6.64827538	1.47837496	0	255	0
-8.3172493	6.64827538	1.47837496	0	255	0
-8.3172493	6.64827538	1.41299999	0	255	0
-8.30599976	6.64827538	1.47837496	0	255	0
-8.32849979	6.64778805	1.47837496	0	255	0
-8.32849979	6.64778805	1.41299999	0	255	0
-8.3172493	6.64778805	1.54375005	0	255	0
-8.32849979	6.64730024	1.47837496	0	255	0
-8.30599976	6.64730024	1.47837496	0	255	0
-8.30599976	6.64925003	1.73987496	0	255	0
-8.30599976	6.64925003	1.80524993	0	255	0
-8.29475021	6.64925003	1.80524993	0	255	0
-8.29475021	6.64925003	1.67449999	0	255	0
-8.28349972	6.64925003	1.73987496	0	255	0
-8.28349972	6.64925003	1.67449999	0	255	0
-8.29475021	6.6487627	1.67449999	0	255	0
-8.28349972	6.6487627	1.80524993	0	255	0
-8.30599976	6.6487627	1.67449999	0	255	0
-8.30599976	6.64827538	1.67449999	0	255	0
-8.28349972	6.64925003	1.93599999	0	255	0
-8.28349972	6.64925003	1.87062502	0	255	0
-8.26099968	6.64925003	1.87062502	0	255	0
-8.28349972	6.64827538	1.87062502	0	255	0
-8.26099968	6.64827538	1.87062502	0	255	0
-8.26099968	6.64827538	1.93599999	0	255	0
-8.30599976	6.64827538	1.73987496	0	255	0
-8.30599976	6.64778805	1.80524993	0	255	0
-8.28349972	6.64778805	1.80524993	0	255	0
-8.29475021	6.64827538	1.67449999	0	255	0
-8.30599976	6.64778805	1.67449999	0	255	0
-8.30599976	6.64730024	1.73987496	0	255	0
-8.28349972	6.64730024	1.73987496	0	255	0
-8.27224922	6.64827538	1.80524993	0	255	0
-8.27224922	6.64827538	1.67449999	0	255	0
-8.27224922	6.64778805	1.67449999	0	255	0
-8.27224922	6.64730024	1.80524993	0	255	0
-8.27224922	6.64730024	1.67449999	0	255	0
-8.29475021	6.64925003	1.60912502	0	255	0
-8.29475021	6.64925003	1.67449999	0	255	0
-8.28349972	6.64925003	1.60912502	0	255	0
-8.30599976	6.6487627	1.60912502	0	255	0
-8.30599976	6.6487627	1.67449999	0	255	0
-8.29475021	6.6487627	1.54375005	0	255	0
-8.30599976	6.64827538	1.60912502	0	255	0
-8.28349972	6.6487627	1.54375005	0	255	0
-8.29475021	6.64827538	1.54375005	0	255	0
-8.28349972	6.64925003	1.60912502	0	255	0
-8.27224922	6.64925003	1.67449999	0	255	0
-8.27224922	6.64925003	1.60912502	0	255	0
-8.27224922	6.6487627	1.54375005	0	255	0
-8.28349972	6.64827538	1.60912502	0	255	0
-8.26099968	6.6487627	1.67449999	0	255	0
-8.26099968	6.6487627	1.60912502	0	255	0
-8.26099968	6.64827538	1.67449999	0	255	0
-8.26099968	6.64827538	1.60912502	0	255	0
-8.30599976	6.64827538	1.54375005	0	255	0
-8.29475021	6.6487627	1.47837496	0	255	0
-8.28349972	6.6487627	1.47837496	0	255	0
-8.28349972	6.6487627	1.41299999	0	255	0
-8.29475021	6.64827538	1.47837496	0	255	0
-8.28349972	6.64827538	1.47837496	0	255	0
-8.29475021	6.64827538	1.41299999	0	255	0
-8.30599976	6.64827538	1.47837496	0	255	0
-8.28349972	6.64827538	1.47837496	0	255	0
-8.29475021	6.64778805	1.54375005	0	255	0
-8.30599976	6.64730024	1.47837496	0	255	0
-8.28349972	6.64730024	1.47837496	0	255	0
-8.27224922	6.64827538	1.67449999	0	255	0
-8.28349972	6.64778805	1.67449999	0	255	0
-8.27224922	6.64778805	1.54375005	0	255	0
-8.27224922	6.64827538	1.54375005	0	255	0
-8.28349972	6.64778805	1.54375005	0	255	0
-8.22724915	6.65119982	1.87062502	0	255	0
-8.22724915	6.65119982	1.93599999	0	255	0
-8.2159996	6.65119982	1.93599999	0	255	0
-8.2159996	6.65119982	1.87062502	0	255	0
-8.22724915	6.65022469	1.93599999	0	255	0
-8.2159996	6.65022469	1.93599999	0	255	0
-8.2159996	6.65022469	1.87062502	0	255	0
-8.22724915	6.65022469	1.87062502	0	255	0
-8.26099968	6.65119982	1.80524993	0	255	0
-8.24975014	6.65119982	1.80524993	0	255	0
-8.26099968	6.65071201	1.80524993	0	255	0
-8.24975014	6.65071201	1.67449999	0	255	0
-8.24975014	6.65119982	1.67449999	0	255	0
-8.26099968	6.65022469	1.80524993	0	255	0
-8.26099968	6.65071201	1.67449999	0	255	0
-8.20475006	6.65119982	1.87062502	0	255	0
-8.20475006	6.65119982	1.93599999	0	255	0
-8.19349957	6.65119982	1.87062502	0	255	0
-8.20475006	6.65022469	1.93599999	0	255	0
-8.19349957	6.65022469	1.87062502	0	255	0
-8.20475006	6.65022469	1.87062502	0	255	0
-8.19349957	6.65119982	1.87062502	0	255	0
-8.17099953	6.65119982	1.93599999	0	255	0
-8.17099953	6.65119982	1.87062502	0	255	0
-8.18224907	6.65071201	1.80524993	0	255	0
-8.19349957	6.65022469	1.87062502	0	255	0
-8.17099953	6.65022469	1.93599999	0	255	0
-8.17099953	6.65022469	1.87062502	0	255	0
-8.20475006	6.65022469	1.73987496	0	255	0
-8.20475006	6.65022469	1.67449999	0	255	0
-8.19349957	6.65022469	1.73987496	0	255	0
-8.2159996	6.64973736	1.73987496	0	255	0
-8.2159996	6.64973736	1.67449999	0	255	0
-8.20475006	6.64973736	1.80524993	0	255	0
-8.2159996	6.64925003	1.73987496	0	255	0
-8.19349957	6.64925003	1.93599999	0	255	0
-8.19349957	6.64925003	1.73987496	0	255	0
-8.19349957	6.64973736	1.87062502	0	255	0
-8.19349957	6.64973736	1.93599999	0	255	0
-8.18224907	6.64973736	1.80524993	0	255	0
-8.18224907	6.64973736	1.87062502	0	255	0
-8.18224907	6.64973736	1.80524993	0	255	0
-8.18224907	6.64925003	1.93599999	0	255	0
-8.18224907	6.64925003	1.87062502	0	255	0
-8.19349957	6.64925003	1.87062502	0	255	0
-8.24975014	6.65119982	1.67449999	0	255	0
-8.26099968	6.65071201	1.67449999	0	255	0
-8.24975014	6.65071201	1.54375005	0	255	0
-8.26099968	6.65119982	1.54375005	0	255	0
-8.24975014	6.65119982	1.54375005	0	255	0
-8.26099968	6.65022469	1.67449999	0	255	0
-8.26099968	6.65071201	1.54375005	0	255	0
-8.24975014	6.65119982	1.41299999	0	255	0
-8.24975014	6.65119982	1.47837496	0	255	0
-8.23849964	6.65119982	1.47837496	0	255	0
-8.23849964	6.65119982	1.41299999	0	255	0
-8.24975014	6.65071201	1.47837496	0	255	0
-8.23849964	6.65071201	1.47837496	0	255	0
-8.23849964	6.65071201	1.41299999	0	255	0
-8.26099968	6.65022469	1.54375005	0	255	0
-8.26099968	6.64973736	1.47837496	0	255	0
-8.26099968	6.64973736	1.41299999	0	255	0
-8.24975014	6.64973736	1.54375005	0	255	0
-8.24975014	6.64973736	1.47837496	0	255	0
-8.24975014	6.64973736	1.54375005	0	255	0
-8.24975014	6.64925003	1.41299999	0	255	0
-8.24975014	6.64925003	1.47837496	0	255	0
-8.26099968	6.64925003	1.47837496	0	255	0
-8.26099968	6.64973736	1.47837496	0	255	0
-8.26099968	6.64973736	1.54375005	0	255	0
-8.24975014	6.64973736	1.41299999	0	255	0
-8.24975014	6.64973736	1.47837496	0	255	0
-8.24975014	6.64973736	1.41299999	0	255	0
-8.24975014	6.64925003	1.54375005	0	255	0
-8.24975014	6.64925003	1.47837496	0	255	0
-8.26099968	6.64925003	1.47837496	0	255	0
-8.2159996	6.64925003	1.87062502	0	255	0
-8.2159996	6.64925003	1.41299999	0	255	0
-8.19349957	6.64925003	1.93599999	0	255	0
-8.19349957	6.64925003	1.87062502	0	255	0
-8.20475006	6.6487627	1.80524993	0	255	0
-8.2159996	6.64827538	1.87062502	0	255	0
-8.19349957	6.64827538	1.87062502	0	255	0
-8.2159996	6.64827538	1.73987496	0	255	0
-8.2159996	6.64827538	1.93599999	0	255	0
-8.19349957	6.64827538	1.73987496	0	255	0
-8.19349957	6.64778805	1.67449999	0	255	0
-8.19349957	6.64778805	1.73987496	0	255	0
-8.20475006	6.64778805	1.80524993	0	255	0
-8.20475006	6.64730024	1.67449999	0	255	0
-8.20475006	6.64730024	1.73987496	0	255	0
-8.2159996	6.64730024	1.73987496	0	255	0
-8.29475021	6.65119982	1.41299999	0	255	0
-8.29475021	6.65071201	1.28224993	0	255	0
-8.28349972	6.65071201	1.41299999	0	255	0
-8.29475021	6.65119982	1.28224993	0	255	0
-8.28349972	6.65071201	1.28224993	0	255	0
-8.30599976	6.65022469	1.41299999	0	255	0
-8.28349972	6.65071201	1.41299999	0	255	0
-8.26099968	6.65071201	1.41299999	0	255	0
-8.26099968	6.65071201	1.28224993	0	255	0
-8.28349972	6.65022469	1.34762502	0	255	0
-8.27224922	6.65022469	1.34762502	0	255	0
-8.27224922	6.65022469	1.28224993	0	255	0
-8.28349972	6.65022469	1.28224993	0	255	0
-8.29475021	6.65119982	1.21687496	0	255	0
-8.29475021	6.65119982	1.28224993	0	255	0
-8.28349972	6.65119982	1.21687496	0	255	0
-8.29475021	6.65071201	1.15149999	0	255	0
-8.28349972	6.65071201	1.28224993	0	255	0
-8.28349972	6.65071201	1.21687496	0	255	0
-8.29475021	6.65071201	1.21687496	0	255	0
-8.28349972	6.65119982	1.0861249	0	255	0
-8.28349972	6.65119982	1.28224993	0	255	0
-8.26099968	6.65119982	1.0861249	0	255	0
-8.28349972	6.65022469	0.889999986	0	255	0
-8.26099968	6.65022469	1.28224993	0	255	0
-8.26099968	6.65022469	1.0861249	0	255	0
-8.28349972	6.65022469	1.0861249	0	255	0
-8.28349972	6.64973736	1.28224993	0	255	0
-8.28349972	6.64973736	1.34762502	0	255	0
-8.27224922	6.64973736	1.34762502	0	255	0
-8.28349972	6.64925003	1.41299999	0	255	0
-8.28349972	6.64925003	1.34762502	0	255	0
-8.27224922	6.64925003	1.34762502	0	255	0
-8.27224922	6.64925003	1.28224993	0	255	0
-8.29475021	6.65022469	1.15149999	0	255	0
-8.29475021	6.65022469	1.21687496	0	255	0
-8.28349972	6.65022469	1.21687496	0	255	0
-8.29475021	6.64973736	1.21687496	0	255	0
-8.28349972	6.64973736	1.21687496	0	255	0
-8.28349972	6.64973736	1.15149999	0	255	0
-8.30599976	6.64925003	1.28224993	0	255	0
-8.28349972	6.65022469	1.21687496	0	255	0
-8.27224922	6.65022469	1.21687496	0	255	0
-8.27224922	6.65022469	1.15149999	0	255	0
-8.28349972	6.64973736	1.21687496	0	255	0
-8.27224922	6.64973736	1.21687496	0	255	0
-8.28349972	6.64973736	1.15149999	0	255	0
-8.30599976	6.65119982	1.41299999	0	255	0
-8.30599976	6.65119982	1.21687496	0	255	0
-8.26099968	6.65119982	1.21687496	0	255	0
-8.26099968	6.65119982	0.889999986	0	255	0
-8.30599976	6.64925003	1.21687496	0	255	0
-8.26099968	6.64925003	1.21687496	0	255	0
-8.26099968	6.64925003	1.41299999	0	255	0
-8.3172493	6.64925003	0.955375016	0	255	0
-8.3172493	6.64925003	0.889999986	0	255	0
-8.30599976	6.64925003	0.955375016	0	255	0
-8.3172493	6.6487627	1.02075005	0	255	0
-8.30599976	6.6487627	0.889999986	0	255	0
-8.30599976	6.6487627	0.955375016	0	255	0
-8.3172493	6.6487627	0.955375016	0	255	0
-8.3172493	6.64827538	0.955375016	0	255	0
-8.3172493	6.64827538	0.889999986	0	255	0
-8.30599976	6.64827538	0.889999986	0	255	0
-8.30599976	6.64827538	0.955375016	0	255	0
-8.30599976	6.64778805	0.889999986	0	255	0
-8.30599976	6.64778805	0.955375016	0	255	0
-8.32849979	6.64778805	0.955375016	0	255	0
-8.32849979	6.64778805	0.889999986	0	255	0
-8.3172493	6.64778805	1.02075005	0	255	0
-8.3172493	6.64730024	0.889999986	0	255	0
-8.3172493	6.64730024	0.955375016	0	255	0
-8.32849979	6.64730024	0.955375016	0	255	0
-8.29475021	6.64925003	1.41299999	0	255	0
-8.30599976	6.6487627	1.41299999	0	255	0
-8.29475021	6.6487627	1.28224993	0	255	0
-8.30599976	6.64925003	1.28224993	0	255	0
-8.28349972	6.64925003	1.34762502	0	255	0
-8.30599976	6.64827538	1.34762502	0	255	0
-8.28349972	6.64827538	1.34762502	0	255	0
-8.29475021	6.64925003	1.21687496	0	255	0
-8.29475021	6.64925003	1.28224993	0	255	0
-8.28349972	6.64925003	1.21687496	0	255	0
-8.29475021	6.6487627	1.15149999	0	255	0
-8.28349972	6.6487627	1.28224993	0	255	0
-8.28349972	6.6487627	1.15149999	0	255	0
-8.29475021	6.64827538	1.21687496	0	255	0
-8.28349972	6.64827538	1.21687496	0	255	0
-8.30599976	6.64730024	1.41299999	0	255	0
-8.29475021	6.64827538	1.15149999	0	255	0
-8.28349972	6.64925003	1.41299999	0	255	0
-8.28349972	6.64925003	1.34762502	0	255	0
-8.26099968	6.64925003	1.34762502	0	255	0
-8.28349972	6.64827538	1.34762502	0	255	0
-8.26099968	6.64827538	1.34762502	0	255	0
-8.26099968	6.64827538	1.41299999	0	255	0
-8.29475021	6.64827538	1.21687496	0	255	0
-8.29475021	6.64827538	1.15149999	0	255	0
-8.28349972	6.64827538	1.15149999	0	255	0
-8.28349972	6.64827538	1.21687496	0	255	0
-8.29475021	6.64778805	1.28224993	0	255	0
-8.28349972	6.64778805	1.15149999	0	255	0
-8.28349972	6.64778805	1.21687496	0	255	0
-8.29475021	6.64778805	1.21687496	0	255	0
-8.30599976	6.64827538	1.21687496	0	255	0
-8.28349972	6.64827538	1.21687496	0	255	0
-8.28349972	6.64778805	1.28224993	0	255	0
-8.28349972	6.64778805	1.21687496	0	255	0
-8.29475021	6.64778805	1.15149999	0	255	0
-8.29475021	6.64730024	1.28224993	0	255	0
-8.30599976	6.64778805	1.15149999	0	255	0
-8.30599976	6.64730024	1.28224993	0	255	0
-8.29475021	6.64730024	1.15149999	0	255	0
-8.30599976	6.64730024	1.15149999	0	255	0
-8.32849979	6.64827538	0.889999986	0	255	0
-8.3172493	6.6487627	1.08612502	0	255	0
-8.30599976	6.6487627	1.08612502	0	255	0
-8.30599976	6.6487627	1.02075005	0	255	0
-8.3172493	6.64827538	1.08612502	0	255	0
-8.30599976	6.64827538	1.08612502	0	255	0
-8.3172493	6.64827538	1.02075005	0	255	0
-8.32849979	6.64925003	1.15149999	0	255	0
-8.32849979	6.64925003	1.08612502	0	255	0
-8.30599976	6.64925003	1.08612502	0	255	0
-8.35099983	6.64730024	1.41299999	0	255	0
-8.32849979	6.64827538	1.08612502	0	255	0
-8.30599976	6.64827538	1.08612502	0	255	0
-8.30599976	6.64827538	1.15149999	0	255	0
-8.32849979	6.64827538	1.02075005	0	255	0
-8.3172493	6.64827538	1.02075005	0	255	0
-8.3172493	6.64827538	1.08612502	0	255	0
-8.30599976	6.64827538	1.08612502	0	255	0
-8.3172493	6.64730024	1.08612502	0	255	0
-8.30599976	6.64730024	1.08612502	0	255	0
-8.3172493	6.64730024	1.02075005	0	255	0
-8.3172493	6.64827538	0.955375016	0	255	0
-8.3172493	6.64827538	1.02075005	0	255	0
-8.30599976	6.64827538	0.955375016	0	255	0
-8.3172493	6.64730024	1.02075005	0	255	0
-8.30599976	6.64730024	0.955375016	0	255	0
-8.3172493	6.64730024	0.955375016	0	255	0
-8.28349972	6.64925003	1.02075005	0	255	0
-8.29475021	6.6487627	1.02075005	0	255	0
-8.28349972	6.64827538	1.02075005	0	255	0
-8.28349972	6.64925003	1.08612502	0	255	0
-8.26099968	6.64925003	1.08612502	0	255	0
-8.27224922	6.6487627	1.02075005	0	255	0
-8.28349972	6.64827538	1.08612502	0	255	0
-8.26099968	6.64827538	1.08612502	0	255	0
-8.30599976	6.64925003	0.955375016	0	255	0
-8.29475021	6.64925003	1.02075005	0	255	0
-8.29475021	6.64925003	0.955375016	0	255	0
-8.29475021	6.6487627	0.889999986	0	255	0
-8.29475021	6.64827538	1.02075005	0	255	0
-8.29475021	6.64827538	0.955375016	0	255	0
-8.30599976	6.64827538	0.955375016	0	255	0
-8.30599976	6.64827538	0.955375016	0	255	0
-8.28349972	6.64827538	0.955375016	0	255	0
-8.29475021	6.64778805	1.02075005	0	255	0
-8.30599976	6.64730024	0.955375016	0	255	0
-8.28349972	6.64730024	1.15149999	0	255	0
-8.28349972	6.64730024	0.955375016	0	255	0
-8.28349972	6.64827538	1.08612502	0	255	0
-8.26099968	6.64827538	1.08612502	0	255	0
-8.26099968	6.64778805	1.15149999	0	255	0
-8.26099968	6.64778805	1.08612502	0	255	0
-8.27224922	6.64778805	1.02075005	0	255	0
-8.27224922	6.64730024	1.15149999	0	255	0
-8.27224922	6.64730024	1.08612502	0	255	0
-8.28349972	6.64730024	1.08612502	0	255	0
-8.30599976	6.64827538	0.955375016	0	255	0
-8.29475021	6.64827538	1.02075005	0	255	0
-8.29475021	6.64827538	0.955375016	0	255	0
-8.30599976	6.64778805	1.02075005	0	255	0
-8.29475021	6.64778805	0.889999986	0	255	0
-8.29475021	6.64778805	0.955375016	0	255	0
-8.30599976	6.64778805	0.955375016	0	255	0
-8.26099968	6.65119982	1.93599999	0	255	0
-8.26099968	6.65119982	1.47837496	0	255	0
-8.2159996	6.65119982	1.47837496	0	255	0
-8.2159996	6.65119982	1.41299999	0	255	0
-8.26099968	6.64925003	1.47837496	0	255	0
-8.26099968	6.64925003	1.41299999	0	255	0
-8.2159996	6.64925003	1.47837496	0	255	0
-8.2159996	6.65119982	1.67449999	0	255	0
-8.2159996	6.65119982	1.60912502	0	255	0
-8.17099953	6.65119982	1.60912502	0	255	0
-8.17099953	6.65119982	0.889999986	0	255	0
-8.2159996	6.64925003	1.60912502	0	255	0
-8.17099953	6.64925003	1.60912502	0	255	0
-8.17099953	6.64925003	1.67449999	0	255	0
-8.2159996	6.64925003	1.54375005	0	255	0
-8.23849964	6.64925003	1.41299999	0	255	0
-8.23849964	6.64925003	1.47837496	0	255	0
-8.2159996	6.64925003	1.47837496	0	255	0
-8.23849964	6.64730024	1.47837496	0	255	0
-8.2159996	6.64730024	1.47837496	0	255	0
-8.23849964	6.64730024	1.41299999	0	255	0
-8.2159996	6.64925003	1.47837496	0	255	0
-8.19349957	6.64925003	1.47837496	0	255	0
-8.19349957	6.64925003	1.41299999	0	255	0
-8.2159996	6.64730024	1.47837496	0	255	0
-8.19349957	6.64730024	1.47837496	0	255	0
-8.19349957	6.64730024	1.41299999	0	255	0
-8.3172493	6.64730024	0.955375016	0	255	0
-8.3172493	6.64730024	0.889999986	0	255	0
-8.30599976	6.64730024	0.955375016	0	255	0
-8.3172493	6.64632511	0.889999986	0	255	0
-8.30599976	6.64632511	0.955375016	0	255	0
-8.3172493	6.64632511	0.955375016	0	255	0
-8.32849979	6.64632511	0.955375016	0	255	0
-8.32849979	6.64632511	1.15149999	0	255	0
-8.30599976	6.64632511	0.955375016	0	255	0
-8.3172493	6.64583778	1.02075005	0	255	0
-8.32849979	6.64535046	0.955375016	0	255	0
-8.30599976	6.64535046	0.955375016	0	255	0
-8.30599976	6.64730024	0.955375016	0	255	0
-8.28349972	6.64730024	0.889999986	0	255	0
-8.28349972	6.64730024	0.955375016	0	255	0
-8.29475021	6.64681244	1.02075005	0	255	0
-8.30599976	6.64632511	0.955375016	0	255	0
-8.28349972	6.64632511	0.955375016	0	255	0
-8.28349972	6.64681244	0.955375016	0	255	0
-8.28349972	6.64681244	0.889999986	0	255	0
-8.27224922	6.64681244	1.02075005	0	255	0
-8.28349972	6.64632511	0.955375016	0	255	0
-8.26099968	6.64681244	0.889999986	0	255	0
-8.26099968	6.64681244	0.955375016	0	255	0
-8.26099968	6.64632511	0.889999986	0	255	0
-8.26099968	6.64632511	0.955375016	0	255	0
-8.30599976	6.64632511	1.08612502	0	255	0
-8.30599976	6.64632511	0.889999986	0	255	0
-8.28349972	6.64632511	1.08612502	0	255	0
-8.29475021	6.64583778	1.02075005	0	255	0
-8.30599976	6.64535046	1.08612502	0	255	0
-8.28349972	6.64535046	0.889999986	0	255	0
-8.28349972	6.64535046	1.08612502	0	255	0
-8.33975029	6.64486313	1.34762502	0	255	0
-8.33975029	6.64486313	1.28224993	0	255	0
-8.32849979	6.64486313	1.41299999	0	255	0
-8.32849979	6.64486313	1.34762502	0	255	0
-8.33975029	6.6443758	1.41299999	0	255	0
-8.32849979	6.6443758	1.34762502	0	255	0
-8.33975029	6.6443758	1.34762502	0	255	0
-8.32849979	6.64535046	1.34762502	0	255	0
-8.32849979	6.64535046	1.41299999	0	255	0
-8.3172493	6.64535046	1.41299999	0	255	0
-8.3172493	6.64535046	1.34762502	0	255	0
-8.32849979	6.64486313	1.41299999	0	255	0
-8.32849979	6.64486313	1.34762502	0	255	0
-8.30599976	6.64486313	1.41299999	0	255	0
-8.30599976	6.64486313	1.34762502	0	255	0
-8.3172493	6.6443758	1.41299999	0	255	0
-8.30599976	6.6443758	1.41299999	0	255	0
-8.30599976	6.6443758	1.34762502	0	255	0
-8.3172493	6.6443758	1.34762502	0	255	0
-8.35099983	6.6443758	1.21687496	0	255	0
-8.35099983	6.6443758	1.41299999	0	255	0
-8.35099983	6.64388847	1.15149999	0	255	0
-8.35099983	6.64388847	1.21687496	0	255	0
-8.32849979	6.6443758	1.21687496	0	255	0
-8.33975029	6.64340067	1.15149999	0	255	0
-8.32849979	6.64340067	1.41299999	0	255	0
-8.32849979	6.64340067	1.21687496	0	255	0
-8.33975029	6.64340067	1.21687496	0	255	0
-8.32849979	6.6443758	1.34762502	0	255	0
-8.3172493	6.6443758	1.41299999	0	255	0
-8.3172493	6.6443758	1.34762502	0	255	0
-8.3172493	6.64388847	1.28224993	0	255	0
-8.32849979	6.64340067	1.34762502	0	255	0
-8.30599976	6.64388847	1.41299999	0	255	0
-8.30599976	6.64388847	1.34762502	0	255	0
-8.30599976	6.64340067	0.889999986	0	255	0
-8.30599976	6.64340067	1.34762502	0	255	0
-8.30599976	6.64535046	0.955375016	0	255	0
-8.28349972	6.64535046	0.955375016	0	255	0
-8.28349972	6.64486313	0.889999986	0	255	0
-8.28349972	6.64486313	0.955375016	0	255	0
-8.29475021	6.64486313	1.02075005	0	255	0
-8.29475021	6.6443758	0.889999986	0	255	0
-8.29475021	6.6443758	0.955375016	0	255	0
-8.30599976	6.6443758	0.955375016	0	255	0
-8.28349972	6.64535046	0.955375016	0	255	0
-8.28349972	6.64486313	0.889999986	0	255	0
-8.28349972	6.64486313	0.955375016	0	255	0
-8.26099968	6.64535046	0.889999986	0	255	0
-8.26099968	6.64535046	0.955375016	0	255	0
-8.26099968	6.64486313	0.889999986	0	255	0
-8.26099968	6.64486313	0.955375016	0	255	0
-8.29475021	6.64388847	1.08612502	0	255	0
-8.29475021	6.64388847	1.02075005	0	255	0
-8.28349972	6.64388847	1.15149999	0	255	0
-8.28349972	6.64388847	1.08612502	0	255	0
-8.29475021	6.64340067	1.15149999	0	255	0
-8.28349972	6.64340067	0.889999986	0	255	0
-8.28349972	6.64340067	1.08612502	0	255	0
-8.29475021	6.64340067	1.08612502	0	255	0
-8.22724915	6.64730024	1.87062502	0	255	0
-8.22724915	6.64730024	1.93599999	0	255	0
-8.2159996	6.64730024	1.87062502	0	255	0
-8.22724915	6.64632511	1.93599999	0	255	0
-8.2159996	6.64632511	1.87062502	0	255	0
-8.22724915	6.64632511	1.87062502	0	255	0
-8.24975014	6.64583778	1.73987496	0	255	0
-8.24975014	6.64583778	1.80524993	0	255	0
-8.23849964	6.64583778	1.67449999	0	255	0
-8.23849964	6.64583778	1.73987496	0	255	0
-8.24975014	6.64535046	1.67449999	0	255	0
-8.23849964	6.64535046	1.93599999	0	255	0
-8.23849964	6.64535046	1.73987496	0	255	0
-8.24975014	6.64535046	1.73987496	0	255	0
-8.22724915	6.64632511	1.87062502	0	255	0
-8.22724915	6.64632511	1.93599999	0	255	0
-8.2159996	6.64632511	1.87062502	0	255	0
-8.22724915	6.64583778	1.80524993	0	255	0
-8.2159996	6.64583778	1.93599999	0	255	0
-8.2159996	6.64583778	1.87062502	0	255	0
-8.22724915	6.64583778	1.87062502	0	255	0
-8.2159996	6.64730024	1.87062502	0	255	0
-8.19349957	6.64730024	1.93599999	0	255	0
-8.19349957	6.64730024	1.87062502	0	255	0
-8.19349957	6.64681244	1.93599999	0	255	0
-8.19349957	6.64681244	1.87062502	0	255	0
-8.20475006	6.64681244	1.80524993	0	255	0
-8.20475006	6.64632511	1.93599999	0	255	0
-8.20475006	6.64632511	1.87062502	0	255	0
-8.2159996	6.64632511	1.87062502	0	255	0
-8.2159996	6.64632511	1.73987496	0	255	0
-8.2159996	6.64632511	1.93599999	0	255	0
-8.20475006	6.64632511	1.67449999	0	255	0
-8.20475006	6.64632511	1.73987496	0	255	0
-8.20475006	6.64583778	1.80524993	0	255	0
-8.20475006	6.64535046	1.67449999	0	255	0
-8.20475006	6.64535046	1.73987496	0	255	0
-8.2159996	6.64535046	1.73987496	0	255	0
-8.26099968	6.64486313	1.47837496	0	255	0
-8.26099968	6.64486313	1.41299999	0	255	0
-8.24975014	6.64486313	1.54375005	0	255	0
-8.24975014	6.64486313	1.47837496	0	255	0
-8.24975014	6.64486313	1.54375005	0	255	0
-8.24975014	6.6443758	1.41299999	0	255	0
-8.24975014	6.6443758	1.47837496	0	255	0
-8.26099968	6.6443758	1.47837496	0	255	0
-8.22724915	6.64535046	1.47837496	0	255	0
-8.22724915	6.64535046	1.41299999	0	255	0
-8.2159996	6.64535046	1.47837496	0	255	0
-8.22724915	6.6443758	1.41299999	0	255	0
-8.2159996	6.6443758	1.47837496	0	255	0
-8.22724915	6.6443758	1.47837496	0	255	0
-8.24975014	6.64388847	1.60912502	0	255	0
-8.24975014	6.64388847	1.54375005	0	255	0
-8.23849964	6.64388847	1.67449999	0	255	0
-8.23849964	6.64388847	1.60912502	0	255	0
-8.24975014	6.64340067	1.67449999	0	255	0
-8.23849964	6.64340067	1.41299999	0	255	0
-8.23849964	6.64340067	1.60912502	0	255	0
-8.24975014	6.64340067	1.60912502	0	255	0
-8.23849964	6.6443758	1.47837496	0	255	0
-8.23849964	6.6443758	1.67449999	0	255	0
-8.2159996	6.6443758	1.47837496	0	255	0
-8.22724915	6.64388847	1.54375005	0	255	0
-8.23849964	6.64340067	1.47837496	0	255	0
-8.2159996	6.64340067	1.93599999	0	255	0
-8.2159996	6.64340067	1.47837496	0	255	0
-8.2159996	6.64535046	1.87062502	0	255	0
-8.20475006	6.64535046	1.93599999	0	255	0
-8.20475006	6.64535046	1.87062502	0	255	0
-8.2159996	6.64486313	1.93599999	0	255	0
-8.20475006	6.64486313	1.80524993	0	255	0
-8.20475006	6.64486313	1.87062502	0	255	0
-8.2159996	6.64486313	1.87062502	0	255	0
-8.2159996	6.6443758	1.73987496	0	255	0
-8.2159996	6.6443758	1.93599999	0	255	0
-8.20475006	6.6443758	1.67449999	0	255	0
-8.20475006	6.6443758	1.73987496	0	255	0
-8.2159996	6.64388847	1.67449999	0	255	0
-8.20475006	6.64388847	1.80524993	0	255	0
-8.20475006	6.64388847	1.73987496	0	255	0
-8.2159996	6.64388847	1.73987496	0	255	0
-8.32849979	6.64730024	1.41299999	0	255	0
-8.32849979	6.64730024	1.34762502	0	255	0
-8.30599976	6.64730024	1.34762502	0	255	0
-8.32849979	6.64632511	1.34762502	0	255	0
-8.30599976	6.64632511	1.34762502	0	255	0
-8.30599976	6.64632511	1.41299999	0	255	0
-8.32849979	6.64632511	1.28224993	0	255	0
-8.3172493	6.64583778	1.28224993	0	255	0
-8.30599976	6.64583778	1.41299999	0	255	0
-8.30599976	6.64583778	1.34762502	0	255	0
-8.3172493	6.64535046	1.41299999	0	255	0
-8.30599976	6.64535046	1.34762502	0	255	0
-8.32849979	6.64583778	1.28224993	0	255	0
-8.32849979	6.64583778	1.34762502	0	255	0
-8.32849979	6.64535046	1.41299999	0	255	0
-8.32849979	6.64535046	1.34762502	0	255	0
-8.3172493	6.64535046	1.28224993	0	255	0
-8.33975029	6.64632511	1.15149999	0	255	0
-8.33975029	6.64632511	1.21687496	0	255	0
-8.32849979	6.64632511	1.21687496	0	255	0
-8.33975029	6.64535046	1.21687496	0	255	0
-8.32849979	6.64535046	1.21687496	0	255	0
-8.33975029	6.64535046	1.15149999	0	255	0
-8.3172493	6.64632511	1.15149999	0	255	0
-8.3172493	6.64632511	1.21687496	0	255	0
-8.30599976	6.64632511	1.21687496	0	255	0
-8.30599976	6.64632511	1.15149999	0	255	0
-8.30599976	6.64583778	1.21687496	0	255	0
-8.30599976	6.64583778	1.15149999	0	255	0
-8.32849979	6.64583778	1.28224993	0	255	0
-8.3172493	6.64583778	1.15149999	0	255	0
-8.3172493	6.64583778	1.15149999	0	255	0
-8.3172493	6.64535046	1.28224993	0	255	0
-8.32849979	6.64583778	1.15149999	0	255	0
-8.3172493	6.64535046	1.15149999	0	255	0
-8.30599976	6.64730024	1.34762502	0	255	0
-8.29475021	6.64730024	1.34762502	0	255	0
-8.29475021	6.64730024	1.28224993	0	255	0
-8.30599976	6.64681244	1.41299999	0	255	0
-8.29475021	6.64681244	1.28224993	0	255	0
-8.29475021	6.64681244	1.28224993	0	255	0
-8.29475021	6.64632511	1.41299999	0	255	0
-8.29475021	6.64632511	1.28224993	0	255	0
-8.28349972	6.64730024	1.28224993	0	255	0
-8.28349972	6.64730024	1.21687496	0	255	0
-8.29475021	6.64730024	1.15149999	0	255	0
-8.29475021	6.64681244	1.15149999	0	255	0
-8.28349972	6.64632511	1.28224993	0	255	0
-8.28349972	6.64632511	1.21687496	0	255	0
-8.29475021	6.64632511	1.15149999	0	255	0
-8.30599976	6.64632511	1.15149999	0	255	0
-8.28349972	6.64730024	1.0861249	0	255	0
-8.28349972	6.64730024	1.28224993	0	255	0
-8.26099968	6.64730024	1.28224993	0	255	0
-8.26099968	6.64730024	1.0861249	0	255	0
-8.28349972	6.64632511	0.889999986	0	255	0
-8.26099968	6.64632511	1.28224993	0	255	0
-8.26099968	6.64632511	1.0861249	0	255	0
-8.28349972	6.64632511	1.0861249	0	255	0
-8.29475021	6.64632511	1.15149999	0	255	0
-8.29475021	6.64632511	1.21687496	0	255	0
-8.28349972	6.64632511	1.21687496	0	255	0
-8.28349972	6.64583778	1.21687496	0	255	0
-8.28349972	6.64583778	1.15149999	0	255	0
-8.30599976	6.64583778	1.28224993	0	255	0
-8.29475021	6.64583778	1.15149999	0	255	0
-8.29475021	6.64583778	1.15149999	0	255	0
-8.29475021	6.64535046	1.28224993	0	255	0
-8.30599976	6.64583778	1.15149999	0	255	0
-8.29475021	6.64535046	1.15149999	0	255	0
-8.3172493	6.64730024	1.15149999	0	255	0
-8.3172493	6.64681244	1.02075005	0	255	0
-8.30599976	6.64681244	1.15149999	0	255	0
-8.32849979	6.64730024	1.02075005	0	255	0
-8.32849979	6.64730024	1.08612502	0	255	0
-8.30599976	6.64730024	1.02075005	0	255	0
-8.32849979	6.64632511	1.08612502	0	255	0
-8.30599976	6.64632511	1.08612502	0	255	0
-8.32849979	6.64730024	1.15149999	0	255	0
-8.32849979	6.64730024	1.08612502	0	255	0
-8.30599976	6.64730024	1.08612502	0	255	0
-8.30599976	6.64730024	0.889999986	0	255	0
-8.32849979	6.64632511	1.08612502	0	255	0
-8.30599976	6.64632511	1.08612502	0	255	0
-8.30599976	6.64632511	1.15149999	0	255	0
-8.33975029	6.64583778	0.955375016	0	255	0
-8.33975029	6.64583778	1.02075005	0	255	0
-8.32849979	6.64583778	0.889999986	0	255	0
-8.32849979	6.64583778	0.955375016	0	255	0
-8.33975029	6.64535046	0.889999986	0	255	0
-8.32849979	6.64535046	0.955375016	0	255	0
-8.33975029	6.64535046	0.955375016	0	255	0
-8.30599976	6.64632511	1.15149999	0	255	0
-8.3172493	6.64583778	1.02075005	0	255	0
-8.30599976	6.64535046	1.02075005	0	255	0
-8.33975029	6.64583778	0.955375016	0	255	0
-8.33975029	6.64583778	0.889999986	0	255	0
-8.32849979	6.64583778	1.02075005	0	255	0
-8.32849979	6.64583778	0.955375016	0	255	0
-8.33975029	6.64535046	1.02075005	0	255	0
-8.32849979	6.64535046	0.955375016	0	255	0
-8.33975029	6.64535046	0.955375016	0	255	0
-8.32849979	6.64632511	0.955375016	0	255	0
-8.30599976	6.64632511	0.955375016	0	255	0
-8.30599976	6.64583778	1.02075005	0	255	0
-8.30599976	6.64583778	0.955375016	0	255	0
-8.3172493	6.64583778	0.889999986	0	255	0
-8.3172493	6.64535046	1.02075005	0	255	0
-8.3172493	6.64535046	0.955375016	0	255	0
-8.32849979	6.64535046	0.955375016	0	255	0
-8.30599976	6.64730024	1.41299999	0	255	0
-8.30599976	6.64730024	1.21687496	0	255	0
-8.26099968	6.64730024	1.21687496	0	255	0
-8.35099983	6.64340067	1.93599999	0	255	0
-8.26099968	6.64632511	1.21687496	0	255	0
-8.26099968	6.64632511	1.15149999	0	255	0
-8.30599976	6.64535046	1.21687496	0	255	0
-8.28349972	6.64535046	1.21687496	0	255	0
-8.28349972	6.64535046	1.15149999	0	255	0
-8.35099983	6.64535046	0.955375016	0	255	0
-8.32849979	6.64535046	0.955375016	0	255	0
-8.33975029	6.64486313	1.02075005	0	255	0
-8.35099983	6.6443758	0.955375016	0	255	0
-8.32849979	6.6443758	0.955375016	0	255	0
-8.32849979	6.64535046	0.955375016	0	255	0
-8.30599976	6.64535046	0.955375016	0	255	0
-8.3172493	6.64486313	1.02075005	0	255	0
-8.32849979	6.6443758	0.955375016	0	255	0
-8.30599976	6.6443758	0.955375016	0	255	0
-8.35099983	6.6443758	1.08612502	0	255	0
-8.35099983	6.6443758	0.889999986	0	255	0
-8.35099983	6.64388847	1.15149999	0	255	0
-8.35099983	6.64388847	1.08612502	0	255	0
-8.32849979	6.6443758	1.08612502	0	255	0
-8.33975029	6.64340067	1.15149999	0	255	0
-8.32849979	6.64340067	0.889999986	0	255	0
-8.32849979	6.64340067	1.08612502	0	255	0
-8.33975029	6.64340067	1.08612502	0	255	0
-8.32849979	6.6443758	0.955375016	0	255	0
-8.30599976	6.6443758	0.955375016	0	255	0
-8.3172493	6.64388847	1.02075005	0	255	0
-8.32849979	6.64340067	0.955375016	0	255	0
-8.30599976	6.64340067	1.41299999	0	255	0
-8.30599976	6.64340067	0.955375016	0	255	0
-8.30599976	6.64535046	1.28224993	0	255	0
-8.29475021	6.64535046	1.28224993	0	255	0
-8.30599976	6.64486313	1.28224993	0	255	0
-8.29475021	6.64486313	1.15149999	0	255	0
-8.29475021	6.64535046	1.15149999	0	255	0
-8.30599976	6.6443758	1.28224993	0	255	0
-8.30599976	6.64486313	1.15149999	0	255	0
-8.35099983	6.6443758	1.15149999	0	255	0
-8.33975029	6.64486313	1.08612502	0	255	0
-8.32849979	6.64486313	1.08612502	0	255	0
-8.32849979	6.64486313	1.02075005	0	255	0
-8.33975029	6.6443758	1.08612502	0	255	0
-8.32849979	6.6443758	1.08612502	0	255	0
-8.33975029	6.6443758	1.02075005	0	255	0
-8.32849979	6.64535046	1.02075005	0	255	0
-8.32849979	6.64535046	1.08612502	0	255	0
-8.30599976	6.64535046	1.08612502	0	255	0
-8.30599976	6.64535046	1.02075005	0	255	0
-8.32849979	6.64486313	1.15149999	0	255	0
-8.3172493	6.64486313	1.02075005	0	255	0
-8.3172493	6.64486313	1.02075005	0	255	0
-8.3172493	6.6443758	1.15149999	0	255	0
-8.30599976	6.6443758	1.08612502	0	255	0
-8.33975029	6.64486313	0.955375016	0	255	0
-8.33975029	6.64486313	0.889999986	0	255	0
-8.32849979	6.64486313	1.02075005	0	255	0
-8.32849979	6.64486313	0.955375016	0	255	0
-8.33975029	6.6443758	1.02075005	0	255	0
-8.32849979	6.6443758	0.955375016	0	255	0
-8.33975029	6.6443758	0.955375016	0	255	0
-8.32849979	6.64535046	1.15149999	0	255	0
-8.32849979	6.64535046	1.08612502	0	255	0
-8.30599976	6.64535046	1.08612502	0	255	0
-8.35099983	6.64340067	1.41299999	0	255	0
-8.32849979	6.6443758	1.08612502	0	255	0
-8.30599976	6.6443758	1.08612502	0	255	0
-8.30599976	6.6443758	1.15149999	0	255	0
-8.33975029	6.6443758	0.955375016	0	255	0
-8.33975029	6.6443758	0.889999986	0	255	0
-8.32849979	6.6443758	0.955375016	0	255	0
-8.33975029	6.64340067	0.889999986	0	255	0
-8.32849979	6.64340067	0.955375016	0	255	0
-8.33975029	6.64340067	0.955375016	0	255	0
-8.3172493	6.6443758	1.15149999	0	255	0
-8.30599976	6.6443758	1.15149999	0	255	0
-8.30599976	6.64388847	1.15149999	0	255	0
-8.32849979	6.6443758	1.08612502	0	255	0
-8.32849979	6.64388847	1.15149999	0	255	0
-8.3172493	6.64388847	1.02075005	0	255	0
-8.3172493	6.64340067	1.15149999	0	255	0
-8.32849979	6.64340067	1.02075005	0	255	0
-8.30599976	6.64340067	1.08612502	0	255	0
-8.30599976	6.64340067	1.02075005	0	255	0
-8.35099983	6.6443758	0.955375016	0	255	0
-8.35099983	6.6443758	1.02075005	0	255	0
-8.32849979	6.6443758	0.955375016	0	255	0
-8.32849979	6.64388847	1.02075005	0	255	0
-8.32849979	6.64388847	0.955375016	0	255	0
-8.33975029	6.64388847	0.889999986	0	255	0
-8.33975029	6.64340067	1.02075005	0	255	0
-8.33975029	6.64340067	0.955375016	0	255	0
-8.35099983	6.64340067	0.955375016	0	255	0
-8.32849979	6.6443758	0.955375016	0	255	0
-8.3172493	6.6443758	1.02075005	0	255	0
-8.3172493	6.6443758	0.955375016	0	255	0
-8.3172493	6.64388847	0.889999986	0	255	0
-8.3172493	6.64340067	1.02075005	0	255	0
-8.3172493	6.64340067	0.955375016	0	255	0
-8.32849979	6.64340067	0.955375016	0	255	0
-8.30599976	6.64535046	1.08612502	0	255	0
-8.29475021	6.64535046	1.15149999	0	255	0
-8.29475021	6.64535046	1.08612502	0	255	0
-8.29475021	6.64486313	1.02075005	0	255	0
-8.29475021	6.6443758	1.15149999	0	255	0
-8.29475021	6.6443758	1.08612502	0	255	0
-8.30599976	6.6443758	1.08612502	0	255	0
-8.27224922	6.6443758	0.889999986	0	255	0
-8.27224922	6.6443758	0.955375016	0	255	0
-8.26099968	6.6443758	0.955375016	0	255	0
-8.26099968	6.6443758	0.889999986	0	255	0
-8.27224922	6.64340067	0.955375016	0	255	0
-8.26099968	6.64340067	0.955375016	0	255	0
-8.27224922	6.64340067	0.889999986	0	255	0
-8.24975014	6.64730024	1.02075005	0	255	0
-8.23849964	6.64730024	1.02075005	0	255	0
-8.24975014	6.64730024	0.889999986	0	255	0
-8.23849964	6.64730024	0.889999986	0	255	0
-8.24975014	6.64632511	1.02075005	0	255	0
-8.24975014	6.64632511	0.889999986	0	255	0
-8.23849964	6.64730024	1.15149999	0	255	0
-8.23849964	6.64730024	1.08612502	0	255	0
-8.2159996	6.64730024	1.08612502	0	255	0
-8.2159996	6.64730024	0.889999986	0	255	0
-8.23849964	6.64632511	1.08612502	0	255	0
-8.2159996	6.64632511	1.08612502	0	255	0
-8.2159996	6.64632511	1.15149999	0	255	0
-8.24975014	6.64632511	1.02075005	0	255	0
-8.24975014	6.64632511	0.889999986	0	255	0
-8.26099968	6.64583778	1.02075005	0	255	0
-8.24975014	6.64583778	0.889999986	0	255	0
-8.26099968	6.64583778	0.889999986	0	255	0
-8.23849964	6.64632511	0.955375016	0	255	0
-8.2159996	6.64632511	0.955375016	0	255	0
-8.2159996	6.64632511	0.889999986	0	255	0
-8.2159996	6.64583778	0.955375016	0	255	0
-8.2159996	6.64583778	0.889999986	0	255	0
-8.23849964	6.64535046	0.955375016	0	255	0
-8.22724915	6.64535046	0.955375016	0	255	0
-8.22724915	6.64535046	0.889999986	0	255	0
-8.2159996	6.64730024	1.41299999	0	255	0
-8.2159996	6.64730024	1.21687496	0	255	0
-8.19349957	6.64730024	1.21687496	0	255	0
-8.19349957	6.64730024	1.15149999	0	255	0
-8.2159996	6.64632511	1.21687496	0	255	0
-8.19349957	6.64632511	1.21687496	0	255	0
-8.2159996	6.64535046	1.28224993	0	255	0
-8.2159996	6.64632511	1.15149999	0	255	0
-8.26099968	6.64535046	1.02075005	0	255	0
-8.24975014	6.64535046	1.02075005	0	255	0
-8.23849964	6.64535046	0.955375016	0	255	0
-8.23849964	6.64535046	0.889999986	0	255	0
-8.24975014	6.64486313	0.889999986	0	255	0
-8.24975014	6.6443758	1.02075005	0	255	0
-8.23849964	6.6443758	0.955375016	0	255	0
-8.23849964	6.64535046	1.15149999	0	255	0
-8.23849964	6.64535046	1.08612502	0	255	0
-8.2159996	6.64535046	1.08612502	0	255	0
-8.26099968	6.64340067	1.41299999	0	255	0
-8.23849964	6.6443758	1.08612502	0	255	0
-8.2159996	6.6443758	1.08612502	0	255	0
-8.2159996	6.6443758	1.15149999	0	255	0
-8.23849964	6.6443758	1.02075005	0	255	0
-8.26099968	6.6443758	0.955375016	0	255	0
-8.23849964	6.6443758	0.955375016	0	255	0
-8.26099968	6.64340067	0.955375016	0	255	0
-8.23849964	6.64340067	0.955375016	0	255	0
-8.23849964	6.6443758	0.955375016	0	255	0
-8.2159996	6.6443758	0.955375016	0	255	0
-8.2159996	6.6443758	0.889999986	0	255	0
-8.2159996	6.64388847	0.955375016	0	255	0
-8.2159996	6.64388847	0.889999986	0	255	0
-8.23849964	6.64340067	0.955375016	0	255	0
-8.22724915	6.64340067	0.955375016	0	255	0
-8.22724915	6.64340067	0.889999986	0	255	0
