-3.0161252	68558.625	3.20050001	0	255	0
-3.0161252	68558.625	3.46287489	0	255	0
-3.00325012	68558.625	3.46287489	0	255	0
-3.0161252	68557.9375	3.46287489	0	255	0
-3.00325012	68557.9375	3.46287489	0	255	0
-3.00325012	68557.9375	3.20050001	0	255	0
-3.02900004	68557.25	3.72525001	0	255	0
-2.99037504	68558.625	3.20050001	0	255	0
-2.99037504	68558.625	3.46287489	0	255	0
-2.97749996	68558.625	3.46287489	0	255	0
-2.97749996	68558.625	3.20050001	0	255	0
-2.99037504	68557.9375	3.46287489	0	255	0
-2.97749996	68557.9375	3.46287489	0	255	0
-2.97749996	68557.9375	3.20050001	0	255	0
-3.00325012	68557.25	3.72525001	0	255	0
-2.97749996	68558.625	3.20050001	0	255	0
-2.97749996	68558.625	3.46287489	0	255	0
-2.97749996	68557.9375	3.46287489	0	255	0
-2.97749996	68557.9375	3.20050001	0	255	0
-2.95175004	68558.625	3.46287489	0	255	0
-2.95175004	68557.9375	3.46287489	0	255	0
-2.95175004	68557.9375	3.20050001	0	255	0
-2.97749996	68558.625	3.20050001	0	255	0
-2.97749996	68558.625	3.46287489	0	255	0
-2.97749996	68557.25	3.46287489	0	255	0
-2.92600012	68558.625	3.46287489	0	255	0
-2.92600012	68558.625	3.20050001	0	255	0
-2.92600012	68557.25	3.46287489	0	255	0
-2.92600012	68557.25	4.25	0	255	0
-3.02900004	68557.25	2.4133749	0	255	0
-3.02900004	68556.5625	2.15100002	0	255	0
-3.02900004	68556.5625	2.4133749	0	255	0
-3.00325012	68557.25	2.4133749	0	255	0
-3.0161252	68555.875	2.15100002	0	255	0
-3.00325012	68555.875	3.20050001	0	255	0
-3.00325012	68555.875	2.4133749	0	255	0
-3.0161252	68555.875	2.4133749	0	255	0
-3.00325012	68557.25	2.4133749	0	255	0
-2.97749996	68557.25	2.4133749	0	255	0
-2.99037504	68556.5625	2.67575002	0	255	0
-3.00325012	68555.875	2.4133749	0	255	0
-2.97749996	68555.875	2.15100002	0	255	0
-2.97749996	68555.875	2.4133749	0	255	0
-3.0161252	68555.1875	2.93812513	0	255	0
-3.0161252	68555.1875	2.67575002	0	255	0
-3.00325012	68555.1875	3.20050001	0	255	0
-3.00325012	68555.1875	2.93812513	0	255	0
-3.0161252	68554.5	3.20050001	0	255	0
-3.00325012	68554.5	2.15100002	0	255	0
-3.00325012	68554.5	2.93812513	0	255	0
-3.0161252	68554.5	2.93812513	0	255	0
-3.00325012	68555.1875	2.4133749	0	255	0
-3.00325012	68555.1875	2.15100002	0	255	0
-2.99037504	68555.1875	2.67575002	0	255	0
-3.00325012	68554.5	2.4133749	0	255	0
-2.97749996	68555.1875	2.15100002	0	255	0
-2.97749996	68555.1875	2.4133749	0	255	0
-2.97749996	68554.5	4.25	0	255	0
-2.97749996	68554.5	2.4133749	0	255	0
-2.97749996	68557.25	3.72525001	0	255	0
-2.96462488	68557.25	3.72525001	0	255	0
-2.97749996	68556.5625	3.72525001	0	255	0
-2.96462488	68556.5625	3.20050001	0	255	0
-2.96462488	68557.25	3.20050001	0	255	0
-2.97749996	68555.875	3.46287489	0	255	0
-2.96462488	68555.875	3.46287489	0	255	0
-2.96462488	68555.875	3.20050001	0	255	0
-2.97749996	68555.875	3.20050001	0	255	0
-2.97749996	68557.25	2.93812513	0	255	0
-2.97749996	68556.5625	3.20050001	0	255	0
-2.97749996	68556.5625	2.93812513	0	255	0
-2.95175004	68557.25	3.20050001	0	255	0
-2.95175004	68556.5625	3.20050001	0	255	0
-2.96462488	68557.25	2.67575002	0	255	0
-2.95175004	68556.5625	2.67575002	0	255	0
-2.97749996	68555.875	3.20050001	0	255	0
-2.95175004	68557.25	2.93812513	0	255	0
-2.9388752	68557.25	2.93812513	0	255	0
-2.9388752	68557.25	2.67575002	0	255	0
-2.95175004	68556.5625	2.93812513	0	255	0
-2.9388752	68556.5625	2.93812513	0	255	0
-2.95175004	68555.875	2.15100002	0	255	0
-2.95175004	68556.5625	2.67575002	0	255	0
-2.95175004	68557.25	3.20050001	0	255	0
-2.95175004	68557.25	2.93812513	0	255	0
-2.92600012	68557.25	2.93812513	0	255	0
-2.92600012	68557.25	2.15100002	0	255	0
-2.95175004	68555.875	2.93812513	0	255	0
-2.92600012	68555.875	2.93812513	0	255	0
-2.92600012	68555.875	3.20050001	0	255	0
-2.95175004	68555.875	2.67575002	0	255	0
-2.96462488	68555.1875	2.4133749	0	255	0
-2.96462488	68555.1875	2.15100002	0	255	0
-2.95175004	68555.1875	2.67575002	0	255	0
-2.95175004	68555.1875	2.4133749	0	255	0
-2.96462488	68554.5	2.67575002	0	255	0
-2.95175004	68554.5	2.67575002	0	255	0
-2.95175004	68554.5	2.4133749	0	255	0
-2.96462488	68554.5	2.4133749	0	255	0
-2.95175004	68555.1875	2.4133749	0	255	0
-2.95175004	68555.1875	2.67575002	0	255	0
-2.9388752	68555.1875	2.15100002	0	255	0
-2.9388752	68555.1875	2.4133749	0	255	0
-2.9388752	68555.1875	2.15100002	0	255	0
-2.9388752	68554.5	2.67575002	0	255	0
-2.9388752	68554.5	2.4133749	0	255	0
-2.95175004	68554.5	2.4133749	0	255	0
-2.92600012	68558.625	2.15100002	0	255	0
-2.92600012	68558.625	2.4133749	0	255	0
-2.91312504	68558.625	2.4133749	0	255	0
-2.91312504	68558.625	2.15100002	0	255	0
-2.92600012	68557.9375	2.4133749	0	255	0
-2.91312504	68557.9375	2.4133749	0	255	0
-2.92600012	68557.25	2.67575002	0	255	0
-2.92600012	68557.9375	2.15100002	0	255	0
-2.92600012	68557.25	2.15100002	0	255	0
-2.92600012	68557.25	2.4133749	0	255	0
-2.91312504	68557.25	2.4133749	0	255	0
-2.91312504	68557.25	2.15100002	0	255	0
-2.92600012	68556.5625	2.4133749	0	255	0
-2.91312504	68556.5625	2.4133749	0	255	0
-2.92600012	68555.875	2.67575002	0	255	0
-2.92600012	68556.5625	2.15100002	0	255	0
-2.9388752	68556.5625	1.88862503	0	255	0
-2.9388752	68556.5625	1.62625003	0	255	0
-2.92600012	68556.5625	2.15100002	0	255	0
-2.92600012	68556.5625	1.88862503	0	255	0
-2.9388752	68555.875	2.15100002	0	255	0
-2.92600012	68555.875	2.15100002	0	255	0
-2.92600012	68555.875	1.88862503	0	255	0
-2.9388752	68555.875	1.88862503	0	255	0
-2.9388752	68555.1875	1.88862503	0	255	0
-2.9388752	68555.1875	1.62625003	0	255	0
-2.92600012	68555.1875	2.15100002	0	255	0
-2.92600012	68555.1875	1.88862503	0	255	0
-2.9388752	68554.5	2.15100002	0	255	0
-2.92600012	68554.5	1.88862503	0	255	0
-2.9388752	68554.5	1.88862503	0	255	0
-2.92600012	68558.625	2.15100002	0	255	0
-2.92600012	68558.625	2.4133749	0	255	0
-2.92600012	68557.25	2.4133749	0	255	0
-2.87450004	68558.625	2.4133749	0	255	0
-2.87450004	68558.625	2.15100002	0	255	0
-2.87450004	68557.25	2.4133749	0	255	0
-2.87450004	68560	3.20050001	0	255	0
-2.87450004	68560	2.93812513	0	255	0
-2.82299995	68560	2.93812513	0	255	0
-2.82299995	68560	0.0520000011	0	255	0
-2.87450004	68557.25	2.93812513	0	255	0
-2.82299995	68557.25	2.93812513	0	255	0
-2.82299995	68557.25	3.20050001	0	255	0
-2.87450004	68557.25	2.67575002	0	255	0
-2.92600012	68557.25	2.4133749	0	255	0
-2.87450004	68557.25	2.4133749	0	255	0
-2.92600012	68554.5	2.4133749	0	255	0
-2.87450004	68554.5	2.4133749	0	255	0
-2.87450004	68557.25	2.4133749	0	255	0
-2.82299995	68557.25	2.4133749	0	255	0
-2.82299995	68557.25	2.15100002	0	255	0
-2.87450004	68554.5	2.4133749	0	255	0
-2.82299995	68554.5	2.4133749	0	255	0
-2.82299995	68554.5	4.25	0	255	0
-3.02900004	68554.5	0.314374983	0	255	0
-3.02900004	68554.5	4.25	0	255	0
-3.02900004	68553.8125	0.0520000011	0	255	0
-3.02900004	68553.8125	0.314374983	0	255	0
-3.00325012	68554.5	0.0520000011	0	255	0
-3.00325012	68554.5	0.314374983	0	255	0
-3.00325012	68553.8125	0.0520000011	0	255	0
-3.00325012	68553.8125	0.314374983	0	255	0
-2.99037504	68554.5	0.314374983	0	255	0
-2.99037504	68554.5	0.0520000011	0	255	0
-2.97749996	68554.5	0.0520000011	0	255	0
-2.97749996	68554.5	0.314374983	0	255	0
-2.99037504	68553.8125	0.57674998	0	255	0
-2.97749996	68553.8125	0.0520000011	0	255	0
-2.97749996	68553.8125	0.314374983	0	255	0
-2.99037504	68553.8125	0.314374983	0	255	0
-3.02900004	68553.125	0.839125037	0	255	0
-3.02900004	68553.125	0.0520000011	0	255	0
-3.0161252	68553.125	1.10150003	0	255	0
-3.0161252	68553.125	0.839125037	0	255	0
-3.0161252	68552.4375	0.57674998	0	255	0
-3.02900004	68551.75	0.839125037	0	255	0
-3.00325012	68552.4375	1.10150003	0	255	0
-3.00325012	68552.4375	0.839125037	0	255	0
-3.00325012	68551.75	0.0520000011	0	255	0
-3.00325012	68551.75	0.839125037	0	255	0
-2.99037504	68553.125	0.314374983	0	255	0
-2.99037504	68553.125	0.0520000011	0	255	0
-2.97749996	68553.125	0.0520000011	0	255	0
-2.97749996	68553.125	0.314374983	0	255	0
-3.00325012	68552.4375	0.314374983	0	255	0
-3.00325012	68552.4375	0.0520000011	0	255	0
-2.99037504	68552.4375	0.57674998	0	255	0
-3.00325012	68551.75	0.314374983	0	255	0
-2.97749996	68551.75	2.15100002	0	255	0
-2.97749996	68551.75	0.314374983	0	255	0
-2.96462488	68554.5	0.314374983	0	255	0
-2.96462488	68554.5	0.0520000011	0	255	0
-2.95175004	68554.5	0.0520000011	0	255	0
-2.95175004	68554.5	0.314374983	0	255	0
-2.96462488	68553.8125	0.57674998	0	255	0
-2.95175004	68553.8125	0.0520000011	0	255	0
-2.95175004	68553.8125	0.314374983	0	255	0
-2.96462488	68553.8125	0.314374983	0	255	0
-2.97749996	68553.125	0.839125037	0	255	0
-2.97749996	68553.125	0.0520000011	0	255	0
-2.95175004	68553.125	1.10150003	0	255	0
-2.95175004	68553.125	0.839125037	0	255	0
-2.96462488	68552.4375	0.57674998	0	255	0
-2.97749996	68551.75	0.839125037	0	255	0
-2.95175004	68551.75	0.0520000011	0	255	0
-2.95175004	68551.75	0.839125037	0	255	0
-2.95175004	68552.4375	0.314374983	0	255	0
-2.95175004	68552.4375	0.0520000011	0	255	0
-2.9388752	68552.4375	0.57674998	0	255	0
-2.9388752	68552.4375	0.314374983	0	255	0
-2.9388752	68552.4375	0.57674998	0	255	0
-2.9388752	68551.75	0.0520000011	0	255	0
-2.9388752	68551.75	0.314374983	0	255	0
-2.95175004	68551.75	0.314374983	0	255	0
-3.02900004	68551.0625	1.88862503	0	255	0
-3.02900004	68551.0625	2.15100002	0	255	0
-3.0161252	68551.0625	1.62625003	0	255	0
-3.02900004	68550.375	1.88862503	0	255	0
-3.00325012	68551.0625	2.15100002	0	255	0
-3.00325012	68551.0625	1.88862503	0	255	0
-3.00325012	68550.375	1.10150003	0	255	0
-3.00325012	68550.375	1.88862503	0	255	0
-3.00325012	68551.0625	1.88862503	0	255	0
-3.00325012	68551.0625	2.15100002	0	255	0
-2.99037504	68551.0625	1.62625003	0	255	0
-3.00325012	68550.375	1.88862503	0	255	0
-2.97749996	68551.0625	2.15100002	0	255	0
-2.97749996	68551.0625	1.88862503	0	255	0
-2.97749996	68550.375	2.15100002	0	255	0
-2.97749996	68550.375	1.88862503	0	255	0
-2.97749996	68551.0625	0.314374983	0	255	0
-2.97749996	68551.0625	0.0520000011	0	255	0
-2.96462488	68551.0625	0.57674998	0	255	0
-2.97749996	68550.375	0.314374983	0	255	0
-2.95175004	68551.0625	0.0520000011	0	255	0
-2.95175004	68551.0625	0.314374983	0	255	0
-2.95175004	68550.375	1.10150003	0	255	0
-2.95175004	68550.375	0.314374983	0	255	0
-2.95175004	68551.0625	0.314374983	0	255	0
-2.95175004	68551.0625	0.0520000011	0	255	0
-2.9388752	68551.0625	0.57674998	0	255	0
-2.95175004	68550.375	0.314374983	0	255	0
-2.92600012	68551.0625	0.0520000011	0	255	0
-2.92600012	68551.0625	0.314374983	0	255	0
-2.92600012	68550.375	0.0520000011	0	255	0
-2.92600012	68550.375	0.314374983	0	255	0
-2.92600012	68551.0625	2.15100002	0	255	0
-2.92600012	68551.0625	2.4133749	0	255	0
-2.91312504	68551.0625	2.4133749	0	255	0
-2.92600012	68550.375	2.67575002	0	255	0
-2.92600012	68550.375	2.4133749	0	255	0
-2.91312504	68550.375	2.4133749	0	255	0
-2.91312504	68550.375	2.15100002	0	255	0
-2.92600012	68550.375	2.15100002	0	255	0
-2.9388752	68550.375	1.88862503	0	255	0
-2.9388752	68550.375	2.15100002	0	255	0
-2.92600012	68550.375	2.15100002	0	255	0
-2.92600012	68550.375	1.88862503	0	255	0
-2.9388752	68549.6875	1.62625003	0	255	0
-2.92600012	68549.6875	2.15100002	0	255	0
-2.92600012	68549.6875	1.88862503	0	255	0
-2.9388752	68549.6875	1.88862503	0	255	0
-2.91312504	68554.5	2.15100002	0	255	0
-2.92600012	68553.8125	2.15100002	0	255	0
-2.91312504	68553.8125	1.62625003	0	255	0
-2.92600012	68554.5	1.62625003	0	255	0
-2.91312504	68554.5	1.62625003	0	255	0
-2.92600012	68553.8125	1.62625003	0	255	0
-2.90024996	68554.5	2.15100002	0	255	0
-2.90024996	68554.5	1.88862503	0	255	0
-2.87450004	68554.5	1.88862503	0	255	0
-2.90024996	68553.125	1.88862503	0	255	0
-2.87450004	68553.125	1.88862503	0	255	0
-2.87450004	68553.125	2.15100002	0	255	0
-2.90024996	68553.125	1.62625003	0	255	0
-2.92600012	68553.125	1.36387503	0	255	0
-2.91312504	68553.125	1.10150003	0	255	0
-2.91312504	68553.125	1.36387503	0	255	0
-2.91312504	68552.4375	1.62625003	0	255	0
-2.92600012	68551.75	1.36387503	0	255	0
-2.90024996	68552.4375	1.10150003	0	255	0
-2.90024996	68552.4375	1.36387503	0	255	0
-2.90024996	68551.75	2.15100002	0	255	0
-2.90024996	68551.75	1.36387503	0	255	0
-2.91312504	68553.125	1.10150003	0	255	0
-2.91312504	68553.125	1.36387503	0	255	0
-2.90024996	68553.125	1.36387503	0	255	0
-2.90024996	68552.4375	1.10150003	0	255	0
-2.92600012	68551.75	1.62625003	0	255	0
-2.91312504	68552.4375	1.10150003	0	255	0
-2.90024996	68552.4375	1.62625003	0	255	0
-2.91312504	68551.75	1.62625003	0	255	0
-2.90024996	68551.75	1.36387503	0	255	0
-2.91312504	68551.75	1.36387503	0	255	0
-2.90024996	68553.125	1.36387503	0	255	0
-2.87450004	68553.125	1.36387503	0	255	0
-2.87450004	68553.125	1.10150003	0	255	0
-2.87450004	68552.4375	1.36387503	0	255	0
-2.87450004	68552.4375	1.10150003	0	255	0
-2.90024996	68552.4375	1.62625003	0	255	0
-2.88737488	68552.4375	1.10150003	0	255	0
-2.88737488	68552.4375	1.10150003	0	255	0
-2.88737488	68551.75	1.62625003	0	255	0
-2.88737488	68551.75	1.10150003	0	255	0
-2.90024996	68551.75	1.10150003	0	255	0
-2.90024996	68554.5	0.839125037	0	255	0
-2.90024996	68554.5	1.10150003	0	255	0
-2.90024996	68553.8125	1.10150003	0	255	0
-2.90024996	68553.8125	0.839125037	0	255	0
-2.87450004	68554.5	0.839125037	0	255	0
-2.87450004	68553.8125	1.10150003	0	255	0
-2.87450004	68553.8125	0.839125037	0	255	0
-2.87450004	68554.5	2.15100002	0	255	0
-2.87450004	68554.5	1.36387503	0	255	0
-2.82299995	68554.5	1.36387503	0	255	0
-2.82299995	68554.5	0.0520000011	0	255	0
-2.87450004	68551.75	1.36387503	0	255	0
-2.87450004	68551.75	1.10150003	0	255	0
-2.82299995	68551.75	1.36387503	0	255	0
-2.82299995	68551.75	2.15100002	0	255	0
-2.92600012	68551.0625	0.314374983	0	255	0
-2.92600012	68551.0625	0.0520000011	0	255	0
-2.91312504	68551.0625	0.57674998	0	255	0
-2.92600012	68550.375	0.314374983	0	255	0
-2.90024996	68551.0625	0.0520000011	0	255	0
-2.90024996	68551.0625	0.314374983	0	255	0
-2.90024996	68550.375	0.314374983	0	255	0
-2.90024996	68551.0625	0.314374983	0	255	0
-2.90024996	68551.0625	0.0520000011	0	255	0
-2.88737488	68551.0625	0.57674998	0	255	0
-2.90024996	68550.375	0.314374983	0	255	0
-2.87450004	68551.0625	0.0520000011	0	255	0
-2.87450004	68551.0625	0.314374983	0	255	0
-2.87450004	68550.375	0.314374983	0	255	0
-2.92600012	68550.375	0.839125037	0	255	0
-2.92600012	68550.375	0.0520000011	0	255	0
-2.92600012	68549.6875	1.10150003	0	255	0
-2.92600012	68549.6875	0.839125037	0	255	0
-2.90024996	68550.375	0.839125037	0	255	0
-2.90024996	68549.6875	1.10150003	0	255	0
-2.90024996	68549.6875	0.839125037	0	255	0
-2.90024996	68550.375	0.314374983	0	255	0
-2.90024996	68549.6875	0.0520000011	0	255	0
-2.90024996	68549.6875	0.314374983	0	255	0
-2.87450004	68550.375	0.314374983	0	255	0
-2.87450004	68549.6875	0.0520000011	0	255	0
-2.87450004	68549.6875	0.314374983	0	255	0
-2.87450004	68551.0625	1.10150003	0	255	0
-2.87450004	68551.0625	1.36387503	0	255	0
-2.86162519	68551.0625	1.36387503	0	255	0
-2.87450004	68550.375	1.62625003	0	255	0
-2.87450004	68550.375	1.36387503	0	255	0
-2.86162519	68550.375	1.36387503	0	255	0
-2.86162519	68550.375	1.10150003	0	255	0
-2.87450004	68550.375	1.36387503	0	255	0
-2.86162519	68550.375	1.36387503	0	255	0
-2.86162519	68550.375	1.10150003	0	255	0
-2.87450004	68549.6875	1.36387503	0	255	0
-2.86162519	68549.6875	1.36387503	0	255	0
-2.87450004	68549	1.62625003	0	255	0
-2.87450004	68549.6875	1.10150003	0	255	0
-2.88737488	68551.0625	0.839125037	0	255	0
-2.88737488	68551.0625	0.57675004	0	255	0
-2.87450004	68551.0625	1.10150003	0	255	0
-2.87450004	68551.0625	0.839125037	0	255	0
-2.88737488	68550.375	1.10150003	0	255	0
-2.87450004	68550.375	0.839125037	0	255	0
-2.88737488	68550.375	0.839125037	0	255	0
-2.88737488	68550.375	0.839125037	0	255	0
-2.88737488	68550.375	1.10150003	0	255	0
-2.87450004	68550.375	0.839125037	0	255	0
-2.88737488	68549.6875	0.57675004	0	255	0
-2.87450004	68549.6875	1.10150003	0	255	0
-2.87450004	68549.6875	0.839125037	0	255	0
-2.88737488	68549.6875	0.839125037	0	255	0
-2.87450004	68551.0625	1.10150003	0	255	0
-2.86162519	68551.0625	0.57675004	0	255	0
-2.84875011	68551.0625	1.10150003	0	255	0
-2.87450004	68551.0625	0.57675004	0	255	0
-2.87450004	68550.375	0.57675004	0	255	0
-2.84875011	68551.0625	0.57675004	0	255	0
-2.86162519	68551.0625	0.314375013	0	255	0
-2.86162519	68551.0625	0.0520000011	0	255	0
-2.84875011	68551.0625	0.57675004	0	255	0
-2.84875011	68551.0625	0.314375013	0	255	0
-2.86162519	68550.375	0.57675004	0	255	0
-2.84875011	68550.375	0.314375013	0	255	0
-2.86162519	68550.375	0.314375013	0	255	0
-2.84875011	68551.75	1.10150003	0	255	0
-2.84875011	68551.75	0.839125037	0	255	0
-2.82299995	68551.75	0.839125037	0	255	0
-2.82299995	68551.75	0.0520000011	0	255	0
-2.84875011	68550.375	0.839125037	0	255	0
-2.82299995	68550.375	0.839125037	0	255	0
-2.82299995	68550.375	1.10150003	0	255	0
-2.87450004	68550.375	0.314375043	0	255	0
-2.87450004	68549.6875	0.0520000011	0	255	0
-2.87450004	68549.6875	0.314375043	0	255	0
-2.84875011	68550.375	0.314375043	0	255	0
-2.84875011	68549.6875	0.0520000011	0	255	0
-2.84875011	68549.6875	0.314375043	0	255	0
-2.86162519	68550.375	0.314375013	0	255	0
-2.86162519	68550.375	0.57675004	0	255	0
-2.84875011	68550.375	0.314375013	0	255	0
-2.86162519	68549.6875	0.0520000011	0	255	0
-2.84875011	68549.6875	0.57675004	0	255	0
-2.87450004	68549	0.57675004	0	255	0
-2.84875011	68549.6875	0.0520000011	0	255	0
-2.86162519	68549	0.314375013	0	255	0
-2.84875011	68549	0.314375013	0	255	0
-2.84875011	68549	0.0520000011	0	255	0
-2.86162519	68549	0.0520000011	0	255	0
-2.83587503	68550.375	0.57675004	0	255	0
-2.84875011	68549.6875	0.57675004	0	255	0
-2.83587503	68549.6875	0.0520000011	0	255	0
-2.87450004	68549	1.10150003	0	255	0
-2.84875011	68549.6875	0.0520000011	0	255	0
-2.82299995	68550.375	0.314375013	0	255	0
-2.82299995	68550.375	0.0520000011	0	255	0
-2.82299995	68549.6875	0.314375013	0	255	0
-2.82299995	68549.6875	0.0520000011	0	255	0
