9.37981224	6.6947999	1.64093757	0	255	0
9.37981224	6.6947999	1.84099996	0	255	0
9.39025021	6.6947999	1.64093757	0	255	0
9.37981224	6.6944561	1.44087505	0	255	0
9.39025021	6.6944561	1.84099996	0	255	0
9.39025021	6.6944561	1.64093757	0	255	0
9.37981224	6.6944561	1.64093757	0	255	0
9.36937523	6.6947999	1.84099996	0	255	0
9.36937523	6.6947999	1.64093757	0	255	0
9.39025021	6.6947999	1.64093757	0	255	0
9.36937523	6.69411278	1.64093757	0	255	0
9.39025021	6.69411278	1.64093757	0	255	0
9.39025021	6.69411278	1.84099996	0	255	0
9.36937523	6.69411278	1.44087505	0	255	0
9.37981224	6.69411278	1.44087505	0	255	0
9.39025021	6.69411278	1.44087505	0	255	0
9.34850025	6.69342518	1.84099996	0	255	0
9.36937523	6.69411278	1.24081254	0	255	0
9.36937523	6.69376898	1.24081254	0	255	0
9.36937523	6.69376898	1.04075003	0	255	0
9.39025021	6.69411278	1.04075003	0	255	0
9.37981224	6.69342518	1.44087505	0	255	0
9.39025021	6.69342518	1.44087505	0	255	0
9.37981224	6.69342518	1.04075003	0	255	0
9.41112518	6.6947999	1.84099996	0	255	0
9.40068817	6.6944561	1.44087505	0	255	0
9.41112518	6.6947999	1.64093757	0	255	0
9.42156219	6.6947999	1.64093757	0	255	0
9.42156219	6.6947999	1.44087505	0	255	0
9.41112518	6.6944561	1.84099996	0	255	0
9.42156219	6.6944561	1.44087505	0	255	0
9.42156219	6.6944561	1.44087505	0	255	0
9.42156219	6.69411278	1.84099996	0	255	0
9.42156219	6.69411278	1.44087505	0	255	0
9.40068817	6.6947999	1.44087505	0	255	0
9.41112518	6.6947999	1.24081254	0	255	0
9.41112518	6.6947999	1.04075003	0	255	0
9.40068817	6.6944561	1.04075003	0	255	0
9.41112518	6.6944561	1.44087505	0	255	0
9.39025021	6.69411278	1.24081254	0	255	0
9.41112518	6.69411278	1.24081254	0	255	0
9.40068817	6.69376898	1.44087505	0	255	0
9.39025021	6.69342518	1.24081254	0	255	0
9.41112518	6.69342518	1.24081254	0	255	0
9.42156219	6.69411278	1.84099996	0	255	0
9.43200016	6.69411278	1.64093757	0	255	0
9.43200016	6.69411278	1.44087505	0	255	0
9.43200016	6.69376898	1.44087505	0	255	0
9.42156219	6.69376898	1.44087505	0	255	0
9.43200016	6.69376898	1.84099996	0	255	0
9.43200016	6.69342518	1.84099996	0	255	0
9.43200016	6.69342518	1.64093757	0	255	0
9.42156219	6.69342518	1.44087505	0	255	0
9.40068817	6.69376898	1.04075003	0	255	0
9.41112518	6.69342518	1.04075003	0	255	0
9.35893822	6.6947999	0.640625	0	255	0
9.35893822	6.6947999	0.840687513	0	255	0
9.36937523	6.6947999	0.840687513	0	255	0
9.35893822	6.69411278	0.840687513	0	255	0
9.36937523	6.69411278	0.840687513	0	255	0
9.35893822	6.69411278	0.640625	0	255	0
9.36937523	6.6947999	1.04075003	0	255	0
9.39025021	6.6947999	0.640625	0	255	0
9.37981224	6.6944561	0.640625	0	255	0
9.35893822	6.6947999	0.640625	0	255	0
9.34850025	6.6947999	0.240499973	0	255	0
9.34850025	6.6947999	0.440562487	0	255	0
9.36937523	6.6947999	0.240499973	0	255	0
9.35893822	6.69411278	0.640625	0	255	0
9.34850025	6.69411278	0.440562487	0	255	0
9.36937523	6.6947999	1.04075003	0	255	0
9.36937523	6.6947999	0.840687513	0	255	0
9.39025021	6.6947999	0.840687513	0	255	0
9.39025021	6.6947999	0.240499973	0	255	0
9.36937523	6.69411278	0.840687513	0	255	0
9.39025021	6.69411278	0.840687513	0	255	0
9.39025021	6.69411278	1.04075003	0	255	0
9.35893822	6.69411278	0.440562487	0	255	0
9.35893822	6.69411278	0.240499973	0	255	0
9.36937523	6.69411278	0.440562487	0	255	0
9.35893822	6.69376898	0.640625	0	255	0
9.36937523	6.69376898	0.240499973	0	255	0
9.36937523	6.69376898	0.440562487	0	255	0
9.35893822	6.69376898	0.440562487	0	255	0
9.36937523	6.69376898	1.04075003	0	255	0
9.37981224	6.69342518	1.04075003	0	255	0
9.36937523	6.69342518	0.840687513	0	255	0
9.35893822	6.69411278	0.640625	0	255	0
9.34850025	6.69411278	0.440562487	0	255	0
9.35893822	6.69342518	0.640625	0	255	0
9.34850025	6.69342518	0.440562487	0	255	0
9.34850025	6.69342518	0.240499973	0	255	0
9.39025021	6.69411278	0.240499973	0	255	0
9.37981224	6.69376898	0.240499973	0	255	0
9.39025021	6.6947999	0.440562487	0	255	0
9.39025021	6.6947999	1.04075003	0	255	0
9.41112518	6.6947999	1.04075003	0	255	0
9.41112518	6.6947999	0.440562487	0	255	0
9.41112518	6.69411278	-0.159625053	0	255	0
9.41112518	6.69342518	1.04075003	0	255	0
9.41112518	6.69342518	0.440562487	0	255	0
9.39025021	6.69342518	0.440562487	0	255	0
9.37981224	6.69342518	0.440562487	0	255	0
9.37981224	6.69342518	0.240499973	0	255	0
9.39025021	6.69342518	0.440562487	0	255	0
9.37981224	6.69273758	0.240499973	0	255	0
9.39025021	6.69273758	0.240499973	0	255	0
9.39025021	6.69273758	0.440562487	0	255	0
9.37981224	6.69273758	0.440562487	0	255	0
9.37981224	6.69239378	0.440562487	0	255	0
9.37981224	6.69239378	0.640625	0	255	0
9.39025021	6.69239378	0.240499973	0	255	0
9.39025021	6.69239378	0.440562487	0	255	0
9.37981224	6.69204998	0.240499973	0	255	0
9.39025021	6.69204998	0.440562487	0	255	0
9.37981224	6.69204998	0.440562487	0	255	0
9.40068817	6.69342518	1.84099996	0	255	0
9.39025021	6.69342518	1.64093757	0	255	0
9.39025021	6.69308138	1.84099996	0	255	0
9.40068817	6.69308138	1.44087505	0	255	0
9.42156219	6.69342518	1.84099996	0	255	0
9.42156219	6.69342518	1.44087505	0	255	0
9.42156219	6.69308138	1.44087505	0	255	0
9.43200016	6.69308138	1.84099996	0	255	0
9.43200016	6.69308138	1.64093757	0	255	0
9.43200016	6.69273758	1.64093757	0	255	0
9.42156219	6.69273758	1.44087505	0	255	0
9.41112518	6.69342518	1.04075003	0	255	0
9.40068817	6.69308138	1.04075003	0	255	0
9.41112518	6.69342518	1.84099996	0	255	0
9.41112518	6.69342518	1.64093757	0	255	0
9.43200016	6.69342518	1.64093757	0	255	0
9.43200016	6.69342518	1.04075003	0	255	0
9.41112518	6.69273758	1.64093757	0	255	0
9.43200016	6.69273758	1.64093757	0	255	0
9.43200016	6.69273758	1.84099996	0	255	0
9.39025021	6.69273758	1.24081254	0	255	0
9.41112518	6.69273758	1.24081254	0	255	0
9.40068817	6.69239378	1.44087505	0	255	0
9.39025021	6.69204998	1.24081254	0	255	0
9.41112518	6.69204998	1.24081254	0	255	0
9.43200016	6.69273758	1.44087505	0	255	0
9.42156219	6.69239378	1.44087505	0	255	0
9.43200016	6.69204998	1.44087505	0	255	0
9.40068817	6.69239378	1.04075003	0	255	0
9.42156219	6.69273758	1.44087505	0	255	0
9.42156219	6.69273758	1.04075003	0	255	0
9.42156219	6.69239378	1.04075003	0	255	0
9.42156219	6.69204998	1.44087505	0	255	0
9.42156219	6.69204998	1.04075003	0	255	0
9.35893822	6.69342518	0.640625	0	255	0
9.35893822	6.69342518	0.840687513	0	255	0
9.36937523	6.69342518	0.840687513	0	255	0
9.35893822	6.69308138	0.840687513	0	255	0
9.36937523	6.69308138	0.840687513	0	255	0
9.36937523	6.69308138	0.640625	0	255	0
9.34850025	6.69273758	1.04075003	0	255	0
9.37981224	6.69342518	1.04075003	0	255	0
9.36937523	6.69342518	0.840687513	0	255	0
9.39025021	6.69342518	0.640625	0	255	0
9.36937523	6.69308138	1.04075003	0	255	0
9.37981224	6.69308138	0.640625	0	255	0
9.35893822	6.69342518	0.640625	0	255	0
9.35893822	6.69308138	0.240499973	0	255	0
9.36937523	6.69308138	0.640625	0	255	0
9.35893822	6.69342518	0.240499973	0	255	0
9.36937523	6.69342518	0.240499973	0	255	0
9.35893822	6.69273758	0.440562487	0	255	0
9.36937523	6.69273758	0.440562487	0	255	0
9.35893822	6.69273758	0.240499973	0	255	0
9.36937523	6.69342518	1.04075003	0	255	0
9.36937523	6.69342518	0.840687513	0	255	0
9.39025021	6.69342518	0.840687513	0	255	0
9.36937523	6.69273758	0.840687513	0	255	0
9.39025021	6.69273758	0.840687513	0	255	0
9.39025021	6.69273758	1.04075003	0	255	0
9.36937523	6.69239378	1.04075003	0	255	0
9.37981224	6.69204998	1.04075003	0	255	0
9.36937523	6.69204998	0.840687513	0	255	0
9.39025021	6.69273758	0.240499973	0	255	0
9.37981224	6.69239378	0.240499973	0	255	0
9.36937523	6.69204998	0.240499973	0	255	0
9.41112518	6.69342518	1.04075003	0	255	0
9.41112518	6.69342518	0.840687513	0	255	0
9.40068817	6.69342518	0.640625	0	255	0
9.40068817	6.69308138	0.640625	0	255	0
9.41112518	6.69308138	0.640625	0	255	0
9.40068817	6.69342518	0.640625	0	255	0
9.40068817	6.69342518	0.240499973	0	255	0
9.40068817	6.69308138	0.240499973	0	255	0
9.41112518	6.69308138	0.640625	0	255	0
9.41112518	6.69308138	0.440562487	0	255	0
9.41112518	6.69273758	0.440562487	0	255	0
9.40068817	6.69273758	0.240499973	0	255	0
9.39025021	6.69273758	0.440562487	0	255	0
9.41112518	6.69273758	0.440562487	0	255	0
9.40068817	6.69239378	0.640625	0	255	0
9.39025021	6.69204998	0.440562487	0	255	0
9.41112518	6.69204998	1.04075003	0	255	0
9.41112518	6.69204998	0.440562487	0	255	0
9.41112518	6.69239378	0.840687513	0	255	0
9.41112518	6.69239378	1.04075003	0	255	0
9.42156219	6.69239378	0.640625	0	255	0
9.42156219	6.69239378	0.840687513	0	255	0
9.42156219	6.69239378	0.640625	0	255	0
9.42156219	6.69204998	1.04075003	0	255	0
9.42156219	6.69204998	0.840687513	0	255	0
9.41112518	6.69204998	0.840687513	0	255	0
9.40068817	6.69273758	0.640625	0	255	0
9.40068817	6.69273758	0.240499973	0	255	0
9.40068817	6.69239378	0.240499973	0	255	0
9.41112518	6.69239378	0.640625	0	255	0
9.41112518	6.69239378	0.440562487	0	255	0
9.41112518	6.69204998	0.640625	0	255	0
9.41112518	6.69204998	0.440562487	0	255	0
9.40068817	6.69204998	0.240499973	0	255	0
9.33806229	6.6947999	-0.159625024	0	255	0
9.33806229	6.6947999	0.0404374748	0	255	0
9.34850025	6.6947999	0.0404374748	0	255	0
9.33806229	6.6944561	0.0404374748	0	255	0
9.34850025	6.6944561	0.0404374748	0	255	0
9.34850025	6.6944561	-0.159625024	0	255	0
9.32762527	6.69411278	-0.559750021	0	255	0
9.31718826	6.6947999	-0.559750021	0	255	0
9.31718826	6.6947999	-0.359687507	0	255	0
9.32762527	6.6947999	-0.359687507	0	255	0
9.32762527	6.6947999	-0.559750021	0	255	0
9.31718826	6.6944561	-0.359687507	0	255	0
9.32762527	6.6944561	-0.359687507	0	255	0
9.32762527	6.6944561	-0.559750021	0	255	0
9.3067503	6.69411278	-0.159625024	0	255	0
9.32762527	6.6947999	-0.759812474	0	255	0
9.32762527	6.6947999	-0.159625024	0	255	0
9.34850025	6.6947999	-0.759812474	0	255	0
9.32762527	6.69411278	-1.36000001	0	255	0
9.34850025	6.69411278	-0.159625024	0	255	0
9.34850025	6.69411278	-0.759812474	0	255	0
9.32762527	6.69411278	-0.759812474	0	255	0
9.33806229	6.69411278	-0.159625024	0	255	0
9.34850025	6.69411278	-0.159625024	0	255	0
9.33806229	6.69376898	-0.559750021	0	255	0
9.34850025	6.69376898	-0.159625024	0	255	0
9.33806229	6.69411278	-0.559750021	0	255	0
9.34850025	6.69411278	-0.559750021	0	255	0
9.33806229	6.69342518	-0.359687507	0	255	0
9.34850025	6.69342518	-0.359687507	0	255	0
9.33806229	6.69342518	-0.559750021	0	255	0
9.27543831	6.6947999	-0.959874988	0	255	0
9.27543831	6.6947999	-0.759812474	0	255	0
9.28587532	6.6947999	-0.759812474	0	255	0
9.28587532	6.6947999	-0.959874988	0	255	0
9.27543831	6.6944561	-0.759812474	0	255	0
9.28587532	6.6944561	-0.759812474	0	255	0
9.28587532	6.6944561	-0.959874988	0	255	0
9.26500034	6.69411278	-0.559750021	0	255	0
9.28587532	6.69411278	-1.36000001	0	255	0
9.29631233	6.6944561	-0.759812474	0	255	0
9.3067503	6.6944561	-0.759812474	0	255	0
9.3067503	6.6944561	-0.959874988	0	255	0
9.29631233	6.69411278	-0.759812474	0	255	0
9.3067503	6.69411278	-0.759812474	0	255	0
9.3067503	6.69411278	-0.959874988	0	255	0
9.29631233	6.69411278	-0.959874988	0	255	0
9.3067503	6.6947999	0.240499973	0	255	0
9.3067503	6.6947999	-0.359687507	0	255	0
9.34850025	6.6947999	-0.359687507	0	255	0
9.34850025	6.6947999	-1.36000001	0	255	0
9.3067503	6.69342518	-0.359687507	0	255	0
9.3067503	6.69342518	-0.559750021	0	255	0
9.34850025	6.69342518	-0.359687507	0	255	0
9.34850025	6.69342518	0.240499973	0	255	0
9.32762527	6.69342518	0.240499973	0	255	0
9.32762527	6.69342518	0.0404374748	0	255	0
9.34850025	6.69342518	0.0404374748	0	255	0
9.32762527	6.69273758	0.0404374748	0	255	0
9.34850025	6.69273758	0.0404374748	0	255	0
9.34850025	6.69273758	0.240499973	0	255	0
9.32762527	6.69273758	-0.159625024	0	255	0
9.32762527	6.69204998	-0.159625024	0	255	0
9.33806229	6.69239378	-0.359687507	0	255	0
9.34850025	6.69239378	-0.359687507	0	255	0
9.34850025	6.69239378	-0.559750021	0	255	0
9.33806229	6.69204998	-0.359687507	0	255	0
9.34850025	6.69204998	-0.359687507	0	255	0
9.33806229	6.69204998	-0.559750021	0	255	0
9.29631233	6.69342518	-0.959874988	0	255	0
9.29631233	6.69342518	-0.759812474	0	255	0
9.3067503	6.69342518	-0.759812474	0	255	0
9.3067503	6.69342518	-0.959874988	0	255	0
9.29631233	6.69308138	-0.759812474	0	255	0
9.3067503	6.69308138	-0.759812474	0	255	0
9.3067503	6.69308138	-0.959874988	0	255	0
9.28587532	6.69273758	-1.36000001	0	255	0
9.28587532	6.69342518	-0.559750021	0	255	0
9.28587532	6.69342518	-0.759812474	0	255	0
9.3067503	6.69342518	-0.759812474	0	255	0
9.26500034	6.69204998	0.240499973	0	255	0
9.28587532	6.69273758	-0.759812474	0	255	0
9.3067503	6.69273758	-0.759812474	0	255	0
9.3067503	6.69273758	-0.559750021	0	255	0
9.28587532	6.69273758	-0.959874988	0	255	0
9.31718826	6.69342518	-0.559750021	0	255	0
9.3067503	6.69342518	-0.759812474	0	255	0
9.31718826	6.69273758	-0.559750021	0	255	0
9.3067503	6.69273758	-0.759812474	0	255	0
9.34850025	6.69342518	-0.759812474	0	255	0
9.33806229	6.69342518	-0.959874988	0	255	0
9.33806229	6.69308138	-0.959874988	0	255	0
9.34850025	6.69308138	-0.959874988	0	255	0
9.3067503	6.69342518	-1.1599375	0	255	0
9.32762527	6.69342518	-1.1599375	0	255	0
9.31718826	6.69308138	-1.36000001	0	255	0
9.32762527	6.69273758	-1.1599375	0	255	0
9.3067503	6.69308138	-1.36000001	0	255	0
9.31718826	6.69273758	-1.36000001	0	255	0
9.3067503	6.69273758	-1.36000001	0	255	0
9.32762527	6.69342518	-0.559750021	0	255	0
9.32762527	6.69342518	-0.759812474	0	255	0
9.34850025	6.69342518	-0.759812474	0	255	0
9.34850025	6.69342518	-1.36000001	0	255	0
9.32762527	6.69273758	-0.759812474	0	255	0
9.34850025	6.69273758	-0.759812474	0	255	0
9.34850025	6.69273758	-0.559750021	0	255	0
9.31718826	6.69273758	-1.1599375	0	255	0
9.31718826	6.69273758	-1.36000001	0	255	0
9.32762527	6.69273758	-1.1599375	0	255	0
9.31718826	6.69204998	-1.36000001	0	255	0
9.32762527	6.69204998	-1.1599375	0	255	0
9.31718826	6.69204998	-1.1599375	0	255	0
9.33806229	6.69239378	-0.959874988	0	255	0
9.34850025	6.69204998	-0.959874988	0	255	0
9.31718826	6.69273758	-0.959874988	0	255	0
9.31718826	6.69273758	-1.36000001	0	255	0
9.3067503	6.69204998	-0.559750021	0	255	0
9.3067503	6.69239378	-0.959874988	0	255	0
9.31718826	6.69239378	-1.36000001	0	255	0
9.3067503	6.69239378	-1.36000001	0	255	0
9.3067503	6.69204998	-1.36000001	0	255	0
9.32762527	6.69273758	-1.1599375	0	255	0
9.33806229	6.69273758	-0.959874988	0	255	0
9.33806229	6.69273758	-1.1599375	0	255	0
9.33806229	6.69239378	-1.36000001	0	255	0
9.33806229	6.69204998	-0.959874988	0	255	0
9.32762527	6.69239378	-1.36000001	0	255	0
9.33806229	6.69204998	-1.36000001	0	255	0
9.34850025	6.6947999	1.84099996	0	255	0
9.34850025	6.6947999	0.440562487	0	255	0
9.39025021	6.6947999	0.440562487	0	255	0
9.39025021	6.6947999	0.240499973	0	255	0
9.34850025	6.69342518	0.440562487	0	255	0
9.39025021	6.69342518	0.440562487	0	255	0
9.34850025	6.69342518	0.440562487	0	255	0
9.39025021	6.69342518	0.440562487	0	255	0
9.34850025	6.69204998	0.440562487	0	255	0
9.34850025	6.69204998	0.240499973	0	255	0
9.39025021	6.69204998	0.440562487	0	255	0
9.39025021	6.69273758	0.240499973	0	255	0
9.39025021	6.69273758	0.440562487	0	255	0
9.41112518	6.69273758	0.440562487	0	255	0
9.39025021	6.69204998	0.640625	0	255	0
9.39025021	6.69204998	0.440562487	0	255	0
9.41112518	6.69204998	0.440562487	0	255	0
9.41112518	6.69204998	0.240499973	0	255	0
9.33806229	6.68964386	-1.1599375	0	255	0
9.33806229	6.68964386	-0.959874988	0	255	0
9.34850025	6.68964386	-1.36000001	0	255	0
9.34850025	6.68964386	-1.1599375	0	255	0
9.33806229	6.68930006	-1.36000001	0	255	0
9.34850025	6.68930006	-1.1599375	0	255	0
9.33806229	6.68930006	-1.1599375	0	255	0
9.36937523	6.69204998	1.84099996	0	255	0
9.36937523	6.69204998	1.64093757	0	255	0
9.39025021	6.69204998	1.64093757	0	255	0
9.36937523	6.69136238	1.64093757	0	255	0
9.39025021	6.69136238	1.64093757	0	255	0
9.39025021	6.69136238	1.84099996	0	255	0
9.36937523	6.69136238	1.44087505	0	255	0
9.37981224	6.69136238	1.24081254	0	255	0
9.37981224	6.69136238	1.44087505	0	255	0
9.39025021	6.69136238	1.44087505	0	255	0
9.39025021	6.69136238	1.24081254	0	255	0
9.37981224	6.69067478	1.44087505	0	255	0
9.39025021	6.69067478	1.44087505	0	255	0
9.36937523	6.69067478	1.44087505	0	255	0
9.39025021	6.69101858	1.04075003	0	255	0
9.37981224	6.69067478	1.04075003	0	255	0
9.39025021	6.69204998	1.84099996	0	255	0
9.40068817	6.69170618	1.44087505	0	255	0
9.43200016	6.69204998	1.64093757	0	255	0
9.42156219	6.69204998	1.44087505	0	255	0
9.42156219	6.69170618	1.44087505	0	255	0
9.43200016	6.69170618	1.44087505	0	255	0
9.41112518	6.69204998	1.04075003	0	255	0
9.40068817	6.69170618	1.04075003	0	255	0
9.41112518	6.69204998	0.840687513	0	255	0
9.41112518	6.69204998	1.44087505	0	255	0
9.43200016	6.69204998	1.44087505	0	255	0
9.43200016	6.69204998	0.840687513	0	255	0
9.41112518	6.69136238	0.240499973	0	255	0
9.43200016	6.69136238	1.44087505	0	255	0
9.43200016	6.69136238	0.840687513	0	255	0
9.41112518	6.69136238	0.840687513	0	255	0
9.39025021	6.69136238	1.24081254	0	255	0
9.39025021	6.69101858	1.04075003	0	255	0
9.39025021	6.69101858	1.24081254	0	255	0
9.41112518	6.69136238	1.24081254	0	255	0
9.40068817	6.69067478	1.04075003	0	255	0
9.41112518	6.69067478	1.24081254	0	255	0
9.40068817	6.69067478	1.24081254	0	255	0
9.42156219	6.69101858	1.44087505	0	255	0
9.40068817	6.69101858	1.04075003	0	255	0
9.41112518	6.69136238	1.24081254	0	255	0
9.42156219	6.69136238	1.44087505	0	255	0
9.42156219	6.69136238	1.24081254	0	255	0
9.42156219	6.69101858	1.04075003	0	255	0
9.43200016	6.69101858	1.44087505	0	255	0
9.43200016	6.69101858	1.24081254	0	255	0
9.43200016	6.69067478	1.24081254	0	255	0
9.41112518	6.69101858	1.04075003	0	255	0
9.42156219	6.69067478	1.04075003	0	255	0
9.37981224	6.69204998	1.04075003	0	255	0
9.36937523	6.69204998	0.640625	0	255	0
9.36937523	6.69204998	0.840687513	0	255	0
9.39025021	6.69204998	0.640625	0	255	0
9.37981224	6.69136238	1.04075003	0	255	0
9.36937523	6.69136238	0.840687513	0	255	0
9.35893822	6.69204998	0.240499973	0	255	0
9.35893822	6.69204998	0.440562487	0	255	0
9.36937523	6.69204998	0.440562487	0	255	0
9.36937523	6.69204998	0.240499973	0	255	0
9.35893822	6.69136238	0.440562487	0	255	0
9.36937523	6.69136238	0.440562487	0	255	0
9.35893822	6.69136238	0.240499973	0	255	0
9.36937523	6.69204998	1.04075003	0	255	0
9.36937523	6.69204998	0.840687513	0	255	0
9.39025021	6.69204998	0.840687513	0	255	0
9.39025021	6.69204998	0.240499973	0	255	0
9.36937523	6.69136238	0.840687513	0	255	0
9.39025021	6.69136238	0.840687513	0	255	0
9.39025021	6.69136238	1.04075003	0	255	0
9.36937523	6.69136238	0.840687513	0	255	0
9.36937523	6.69101858	1.04075003	0	255	0
9.37981224	6.69136238	0.640625	0	255	0
9.37981224	6.69067478	1.04075003	0	255	0
9.36937523	6.69101858	0.640625	0	255	0
9.36937523	6.69067478	0.840687513	0	255	0
9.35893822	6.69136238	0.240499973	0	255	0
9.35893822	6.69136238	0.440562487	0	255	0
9.36937523	6.69136238	0.440562487	0	255	0
9.35893822	6.69067478	0.440562487	0	255	0
9.36937523	6.69067478	0.440562487	0	255	0
9.35893822	6.69067478	0.240499973	0	255	0
9.39025021	6.69136238	0.240499973	0	255	0
9.37981224	6.69101858	0.240499973	0	255	0
9.39025021	6.69204998	1.84099996	0	255	0
9.39025021	6.69204998	1.24081254	0	255	0
9.43200016	6.69204998	1.24081254	0	255	0
9.43200016	6.69204998	0.240499973	0	255	0
9.39025021	6.69067478	1.24081254	0	255	0
9.43200016	6.69067478	1.24081254	0	255	0
9.43200016	6.69067478	1.84099996	0	255	0
9.37981224	6.69067478	0.440562487	0	255	0
9.37981224	6.69067478	0.240499973	0	255	0
9.39025021	6.69067478	0.440562487	0	255	0
9.37981224	6.68998718	0.240499973	0	255	0
9.39025021	6.68998718	0.440562487	0	255	0
9.37981224	6.68998718	0.440562487	0	255	0
9.37981224	6.68998718	0.440562487	0	255	0
9.37981224	6.68998718	0.240499973	0	255	0
9.39025021	6.68998718	0.440562487	0	255	0
9.37981224	6.68964386	0.640625	0	255	0
9.39025021	6.68964386	0.240499973	0	255	0
9.39025021	6.68964386	0.440562487	0	255	0
9.37981224	6.68964386	0.440562487	0	255	0
9.40068817	6.69067478	1.84099996	0	255	0
9.40068817	6.69067478	1.44087505	0	255	0
9.40068817	6.68998718	1.84099996	0	255	0
9.40068817	6.68998718	1.44087505	0	255	0
9.43200016	6.69067478	1.44087505	0	255	0
9.42156219	6.69033098	1.44087505	0	255	0
9.39025021	6.69067478	1.44087505	0	255	0
9.41112518	6.69067478	1.04075003	0	255	0
9.40068817	6.69033098	1.04075003	0	255	0
9.41112518	6.69067478	1.84099996	0	255	0
9.41112518	6.69067478	1.64093757	0	255	0
9.43200016	6.69067478	1.64093757	0	255	0
9.43200016	6.69067478	1.04075003	0	255	0
9.41112518	6.68998718	1.64093757	0	255	0
9.43200016	6.68998718	1.64093757	0	255	0
9.43200016	6.68998718	1.84099996	0	255	0
9.39025021	6.68998718	1.24081254	0	255	0
9.39025021	6.68964386	1.04075003	0	255	0
9.39025021	6.68964386	1.24081254	0	255	0
9.41112518	6.68998718	1.24081254	0	255	0
9.41112518	6.68964386	1.04075003	0	255	0
9.41112518	6.68964386	1.24081254	0	255	0
9.41112518	6.68964386	1.84099996	0	255	0
9.43200016	6.68964386	1.84099996	0	255	0
9.41112518	6.68964386	1.44087505	0	255	0
9.43200016	6.68964386	1.44087505	0	255	0
9.39025021	6.68964386	1.44087505	0	255	0
9.41112518	6.68964386	1.44087505	0	255	0
9.39025021	6.68964386	1.04075003	0	255	0
9.41112518	6.68964386	1.04075003	0	255	0
9.42156219	6.68998718	1.44087505	0	255	0
9.41112518	6.68964386	1.44087505	0	255	0
9.42156219	6.68964386	1.04075003	0	255	0
9.42156219	6.68998718	1.04075003	0	255	0
9.41112518	6.68930006	1.44087505	0	255	0
9.41112518	6.68964386	1.04075003	0	255	0
9.37981224	6.69067478	1.04075003	0	255	0
9.36937523	6.69067478	0.640625	0	255	0
9.36937523	6.69067478	0.840687513	0	255	0
9.39025021	6.69067478	0.640625	0	255	0
9.36937523	6.69033098	1.04075003	0	255	0
9.37981224	6.69033098	0.640625	0	255	0
9.34850025	6.69033098	0.240499973	0	255	0
9.34850025	6.69033098	0.440562487	0	255	0
9.34850025	6.68998718	0.440562487	0	255	0
9.36937523	6.69033098	0.440562487	0	255	0
9.36937523	6.69033098	0.240499973	0	255	0
9.36937523	6.68998718	0.440562487	0	255	0
9.36937523	6.69067478	1.04075003	0	255	0
9.36937523	6.69067478	0.840687513	0	255	0
9.39025021	6.69067478	0.840687513	0	255	0
9.36937523	6.68998718	0.840687513	0	255	0
9.39025021	6.68998718	0.840687513	0	255	0
9.39025021	6.68998718	1.04075003	0	255	0
9.35893822	6.68964386	0.440562487	0	255	0
9.35893822	6.68964386	0.640625	0	255	0
9.36937523	6.68964386	0.240499973	0	255	0
9.36937523	6.68964386	0.440562487	0	255	0
9.35893822	6.68930006	0.240499973	0	255	0
9.36937523	6.68930006	0.440562487	0	255	0
9.35893822	6.68930006	0.440562487	0	255	0
9.37981224	6.68998718	1.04075003	0	255	0
9.37981224	6.68964386	0.640625	0	255	0
9.39025021	6.68964386	1.04075003	0	255	0
9.36937523	6.68998718	0.840687513	0	255	0
9.36937523	6.68964386	0.840687513	0	255	0
9.36937523	6.68964386	0.640625	0	255	0
9.39025021	6.68964386	0.640625	0	255	0
9.35893822	6.68998718	0.640625	0	255	0
9.34850025	6.68998718	0.440562487	0	255	0
9.34850025	6.68964386	0.440562487	0	255	0
9.34850025	6.68964386	0.240499973	0	255	0
9.35893822	6.68930006	0.640625	0	255	0
9.35893822	6.68930006	0.240499973	0	255	0
9.39025021	6.68998718	0.240499973	0	255	0
9.39025021	6.68964386	0.240499973	0	255	0
9.37981224	6.68964386	0.240499973	0	255	0
9.39025021	6.68930006	0.640625	0	255	0
9.39025021	6.68930006	0.440562487	0	255	0
9.37981224	6.68930006	0.240499973	0	255	0
9.41112518	6.69067478	1.04075003	0	255	0
9.40068817	6.69033098	0.640625	0	255	0
9.41112518	6.69067478	0.440562487	0	255	0
9.40068817	6.69067478	0.240499973	0	255	0
9.40068817	6.69033098	0.240499973	0	255	0
9.39025021	6.68998718	0.240499973	0	255	0
9.41112518	6.69033098	0.240499973	0	255	0
9.39025021	6.68930006	1.04075003	0	255	0
9.39025021	6.68998718	0.440562487	0	255	0
9.39025021	6.68964386	0.240499973	0	255	0
9.39025021	6.68964386	0.440562487	0	255	0
9.41112518	6.68998718	0.440562487	0	255	0
9.41112518	6.68964386	0.240499973	0	255	0
9.41112518	6.68964386	0.440562487	0	255	0
9.39025021	6.68998718	0.440562487	0	255	0
9.40068817	6.68998718	0.640625	0	255	0
9.40068817	6.68998718	0.440562487	0	255	0
9.40068817	6.68964386	0.240499973	0	255	0
9.40068817	6.68930006	0.640625	0	255	0
9.39025021	6.68964386	0.240499973	0	255	0
9.39025021	6.68930006	0.640625	0	255	0
9.40068817	6.68930006	0.240499973	0	255	0
9.39025021	6.68930006	0.240499973	0	255	0
9.32762527	6.69204998	-0.759812474	0	255	0
9.32762527	6.69204998	-0.159625024	0	255	0
9.34850025	6.69204998	-0.159625024	0	255	0
9.34850025	6.69204998	-0.759812474	0	255	0
9.32762527	6.69136238	-1.36000001	0	255	0
9.34850025	6.69136238	-0.159625024	0	255	0
9.34850025	6.69136238	-0.759812474	0	255	0
9.32762527	6.69136238	-0.759812474	0	255	0
9.32762527	6.69067478	-0.159625024	0	255	0
9.33806229	6.69101858	-0.359687507	0	255	0
9.34850025	6.69101858	-0.359687507	0	255	0
9.34850025	6.69101858	-0.559750021	0	255	0
9.33806229	6.69067478	-0.359687507	0	255	0
9.34850025	6.69067478	-0.359687507	0	255	0
9.34850025	6.69067478	-0.559750021	0	255	0
9.33806229	6.69067478	-0.559750021	0	255	0
9.26500034	6.69170618	-1.36000001	0	255	0
9.26500034	6.69170618	-1.1599375	0	255	0
9.27543831	6.69170618	-1.1599375	0	255	0
9.26500034	6.69136238	-0.959874988	0	255	0
9.26500034	6.69136238	-1.1599375	0	255	0
9.27543831	6.69136238	-1.1599375	0	255	0
9.27543831	6.69136238	-1.36000001	0	255	0
9.26500034	6.69136238	-1.36000001	0	255	0
9.28587532	6.69204998	-0.559750021	0	255	0
9.28587532	6.69204998	-0.759812474	0	255	0
9.3067503	6.69204998	-0.759812474	0	255	0
9.3067503	6.69204998	-1.36000001	0	255	0
9.28587532	6.69136238	-0.759812474	0	255	0
9.3067503	6.69136238	-0.759812474	0	255	0
9.3067503	6.69136238	-0.559750021	0	255	0
9.28587532	6.69067478	-0.559750021	0	255	0
9.29631233	6.69101858	-0.759812474	0	255	0
9.3067503	6.69101858	-0.759812474	0	255	0
9.3067503	6.69101858	-0.959874988	0	255	0
9.29631233	6.69067478	-0.759812474	0	255	0
9.3067503	6.69067478	-0.759812474	0	255	0
9.3067503	6.69067478	-0.959874988	0	255	0
9.29631233	6.69067478	-0.959874988	0	255	0
9.28587532	6.69136238	-1.1599375	0	255	0
9.29631233	6.69136238	-0.959874988	0	255	0
9.29631233	6.69136238	-1.1599375	0	255	0
9.28587532	6.69101858	-0.959874988	0	255	0
9.29631233	6.69101858	-1.36000001	0	255	0
9.29631233	6.69101858	-1.1599375	0	255	0
9.28587532	6.69101858	-1.1599375	0	255	0
9.3067503	6.69204998	0.240499973	0	255	0
9.3067503	6.69204998	-0.359687507	0	255	0
9.34850025	6.69204998	-0.359687507	0	255	0
9.26500034	6.68930006	1.84099996	0	255	0
9.3067503	6.69067478	-0.359687507	0	255	0
9.3067503	6.69067478	-0.559750021	0	255	0
9.34850025	6.69067478	-0.359687507	0	255	0
9.34850025	6.69067478	0.240499973	0	255	0
9.32762527	6.68964386	-0.159625024	0	255	0
9.32762527	6.68964386	0.0404374748	0	255	0
9.32762527	6.68930006	0.0404374748	0	255	0
9.34850025	6.68964386	0.0404374748	0	255	0
9.34850025	6.68964386	-0.159625024	0	255	0
9.34850025	6.68930006	0.0404374748	0	255	0
9.33806229	6.68998718	-0.159625024	0	255	0
9.34850025	6.68998718	-0.159625024	0	255	0
9.3067503	6.68930006	0.240499973	0	255	0
9.32762527	6.68998718	-0.359687507	0	255	0
9.34850025	6.68998718	-0.559750021	0	255	0
9.32762527	6.68964386	-0.159625024	0	255	0
9.33806229	6.68964386	-0.559750021	0	255	0
9.32762527	6.68930006	-0.559750021	0	255	0
9.34850025	6.68930006	-0.559750021	0	255	0
9.31718826	6.69067478	-0.559750021	0	255	0
9.31718826	6.69033098	-0.959874988	0	255	0
9.32762527	6.69033098	-0.559750021	0	255	0
9.31718826	6.69067478	-0.959874988	0	255	0
9.32762527	6.69067478	-0.959874988	0	255	0
9.32762527	6.69033098	-0.959874988	0	255	0
9.32762527	6.69067478	-0.759812474	0	255	0
9.33806229	6.69067478	-0.559750021	0	255	0
9.33806229	6.69067478	-0.759812474	0	255	0
9.32762527	6.69033098	-0.559750021	0	255	0
9.33806229	6.69033098	-0.959874988	0	255	0
9.32762527	6.69033098	-0.759812474	0	255	0
9.34850025	6.69033098	-0.759812474	0	255	0
9.34850025	6.69033098	-0.959874988	0	255	0
9.33806229	6.68998718	-0.759812474	0	255	0
9.34850025	6.68998718	-0.759812474	0	255	0
9.34850025	6.68998718	-0.959874988	0	255	0
9.33806229	6.68998718	-0.959874988	0	255	0
9.3067503	6.68998718	-1.1599375	0	255	0
9.3067503	6.68964386	-1.36000001	0	255	0
9.3067503	6.68964386	-1.1599375	0	255	0
9.32762527	6.68998718	-1.1599375	0	255	0
9.32762527	6.68964386	-1.36000001	0	255	0
9.32762527	6.68964386	-1.1599375	0	255	0
9.32762527	6.68998718	-0.959874988	0	255	0
9.32762527	6.68998718	-0.759812474	0	255	0
9.33806229	6.68998718	-0.759812474	0	255	0
9.33806229	6.68998718	-0.959874988	0	255	0
9.32762527	6.68964386	-0.759812474	0	255	0
9.33806229	6.68964386	-0.759812474	0	255	0
9.32762527	6.68930006	-0.559750021	0	255	0
9.32762527	6.68964386	-0.959874988	0	255	0
9.35893822	6.69204998	0.240499973	0	255	0
9.35893822	6.69204998	-0.159625024	0	255	0
9.35893822	6.69136238	0.240499973	0	255	0
9.34850025	6.69170618	-0.159625024	0	255	0
9.34850025	6.69170618	0.0404374748	0	255	0
9.34850025	6.69136238	0.0404374748	0	255	0
9.39025021	6.69204998	0.240499973	0	255	0
9.39025021	6.69204998	-0.159625024	0	255	0
9.37981224	6.69170618	-0.159625024	0	255	0
9.34850025	6.69204998	-0.359687507	0	255	0
9.34850025	6.69204998	-0.159625024	0	255	0
9.35893822	6.69204998	-0.559750021	0	255	0
9.36937523	6.69204998	-0.559750021	0	255	0
9.35893822	6.69170618	-0.559750021	0	255	0
9.34850025	6.69170618	-0.559750021	0	255	0
9.36937523	6.69204998	0.240499973	0	255	0
9.36937523	6.69204998	0.0404374748	0	255	0
9.39025021	6.69204998	0.0404374748	0	255	0
9.39025021	6.69204998	-0.559750021	0	255	0
9.36937523	6.69136238	0.0404374748	0	255	0
9.39025021	6.69136238	0.0404374748	0	255	0
9.39025021	6.69136238	0.240499973	0	255	0
9.35893822	6.69136238	-0.359687507	0	255	0
9.35893822	6.69136238	-0.559750021	0	255	0
9.36937523	6.69136238	-0.359687507	0	255	0
9.34850025	6.69101858	-0.359687507	0	255	0
9.34850025	6.69101858	-0.559750021	0	255	0
9.35893822	6.69101858	-0.159625024	0	255	0
9.34850025	6.69067478	-0.359687507	0	255	0
9.36937523	6.69067478	-0.359687507	0	255	0
9.37981224	6.69101858	-0.159625024	0	255	0
9.39025021	6.69067478	-0.159625024	0	255	0
9.35893822	6.69101858	-0.559750021	0	255	0
9.39025021	6.69101858	-0.159625024	0	255	0
9.39025021	6.69136238	-0.559750021	0	255	0
9.37981224	6.69101858	-0.559750021	0	255	0
9.37981224	6.69067478	-0.159625024	0	255	0
9.39025021	6.69067478	-0.359687507	0	255	0
9.39025021	6.69170618	0.0404374748	0	255	0
9.39025021	6.69170618	0.240499973	0	255	0
9.40068817	6.69170618	-0.159625024	0	255	0
9.40068817	6.69170618	0.0404374748	0	255	0
9.40068817	6.69170618	-0.159625024	0	255	0
9.40068817	6.69136238	0.240499973	0	255	0
9.40068817	6.69136238	0.0404374748	0	255	0
9.39025021	6.69136238	0.0404374748	0	255	0
9.39025021	6.69136238	-0.359687507	0	255	0
9.39025021	6.69136238	0.240499973	0	255	0
9.40068817	6.69136238	-0.559750021	0	255	0
9.40068817	6.69136238	-0.359687507	0	255	0
9.40068817	6.69101858	-0.159625024	0	255	0
9.40068817	6.69067478	-0.559750021	0	255	0
9.40068817	6.69067478	-0.359687507	0	255	0
9.39025021	6.69067478	-0.359687507	0	255	0
9.35893822	6.69204998	-0.759812474	0	255	0
9.35893822	6.69204998	-0.559750021	0	255	0
9.36937523	6.69204998	-0.759812474	0	255	0
9.34850025	6.69170618	-0.759812474	0	255	0
9.34850025	6.69170618	-0.559750021	0	255	0
9.35893822	6.69170618	-0.959874988	0	255	0
9.34850025	6.69136238	-0.759812474	0	255	0
9.36937523	6.69136238	-0.759812474	0	255	0
9.36937523	6.69204998	-0.759812474	0	255	0
9.37981224	6.69204998	-0.559750021	0	255	0
9.37981224	6.69204998	-0.759812474	0	255	0
9.36937523	6.69170618	-0.559750021	0	255	0
9.37981224	6.69170618	-0.959874988	0	255	0
9.37981224	6.69170618	-0.759812474	0	255	0
9.36937523	6.69170618	-0.759812474	0	255	0
9.34850025	6.69136238	-1.1599375	0	255	0
9.34850025	6.69136238	-0.559750021	0	255	0
9.36937523	6.69136238	-1.1599375	0	255	0
9.35893822	6.69101858	-0.959874988	0	255	0
9.34850025	6.69067478	-1.1599375	0	255	0
9.36937523	6.69067478	-0.559750021	0	255	0
9.36937523	6.69067478	-1.1599375	0	255	0
9.36937523	6.69136238	-0.759812474	0	255	0
9.37981224	6.69136238	-0.559750021	0	255	0
9.37981224	6.69136238	-0.759812474	0	255	0
9.37981224	6.69101858	-0.959874988	0	255	0
9.36937523	6.69067478	-0.759812474	0	255	0
9.39025021	6.69101858	-0.559750021	0	255	0
9.39025021	6.69101858	-0.759812474	0	255	0
9.39025021	6.69067478	-0.759812474	0	255	0
9.34850025	6.69067478	-1.1599375	0	255	0
9.36937523	6.69067478	-1.1599375	0	255	0
9.35893822	6.69033098	-0.959874988	0	255	0
9.34850025	6.68998718	-1.1599375	0	255	0
9.36937523	6.68998718	-1.1599375	0	255	0
9.36937523	6.69067478	-1.1599375	0	255	0
9.39025021	6.69067478	-1.1599375	0	255	0
9.37981224	6.69033098	-0.959874988	0	255	0
9.36937523	6.68998718	-1.1599375	0	255	0
9.39025021	6.68998718	-1.1599375	0	255	0
9.34850025	6.68998718	-0.759812474	0	255	0
9.34850025	6.68998718	-1.36000001	0	255	0
9.36937523	6.68998718	-0.759812474	0	255	0
9.35893822	6.68964386	-0.959874988	0	255	0
9.34850025	6.68930006	-0.759812474	0	255	0
9.36937523	6.68930006	-1.36000001	0	255	0
9.36937523	6.68930006	-0.759812474	0	255	0
9.36937523	6.68998718	-1.1599375	0	255	0
9.39025021	6.68998718	-1.1599375	0	255	0
9.39025021	6.68964386	-1.36000001	0	255	0
9.39025021	6.68964386	-1.1599375	0	255	0
9.37981224	6.68964386	-0.959874988	0	255	0
9.37981224	6.68930006	-1.36000001	0	255	0
9.37981224	6.68930006	-1.1599375	0	255	0
9.36937523	6.68930006	-1.1599375	0	255	0
9.39025021	6.69033098	0.0404374748	0	255	0
9.39025021	6.69033098	0.240499973	0	255	0
9.40068817	6.69033098	-0.159625024	0	255	0
9.40068817	6.69033098	0.0404374748	0	255	0
9.40068817	6.69033098	-0.159625024	0	255	0
9.40068817	6.68998718	0.240499973	0	255	0
9.40068817	6.68998718	0.0404374748	0	255	0
9.39025021	6.68998718	0.0404374748	0	255	0
9.34850025	6.69067478	-0.759812474	0	255	0
9.36937523	6.69067478	-0.559750021	0	255	0
9.36937523	6.69067478	-0.759812474	0	255	0
9.35893822	6.69033098	-0.959874988	0	255	0
9.34850025	6.68998718	-0.759812474	0	255	0
9.36937523	6.68998718	-0.759812474	0	255	0
9.36937523	6.69033098	-0.759812474	0	255	0
9.36937523	6.69033098	-0.559750021	0	255	0
9.37981224	6.69033098	-0.959874988	0	255	0
9.37981224	6.69033098	-0.759812474	0	255	0
9.37981224	6.69033098	-0.959874988	0	255	0
9.37981224	6.68998718	-0.559750021	0	255	0
9.37981224	6.68998718	-0.759812474	0	255	0
9.36937523	6.68998718	-0.759812474	0	255	0
9.34850025	6.68998718	-1.1599375	0	255	0
9.34850025	6.68998718	-0.559750021	0	255	0
9.34850025	6.68964386	-1.36000001	0	255	0
9.34850025	6.68964386	-1.1599375	0	255	0
9.36937523	6.68998718	-1.1599375	0	255	0
9.36937523	6.68964386	-1.36000001	0	255	0
9.36937523	6.68964386	-1.1599375	0	255	0
