8.01000023	6.6855998	1.81099999	0	255	0
8.01000023	6.6855998	2.00699997	0	255	0
8.01000023	6.68211269	2.00699997	0	255	0
8.01000023	6.68211269	1.81099999	0	255	0
8.15337563	6.6855998	2.00699997	0	255	0
8.08168793	6.6855998	1.61500001	0	255	0
8.08168793	6.67862511	2.00699997	0	255	0
8.08168793	6.67862511	1.61500001	0	255	0
8.15337563	6.68211269	2.00699997	0	255	0
8.22506332	6.68211269	1.61500001	0	255	0
8.22506332	6.68211269	1.61500001	0	255	0
8.22506332	6.67862511	2.00699997	0	255	0
8.15337563	6.68211269	1.61500001	0	255	0
8.22506332	6.67862511	1.61500001	0	255	0
8.01000023	6.6855998	1.61500001	0	255	0
8.01000023	6.68211269	1.61500001	0	255	0
8.01000023	6.68211269	1.22300005	0	255	0
8.15337563	6.6855998	1.22300005	0	255	0
8.08168793	6.67862511	1.61500001	0	255	0
8.08168793	6.67862511	1.22300005	0	255	0
8.15337563	6.6855998	2.00699997	0	255	0
8.15337563	6.6855998	1.81099999	0	255	0
8.29675007	6.6855998	1.81099999	0	255	0
8.29675007	6.6855998	1.22300005	0	255	0
8.15337563	6.67862511	1.81099999	0	255	0
8.29675007	6.67862511	1.81099999	0	255	0
8.29675007	6.67862511	2.00699997	0	255	0
8.15337563	6.67862511	1.81099999	0	255	0
8.15337563	6.67513752	1.81099999	0	255	0
8.15337563	6.67513752	1.61500001	0	255	0
8.29675007	6.67862511	1.81099999	0	255	0
8.22506332	6.67513752	1.61500001	0	255	0
8.29675007	6.67513752	2.00699997	0	255	0
8.22506332	6.67164993	2.00699997	0	255	0
8.22506332	6.67164993	1.61500001	0	255	0
8.15337563	6.67513752	1.61500001	0	255	0
8.15337563	6.67513752	1.22300005	0	255	0
8.29675007	6.67862511	1.22300005	0	255	0
8.22506332	6.67164993	1.61500001	0	255	0
8.22506332	6.67164993	1.22300005	0	255	0
8.29675007	6.67862511	1.41900003	0	255	0
8.29675007	6.67862511	2.00699997	0	255	0
8.36843681	6.67862511	1.22300005	0	255	0
8.36843681	6.67862511	1.41900003	0	255	0
8.36843681	6.67513752	1.61500001	0	255	0
8.36843681	6.67164993	1.22300005	0	255	0
8.36843681	6.67164993	1.41900003	0	255	0
8.29675007	6.67164993	1.41900003	0	255	0
8.29675007	6.67513752	1.61500001	0	255	0
8.36843681	6.67513752	1.22300005	0	255	0
8.36843681	6.67513752	1.22300005	0	255	0
8.36843681	6.67164993	1.61500001	0	255	0
8.29675007	6.67513752	1.22300005	0	255	0
8.29675007	6.67164993	1.61500001	0	255	0
8.36843681	6.67164993	1.22300005	0	255	0
8.01000023	6.68211269	1.22300005	0	255	0
8.15337563	6.6855998	1.22300005	0	255	0
8.01000023	6.68211269	0.83100003	0	255	0
8.08168793	6.67862511	1.22300005	0	255	0
8.08168793	6.67862511	0.83100003	0	255	0
8.15337563	6.68211269	1.22300005	0	255	0
8.22506332	6.68211269	0.83100003	0	255	0
8.22506332	6.68211269	0.83100003	0	255	0
8.22506332	6.67862511	1.22300005	0	255	0
8.15337563	6.68211269	0.83100003	0	255	0
8.22506332	6.67862511	0.83100003	0	255	0
8.01000023	6.68211269	0.83100003	0	255	0
8.01000023	6.68211269	0.43900001	0	255	0
8.15337563	6.6855998	0.43900001	0	255	0
8.08168793	6.67862511	0.83100003	0	255	0
8.08168793	6.67862511	0.43900001	0	255	0
8.15337563	6.6855998	1.22300005	0	255	0
8.15337563	6.6855998	1.02700007	0	255	0
8.29675007	6.6855998	1.02700007	0	255	0
8.29675007	6.6855998	0.43900001	0	255	0
8.15337563	6.67862511	1.02700007	0	255	0
8.29675007	6.67862511	1.02700007	0	255	0
8.29675007	6.67862511	1.22300005	0	255	0
8.15337563	6.67513752	1.22300005	0	255	0
8.29675007	6.67862511	1.22300005	0	255	0
8.22506332	6.67164993	1.22300005	0	255	0
8.15337563	6.67164993	1.02700007	0	255	0
8.29675007	6.67862511	0.43900001	0	255	0
8.22506332	6.67513752	0.43900001	0	255	0
8.15337563	6.67164993	0.43900001	0	255	0
8.29675007	6.67862511	1.22300005	0	255	0
8.29675007	6.67862511	1.41900003	0	255	0
8.44012451	6.67862511	1.41900003	0	255	0
8.29675007	6.67164993	1.61500001	0	255	0
8.29675007	6.67164993	1.41900003	0	255	0
8.44012451	6.67164993	1.41900003	0	255	0
8.44012451	6.67164993	1.22300005	0	255	0
8.29675007	6.66816235	2.00699997	0	255	0
8.44012451	6.67164993	2.00699997	0	255	0
8.29675007	6.66816235	1.61500001	0	255	0
8.36843681	6.66467476	2.00699997	0	255	0
8.36843681	6.66467476	1.61500001	0	255	0
8.44012451	6.66816235	1.61500001	0	255	0
8.44012451	6.66816235	1.81099999	0	255	0
8.51181221	6.66816235	1.81099999	0	255	0
8.44012451	6.66467476	1.81099999	0	255	0
8.51181221	6.66467476	1.81099999	0	255	0
8.51181221	6.66467476	1.61500001	0	255	0
8.29675007	6.66816235	1.61500001	0	255	0
8.44012451	6.67164993	1.22300005	0	255	0
8.36843681	6.66467476	1.61500001	0	255	0
8.29675007	6.66467476	1.41900003	0	255	0
8.29675007	6.66467476	1.22300005	0	255	0
8.44012451	6.67164993	2.00699997	0	255	0
8.44012451	6.67164993	1.81099999	0	255	0
8.58349991	6.67164993	1.81099999	0	255	0
8.58349991	6.67164993	1.22300005	0	255	0
8.44012451	6.66467476	1.81099999	0	255	0
8.58349991	6.66467476	1.81099999	0	255	0
8.58349991	6.66467476	2.00699997	0	255	0
8.36843681	6.66467476	1.41900003	0	255	0
8.36843681	6.66467476	1.22300005	0	255	0
8.44012451	6.66467476	1.41900003	0	255	0
8.36843681	6.66118717	1.61500001	0	255	0
8.44012451	6.66118717	1.22300005	0	255	0
8.44012451	6.66118717	1.41900003	0	255	0
8.36843681	6.66118717	1.41900003	0	255	0
8.58349991	6.66467476	2.00699997	0	255	0
8.51181221	6.66118717	1.61500001	0	255	0
8.36843681	6.66467476	1.61500001	0	255	0
8.36843681	6.66118717	1.22300005	0	255	0
8.44012451	6.66118717	1.61500001	0	255	0
8.36843681	6.66467476	1.22300005	0	255	0
8.44012451	6.66118717	1.22300005	0	255	0
8.29675007	6.65769958	1.61500001	0	255	0
8.58349991	6.66467476	1.41900003	0	255	0
8.51181221	6.66467476	1.22300005	0	255	0
8.51181221	6.66118717	1.22300005	0	255	0
8.44012451	6.65769958	1.22300005	0	255	0
8.58349991	6.66118717	1.22300005	0	255	0
8.22506332	6.67164993	0.83100003	0	255	0
8.22506332	6.67164993	1.02700007	0	255	0
8.29675007	6.67164993	1.02700007	0	255	0
8.29675007	6.67164993	0.83100003	0	255	0
8.22506332	6.66816235	1.02700007	0	255	0
8.29675007	6.66816235	1.02700007	0	255	0
8.29675007	6.66816235	0.83100003	0	255	0
8.15337563	6.66467476	0.43900001	0	255	0
8.15337563	6.67164993	1.22300005	0	255	0
8.15337563	6.67164993	1.02700007	0	255	0
8.29675007	6.67164993	1.02700007	0	255	0
8.15337563	6.66467476	1.02700007	0	255	0
8.29675007	6.66467476	1.02700007	0	255	0
8.29675007	6.66467476	1.22300005	0	255	0
8.15337563	6.66467476	0.83100003	0	255	0
8.29675007	6.66816235	1.22300005	0	255	0
8.44012451	6.67164993	1.22300005	0	255	0
8.36843681	6.66467476	1.22300005	0	255	0
8.29675007	6.66467476	1.02700007	0	255	0
8.44012451	6.67164993	0.63499999	0	255	0
8.36843681	6.67164993	0.43900001	0	255	0
8.36843681	6.66816235	0.43900001	0	255	0
8.29675007	6.66467476	0.43900001	0	255	0
8.44012451	6.66816235	0.43900001	0	255	0
8.36843681	6.66467476	0.63499999	0	255	0
8.36843681	6.66467476	0.43900001	0	255	0
8.44012451	6.66467476	0.63499999	0	255	0
8.36843681	6.66118717	0.83100003	0	255	0
8.44012451	6.66118717	0.43900001	0	255	0
8.44012451	6.66118717	0.63499999	0	255	0
8.36843681	6.66118717	0.63499999	0	255	0
8.51181221	6.66467476	1.22300005	0	255	0
8.51181221	6.66467476	0.83100003	0	255	0
8.51181221	6.66118717	0.83100003	0	255	0
8.58349991	6.66118717	1.22300005	0	255	0
8.58349991	6.66118717	0.83100003	0	255	0
8.36843681	6.66467476	0.83100003	0	255	0
8.36843681	6.66118717	0.43900001	0	255	0
8.44012451	6.66118717	0.83100003	0	255	0
8.36843681	6.66467476	0.43900001	0	255	0
8.44012451	6.66118717	0.43900001	0	255	0
8.29675007	6.65769958	0.83100003	0	255	0
8.51181221	6.66467476	0.83100003	0	255	0
8.51181221	6.66467476	0.43900001	0	255	0
8.51181221	6.66118717	0.43900001	0	255	0
8.58349991	6.66118717	0.83100003	0	255	0
8.44012451	6.65769958	0.43900001	0	255	0
8.58349991	6.66118717	0.43900001	0	255	0
8.58349991	6.66118717	1.02700007	0	255	0
8.58349991	6.66118717	1.22300005	0	255	0
8.65518761	6.66118717	0.83100003	0	255	0
8.65518761	6.66118717	1.02700007	0	255	0
8.65518761	6.66118717	0.83100003	0	255	0
8.65518761	6.65769958	1.22300005	0	255	0
8.65518761	6.65769958	1.02700007	0	255	0
8.58349991	6.65769958	1.02700007	0	255	0
8.01000023	6.68211269	0.43900001	0	255	0
8.15337563	6.6855998	0.43900001	0	255	0
8.01000023	6.68211269	0.0470000207	0	255	0
8.08168793	6.67862511	0.43900001	0	255	0
8.08168793	6.67862511	0.0470000207	0	255	0
8.15337563	6.68211269	0.43900001	0	255	0
8.22506332	6.68211269	0.0470000207	0	255	0
8.22506332	6.68211269	0.0470000207	0	255	0
8.22506332	6.67862511	0.43900001	0	255	0
8.15337563	6.68211269	0.0470000207	0	255	0
8.22506332	6.67862511	0.0470000207	0	255	0
8.01000023	6.68211269	0.0470000207	0	255	0
8.01000023	6.68211269	-0.344999969	0	255	0
8.15337563	6.6855998	-0.344999969	0	255	0
8.08168793	6.67862511	0.0470000207	0	255	0
8.08168793	6.67862511	-0.344999969	0	255	0
8.15337563	6.6855998	0.43900001	0	255	0
8.15337563	6.6855998	0.243000016	0	255	0
8.29675007	6.6855998	0.243000016	0	255	0
8.29675007	6.6855998	-0.344999969	0	255	0
8.15337563	6.67862511	0.243000016	0	255	0
8.29675007	6.67862511	0.243000016	0	255	0
8.29675007	6.67862511	0.43900001	0	255	0
8.29675007	6.67862511	0.43900001	0	255	0
8.22506332	6.67513752	0.0470000207	0	255	0
8.08168793	6.67862511	-0.148999974	0	255	0
8.08168793	6.67862511	0.0470000207	0	255	0
8.15337563	6.67862511	-0.148999974	0	255	0
8.08168793	6.67513752	-0.344999969	0	255	0
8.15337563	6.67513752	0.0470000207	0	255	0
8.15337563	6.67513752	-0.148999974	0	255	0
8.08168793	6.67513752	-0.148999974	0	255	0
8.29675007	6.67862511	-0.344999969	0	255	0
8.22506332	6.67513752	-0.344999969	0	255	0
8.15337563	6.67164993	-0.344999969	0	255	0
8.29675007	6.67513752	-0.148999974	0	255	0
8.29675007	6.67513752	-0.344999969	0	255	0
8.36843681	6.67513752	0.0470000207	0	255	0
8.36843681	6.67513752	-0.148999974	0	255	0
8.36843681	6.67513752	0.0470000207	0	255	0
8.36843681	6.67164993	-0.344999969	0	255	0
8.36843681	6.67164993	-0.148999974	0	255	0
8.29675007	6.67164993	-0.148999974	0	255	0
8.01000023	6.68211269	-0.344999969	0	255	0
8.15337563	6.6855998	-0.344999969	0	255	0
8.15337563	6.6855998	-0.736999989	0	255	0
8.08168793	6.67862511	-0.344999969	0	255	0
8.01000023	6.67862511	-0.541000009	0	255	0
8.15337563	6.68211269	-0.344999969	0	255	0
8.22506332	6.68211269	-0.736999989	0	255	0
8.22506332	6.68211269	-0.736999989	0	255	0
8.22506332	6.67862511	-0.344999969	0	255	0
8.15337563	6.68211269	-0.736999989	0	255	0
8.22506332	6.67862511	-0.736999989	0	255	0
8.08168793	6.6855998	-0.736999989	0	255	0
8.01000023	6.6855998	-1.12899995	0	255	0
8.08168793	6.6855998	-1.12899995	0	255	0
8.08168793	6.68211269	-1.12899995	0	255	0
8.15337563	6.68211269	-0.736999989	0	255	0
8.01000023	6.67862511	-1.12899995	0	255	0
8.15337563	6.68211269	-1.12899995	0	255	0
8.08168793	6.67862511	-0.932999969	0	255	0
8.08168793	6.67862511	-1.12899995	0	255	0
8.15337563	6.67862511	-0.932999969	0	255	0
8.08168793	6.67513752	-0.736999989	0	255	0
8.15337563	6.67513752	-1.12899995	0	255	0
8.15337563	6.67513752	-0.932999969	0	255	0
8.08168793	6.67513752	-0.932999969	0	255	0
8.29675007	6.67862511	-0.344999969	0	255	0
8.29675007	6.67862511	-0.736999989	0	255	0
8.22506332	6.67513752	-0.736999989	0	255	0
8.08168793	6.67862511	-0.736999989	0	255	0
8.08168793	6.67862511	-1.12899995	0	255	0
8.15337563	6.67513752	-1.12899995	0	255	0
8.01000023	6.67164993	-0.736999989	0	255	0
8.08168793	6.67164993	-0.736999989	0	255	0
8.15337563	6.67164993	-0.932999969	0	255	0
8.08168793	6.67164993	-0.932999969	0	255	0
8.22506332	6.67862511	-0.736999989	0	255	0
8.22506332	6.67862511	-1.12899995	0	255	0
8.22506332	6.67513752	-1.12899995	0	255	0
8.29675007	6.67513752	-0.736999989	0	255	0
8.15337563	6.67164993	-1.12899995	0	255	0
8.29675007	6.67513752	-1.12899995	0	255	0
8.22506332	6.67164993	-0.932999969	0	255	0
8.22506332	6.67164993	-1.12899995	0	255	0
8.29675007	6.67164993	-0.932999969	0	255	0
8.22506332	6.66467476	-1.12899995	0	255	0
8.29675007	6.66467476	-1.12899995	0	255	0
8.29675007	6.66467476	-0.932999969	0	255	0
8.22506332	6.66467476	-0.932999969	0	255	0
8.36843681	6.67164993	0.43900001	0	255	0
8.36843681	6.67164993	0.0470000207	0	255	0
8.36843681	6.66816235	0.0470000207	0	255	0
8.44012451	6.66816235	0.43900001	0	255	0
8.44012451	6.66816235	0.0470000207	0	255	0
8.36843681	6.67164993	0.0470000207	0	255	0
8.36843681	6.67164993	-0.344999969	0	255	0
8.36843681	6.66816235	-0.344999969	0	255	0
8.44012451	6.66816235	0.0470000207	0	255	0
8.29675007	6.66467476	-0.344999969	0	255	0
8.44012451	6.66816235	-0.344999969	0	255	0
8.36843681	6.66467476	-0.148999974	0	255	0
8.36843681	6.66467476	-0.344999969	0	255	0
8.44012451	6.66467476	-0.148999974	0	255	0
8.36843681	6.66118717	0.0470000207	0	255	0
8.44012451	6.66118717	-0.344999969	0	255	0
8.44012451	6.66118717	-0.148999974	0	255	0
8.36843681	6.66118717	-0.148999974	0	255	0
8.51181221	6.66467476	0.43900001	0	255	0
8.51181221	6.66467476	0.0470000207	0	255	0
8.51181221	6.66118717	0.0470000207	0	255	0
8.58349991	6.66118717	0.43900001	0	255	0
8.58349991	6.66118717	0.0470000207	0	255	0
8.36843681	6.66467476	0.0470000207	0	255	0
8.36843681	6.66118717	-0.344999969	0	255	0
8.44012451	6.66118717	0.0470000207	0	255	0
8.36843681	6.66467476	-0.344999969	0	255	0
8.44012451	6.66118717	-0.344999969	0	255	0
8.29675007	6.65769958	0.0470000207	0	255	0
8.51181221	6.66467476	0.0470000207	0	255	0
8.51181221	6.66467476	-0.344999969	0	255	0
8.51181221	6.66118717	-0.344999969	0	255	0
8.58349991	6.66118717	0.0470000207	0	255	0
8.44012451	6.65769958	-0.344999969	0	255	0
8.58349991	6.66118717	-0.344999969	0	255	0
8.22506332	6.67164993	-0.344999969	0	255	0
8.22506332	6.66816235	-0.736999989	0	255	0
8.29675007	6.66816235	-0.344999969	0	255	0
8.22506332	6.67164993	-0.736999989	0	255	0
8.29675007	6.67164993	-0.736999989	0	255	0
8.22506332	6.66467476	-0.541000009	0	255	0
8.29675007	6.66467476	-0.541000009	0	255	0
8.29675007	6.66467476	-0.736999989	0	255	0
8.22506332	6.66467476	-0.736999989	0	255	0
8.15337563	6.67164993	-0.344999969	0	255	0
8.15337563	6.67164993	-0.541000009	0	255	0
8.29675007	6.67164993	-0.541000009	0	255	0
8.15337563	6.66467476	-0.541000009	0	255	0
8.29675007	6.66467476	-0.541000009	0	255	0
8.29675007	6.66467476	-0.344999969	0	255	0
8.15337563	6.66467476	-0.736999989	0	255	0
8.36843681	6.67164993	-0.344999969	0	255	0
8.36843681	6.67164993	-0.736999989	0	255	0
8.36843681	6.66816235	-0.736999989	0	255	0
8.44012451	6.66816235	-0.344999969	0	255	0
8.44012451	6.66816235	-0.736999989	0	255	0
8.36843681	6.67164993	-0.736999989	0	255	0
8.36843681	6.67164993	-1.12899995	0	255	0
8.36843681	6.66816235	-1.12899995	0	255	0
8.36843681	6.66467476	-0.736999989	0	255	0
8.36843681	6.66467476	-1.12899995	0	255	0
8.29675007	6.66467476	-1.12899995	0	255	0
8.29675007	6.66467476	-0.932999969	0	255	0
8.29675007	6.66118717	-1.12899995	0	255	0
8.29675007	6.66118717	-0.932999969	0	255	0
8.44012451	6.66467476	-0.932999969	0	255	0
8.36843681	6.65769958	-1.12899995	0	255	0
8.44012451	6.65769958	-0.932999969	0	255	0
8.36843681	6.65769958	-0.932999969	0	255	0
8.51181221	6.66467476	-0.344999969	0	255	0
8.51181221	6.66467476	-0.736999989	0	255	0
8.51181221	6.66118717	-0.736999989	0	255	0
8.58349991	6.66118717	-0.344999969	0	255	0
8.58349991	6.66118717	-0.736999989	0	255	0
8.58349991	6.65769958	-0.736999989	0	255	0
8.29675007	6.66467476	-0.932999969	0	255	0
8.29675007	6.66118717	-0.736999989	0	255	0
8.29675007	6.66118717	-0.932999969	0	255	0
8.36843681	6.66467476	-1.12899995	0	255	0
8.29675007	6.65769958	-0.344999969	0	255	0
8.36843681	6.65769958	-0.736999989	0	255	0
8.36843681	6.65769958	-1.12899995	0	255	0
8.44012451	6.66118717	-0.736999989	0	255	0
8.51181221	6.66118717	-1.12899995	0	255	0
8.51181221	6.66118717	-1.12899995	0	255	0
8.51181221	6.65769958	-0.736999989	0	255	0
8.44012451	6.66118717	-1.12899995	0	255	0
8.51181221	6.65769958	-1.12899995	0	255	0
8.51181221	6.65769958	-0.932999969	0	255	0
8.51181221	6.65769958	-1.12899995	0	255	0
8.58349991	6.65769958	-0.932999969	0	255	0
8.51181221	6.654212	-0.736999989	0	255	0
8.58349991	6.654212	-1.12899995	0	255	0
8.58349991	6.654212	-0.932999969	0	255	0
8.51181221	6.654212	-0.932999969	0	255	0
8.65518761	6.65769958	2.00699997	0	255	0
8.65518761	6.65769958	1.61500001	0	255	0
8.65518761	6.654212	1.61500001	0	255	0
8.72687531	6.654212	2.00699997	0	255	0
8.72687531	6.654212	1.61500001	0	255	0
8.72687531	6.654212	1.81099999	0	255	0
8.72687531	6.654212	2.00699997	0	255	0
8.798563	6.654212	1.61500001	0	255	0
8.798563	6.654212	1.81099999	0	255	0
8.798563	6.654212	1.61500001	0	255	0
8.798563	6.65072441	2.00699997	0	255	0
8.798563	6.65072441	1.81099999	0	255	0
8.72687531	6.65072441	1.81099999	0	255	0
8.65518761	6.65769958	1.61500001	0	255	0
8.65518761	6.65769958	1.22300005	0	255	0
8.65518761	6.654212	1.22300005	0	255	0
8.72687531	6.654212	1.61500001	0	255	0
8.58349991	6.65072441	1.22300005	0	255	0
8.72687531	6.654212	1.22300005	0	255	0
8.65518761	6.65072441	1.41900003	0	255	0
8.65518761	6.65072441	1.22300005	0	255	0
8.72687531	6.65072441	1.41900003	0	255	0
8.65518761	6.64723682	1.61500001	0	255	0
8.72687531	6.64723682	1.22300005	0	255	0
8.72687531	6.64723682	1.41900003	0	255	0
8.65518761	6.64723682	1.41900003	0	255	0
8.798563	6.65072441	2.00699997	0	255	0
8.798563	6.65072441	1.61500001	0	255	0
8.798563	6.64723682	1.61500001	0	255	0
8.87024975	6.64723682	2.00699997	0	255	0
8.87024975	6.64723682	1.61500001	0	255	0
8.65518761	6.65072441	1.61500001	0	255	0
8.65518761	6.64723682	1.22300005	0	255	0
8.72687531	6.64723682	1.61500001	0	255	0
8.65518761	6.65072441	1.22300005	0	255	0
8.72687531	6.64723682	1.22300005	0	255	0
8.58349991	6.64374971	1.61500001	0	255	0
8.798563	6.65072441	1.61500001	0	255	0
8.798563	6.65072441	1.22300005	0	255	0
8.798563	6.64723682	1.22300005	0	255	0
8.87024975	6.64723682	1.61500001	0	255	0
8.72687531	6.64374971	1.22300005	0	255	0
8.87024975	6.64723682	1.22300005	0	255	0
8.65518761	6.65769958	1.22300005	0	255	0
8.65518761	6.65769958	0.83100003	0	255	0
8.65518761	6.654212	0.83100003	0	255	0
8.72687531	6.654212	1.22300005	0	255	0
8.72687531	6.654212	0.83100003	0	255	0
8.65518761	6.65769958	0.83100003	0	255	0
8.65518761	6.65769958	0.43900001	0	255	0
8.65518761	6.654212	0.43900001	0	255	0
8.72687531	6.654212	0.83100003	0	255	0
8.58349991	6.65072441	0.43900001	0	255	0
8.72687531	6.654212	0.43900001	0	255	0
8.65518761	6.65072441	0.63499999	0	255	0
8.65518761	6.65072441	0.43900001	0	255	0
8.72687531	6.65072441	0.63499999	0	255	0
8.65518761	6.64723682	0.83100003	0	255	0
8.72687531	6.64723682	0.43900001	0	255	0
8.72687531	6.64723682	0.63499999	0	255	0
8.65518761	6.64723682	0.63499999	0	255	0
8.798563	6.65072441	1.22300005	0	255	0
8.798563	6.65072441	0.83100003	0	255	0
8.798563	6.64723682	0.83100003	0	255	0
8.87024975	6.64723682	1.22300005	0	255	0
8.87024975	6.64723682	0.83100003	0	255	0
8.65518761	6.65072441	0.83100003	0	255	0
8.65518761	6.64723682	0.43900001	0	255	0
8.72687531	6.64723682	0.83100003	0	255	0
8.65518761	6.65072441	0.43900001	0	255	0
8.72687531	6.64723682	0.43900001	0	255	0
8.58349991	6.64374971	0.83100003	0	255	0
8.798563	6.65072441	0.83100003	0	255	0
8.798563	6.65072441	0.43900001	0	255	0
8.798563	6.64723682	0.43900001	0	255	0
8.87024975	6.64723682	0.83100003	0	255	0
8.72687531	6.64374971	0.43900001	0	255	0
8.87024975	6.64723682	0.43900001	0	255	0
8.798563	6.64374971	0.63499999	0	255	0
8.798563	6.64374971	0.43900001	0	255	0
8.87024975	6.64374971	0.63499999	0	255	0
8.798563	6.6402626	0.83100003	0	255	0
8.87024975	6.6402626	0.43900001	0	255	0
8.87024975	6.6402626	0.63499999	0	255	0
8.798563	6.6402626	0.63499999	0	255	0
8.94193649	6.64374971	2.00699997	0	255	0
8.94193649	6.64374971	1.61500001	0	255	0
8.94193649	6.6402626	1.61500001	0	255	0
9.01362419	6.6402626	2.00699997	0	255	0
9.01362419	6.6402626	1.61500001	0	255	0
9.01362419	6.6402626	1.81099999	0	255	0
9.01362419	6.6402626	2.00699997	0	255	0
9.08531189	6.6402626	1.61500001	0	255	0
9.08531189	6.6402626	1.81099999	0	255	0
9.08531189	6.6402626	1.61500001	0	255	0
9.08531189	6.63677502	2.00699997	0	255	0
9.08531189	6.63677502	1.81099999	0	255	0
9.01362419	6.63677502	1.81099999	0	255	0
8.94193649	6.64374971	1.61500001	0	255	0
8.94193649	6.64374971	1.22300005	0	255	0
8.94193649	6.6402626	1.22300005	0	255	0
9.01362419	6.6402626	1.61500001	0	255	0
8.87024975	6.63677502	1.22300005	0	255	0
9.01362419	6.6402626	1.22300005	0	255	0
8.94193649	6.63677502	1.41900003	0	255	0
8.94193649	6.63677502	1.22300005	0	255	0
9.01362419	6.63677502	1.41900003	0	255	0
8.94193649	6.63328743	1.61500001	0	255	0
9.01362419	6.63328743	1.22300005	0	255	0
9.01362419	6.63328743	1.41900003	0	255	0
8.94193649	6.63328743	1.41900003	0	255	0
9.08531189	6.63677502	2.00699997	0	255	0
9.08531189	6.63677502	1.61500001	0	255	0
9.08531189	6.63328743	1.61500001	0	255	0
9.15699959	6.63328743	2.00699997	0	255	0
9.15699959	6.62979984	2.00699997	0	255	0
9.15699959	6.63328743	1.61500001	0	255	0
8.94193649	6.63677502	1.61500001	0	255	0
8.94193649	6.63328743	1.22300005	0	255	0
9.01362419	6.63328743	1.61500001	0	255	0
8.94193649	6.63677502	1.22300005	0	255	0
9.01362419	6.63328743	1.22300005	0	255	0
8.87024975	6.62979984	1.61500001	0	255	0
9.15699959	6.63677502	1.61500001	0	255	0
9.15699959	6.63677502	1.41900003	0	255	0
9.08531189	6.63677502	1.22300005	0	255	0
9.08531189	6.63328743	1.22300005	0	255	0
9.01362419	6.62979984	1.22300005	0	255	0
9.15699959	6.63328743	1.22300005	0	255	0
8.798563	6.64374971	1.22300005	0	255	0
8.798563	6.6402626	0.83100003	0	255	0
8.87024975	6.6402626	1.22300005	0	255	0
8.798563	6.64374971	0.83100003	0	255	0
8.87024975	6.64374971	0.83100003	0	255	0
8.87024975	6.6402626	0.83100003	0	255	0
8.72687531	6.63677502	0.43900001	0	255	0
8.72687531	6.64374971	1.22300005	0	255	0
8.72687531	6.64374971	1.02700007	0	255	0
8.87024975	6.64374971	1.02700007	0	255	0
8.72687531	6.63677502	1.02700007	0	255	0
8.87024975	6.63677502	1.02700007	0	255	0
8.87024975	6.63677502	1.22300005	0	255	0
8.72687531	6.63677502	0.83100003	0	255	0
8.94193649	6.64374971	1.22300005	0	255	0
8.94193649	6.64374971	0.83100003	0	255	0
8.94193649	6.6402626	0.83100003	0	255	0
9.01362419	6.6402626	1.22300005	0	255	0
9.01362419	6.6402626	0.83100003	0	255	0
8.94193649	6.64374971	0.83100003	0	255	0
8.94193649	6.64374971	0.43900001	0	255	0
8.94193649	6.6402626	0.43900001	0	255	0
9.01362419	6.6402626	0.83100003	0	255	0
8.87024975	6.63677502	0.43900001	0	255	0
9.01362419	6.6402626	0.43900001	0	255	0
8.94193649	6.63677502	0.63499999	0	255	0
8.94193649	6.63677502	0.43900001	0	255	0
9.01362419	6.63677502	0.63499999	0	255	0
8.94193649	6.63328743	0.83100003	0	255	0
9.01362419	6.63328743	0.43900001	0	255	0
9.01362419	6.63328743	0.63499999	0	255	0
8.94193649	6.63328743	0.63499999	0	255	0
9.08531189	6.63677502	1.22300005	0	255	0
9.08531189	6.63677502	0.83100003	0	255	0
9.08531189	6.63328743	0.83100003	0	255	0
9.15699959	6.63328743	1.22300005	0	255	0
9.15699959	6.63328743	0.83100003	0	255	0
8.94193649	6.63677502	0.83100003	0	255	0
8.94193649	6.63328743	0.43900001	0	255	0
9.01362419	6.63328743	0.83100003	0	255	0
8.94193649	6.63677502	0.43900001	0	255	0
9.01362419	6.63328743	0.43900001	0	255	0
8.87024975	6.62979984	0.83100003	0	255	0
9.08531189	6.63677502	0.83100003	0	255	0
9.08531189	6.63677502	0.43900001	0	255	0
9.08531189	6.63328743	0.43900001	0	255	0
9.15699959	6.63328743	0.83100003	0	255	0
9.01362419	6.62979984	0.43900001	0	255	0
9.15699959	6.63328743	0.43900001	0	255	0
8.51181221	6.65769958	0.43900001	0	255	0
8.51181221	6.654212	0.0470000207	0	255	0
8.58349991	6.654212	0.43900001	0	255	0
8.51181221	6.65769958	0.0470000207	0	255	0
8.58349991	6.654212	0.0470000207	0	255	0
8.44012451	6.65072441	-0.344999969	0	255	0
8.44012451	6.65769958	-0.541000009	0	255	0
8.44012451	6.65769958	0.0470000207	0	255	0
8.58349991	6.65769958	-0.541000009	0	255	0
8.44012451	6.65072441	-1.12899995	0	255	0
8.58349991	6.65072441	0.0470000207	0	255	0
8.58349991	6.65072441	-0.541000009	0	255	0
8.44012451	6.65072441	-0.541000009	0	255	0
8.44012451	6.65769958	-0.344999969	0	255	0
8.44012451	6.65769958	-0.148999974	0	255	0
8.58349991	6.65769958	-0.148999974	0	255	0
8.01000023	6.62979984	2.00699997	0	255	0
8.44012451	6.65072441	-0.148999974	0	255	0
8.58349991	6.65072441	-0.148999974	0	255	0
8.58349991	6.65072441	-0.344999969	0	255	0
8.29675007	6.64374971	0.0470000207	0	255	0
8.65518761	6.65769958	0.43900001	0	255	0
8.65518761	6.65769958	0.0470000207	0	255	0
8.65518761	6.654212	0.0470000207	0	255	0
8.72687531	6.654212	0.43900001	0	255	0
8.72687531	6.654212	0.0470000207	0	255	0
8.65518761	6.65769958	0.0470000207	0	255	0
8.65518761	6.65769958	-0.344999969	0	255	0
8.65518761	6.654212	-0.344999969	0	255	0
8.72687531	6.654212	0.0470000207	0	255	0
8.58349991	6.65072441	-0.344999969	0	255	0
8.72687531	6.654212	-0.344999969	0	255	0
8.65518761	6.65072441	-0.148999974	0	255	0
8.65518761	6.65072441	-0.344999969	0	255	0
8.72687531	6.65072441	-0.148999974	0	255	0
8.65518761	6.64723682	0.0470000207	0	255	0
8.72687531	6.64723682	-0.344999969	0	255	0
8.72687531	6.64723682	-0.148999974	0	255	0
8.65518761	6.64723682	-0.148999974	0	255	0
8.798563	6.65072441	0.43900001	0	255	0
8.798563	6.65072441	0.0470000207	0	255	0
8.798563	6.64723682	0.0470000207	0	255	0
8.87024975	6.64723682	0.43900001	0	255	0
8.87024975	6.64723682	0.0470000207	0	255	0
8.58349991	6.65072441	-0.148999974	0	255	0
8.58349991	6.64723682	0.0470000207	0	255	0
8.58349991	6.64723682	-0.148999974	0	255	0
8.72687531	6.64723682	0.0470000207	0	255	0
8.65518761	6.65072441	-0.344999969	0	255	0
8.65518761	6.64374971	-0.148999974	0	255	0
8.72687531	6.64374971	-0.148999974	0	255	0
8.65518761	6.64374971	-0.344999969	0	255	0
8.798563	6.65072441	0.0470000207	0	255	0
8.798563	6.65072441	-0.344999969	0	255	0
8.798563	6.64723682	-0.344999969	0	255	0
8.87024975	6.64723682	0.0470000207	0	255	0
8.87024975	6.64723682	-0.344999969	0	255	0
8.65518761	6.65769958	-0.344999969	0	255	0
8.58349991	6.65769958	-0.736999989	0	255	0
8.65518761	6.65769958	-0.736999989	0	255	0
8.65518761	6.654212	-0.736999989	0	255	0
8.72687531	6.654212	-0.344999969	0	255	0
8.72687531	6.654212	-0.736999989	0	255	0
8.58349991	6.654212	-0.736999989	0	255	0
8.65518761	6.654212	-1.12899995	0	255	0
8.65518761	6.654212	-1.12899995	0	255	0
8.65518761	6.65072441	-0.736999989	0	255	0
8.58349991	6.654212	-1.12899995	0	255	0
8.65518761	6.65072441	-1.12899995	0	255	0
8.58349991	6.65072441	-0.932999969	0	255	0
8.58349991	6.64723682	-1.12899995	0	255	0
8.58349991	6.64723682	-0.932999969	0	255	0
8.72687531	6.65072441	-0.932999969	0	255	0
8.65518761	6.64374971	-1.12899995	0	255	0
8.72687531	6.64374971	-0.932999969	0	255	0
8.65518761	6.64374971	-0.932999969	0	255	0
8.798563	6.65072441	-0.344999969	0	255	0
8.798563	6.65072441	-0.736999989	0	255	0
8.798563	6.64723682	-0.736999989	0	255	0
8.87024975	6.64723682	-0.344999969	0	255	0
8.87024975	6.64723682	-0.736999989	0	255	0
8.87024975	6.64374971	-0.736999989	0	255	0
8.58349991	6.64723682	-0.736999989	0	255	0
8.58349991	6.64723682	-1.12899995	0	255	0
8.58349991	6.64374971	-0.344999969	0	255	0
8.65518761	6.64374971	-0.736999989	0	255	0
8.65518761	6.64374971	-1.12899995	0	255	0
8.72687531	6.64723682	-0.736999989	0	255	0
8.798563	6.64723682	-1.12899995	0	255	0
8.798563	6.64723682	-1.12899995	0	255	0
8.798563	6.64374971	-0.736999989	0	255	0
8.72687531	6.64723682	-1.12899995	0	255	0
8.798563	6.64374971	-1.12899995	0	255	0
8.798563	6.64374971	-0.932999969	0	255	0
8.798563	6.64374971	-1.12899995	0	255	0
8.87024975	6.64374971	-0.932999969	0	255	0
8.798563	6.6402626	-0.736999989	0	255	0
8.87024975	6.6402626	-1.12899995	0	255	0
8.87024975	6.6402626	-0.932999969	0	255	0
8.798563	6.6402626	-0.932999969	0	255	0
8.94193649	6.64374971	0.43900001	0	255	0
8.94193649	6.64374971	0.0470000207	0	255	0
8.94193649	6.6402626	0.0470000207	0	255	0
9.01362419	6.6402626	0.43900001	0	255	0
9.01362419	6.6402626	0.0470000207	0	255	0
8.94193649	6.64374971	0.0470000207	0	255	0
8.94193649	6.64374971	-0.344999969	0	255	0
8.94193649	6.6402626	-0.344999969	0	255	0
9.01362419	6.6402626	0.0470000207	0	255	0
8.87024975	6.63677502	-0.344999969	0	255	0
9.01362419	6.6402626	-0.344999969	0	255	0
8.94193649	6.63677502	-0.148999974	0	255	0
8.94193649	6.63677502	-0.344999969	0	255	0
9.01362419	6.63677502	-0.148999974	0	255	0
8.94193649	6.63328743	0.0470000207	0	255	0
9.01362419	6.63328743	-0.344999969	0	255	0
9.01362419	6.63328743	-0.148999974	0	255	0
8.94193649	6.63328743	-0.148999974	0	255	0
9.08531189	6.63677502	0.43900001	0	255	0
9.08531189	6.63677502	0.0470000207	0	255	0
9.08531189	6.63328743	0.0470000207	0	255	0
9.15699959	6.63328743	0.43900001	0	255	0
9.15699959	6.63328743	0.0470000207	0	255	0
8.94193649	6.63677502	0.0470000207	0	255	0
8.94193649	6.63328743	-0.344999969	0	255	0
9.01362419	6.63328743	0.0470000207	0	255	0
8.94193649	6.63677502	-0.344999969	0	255	0
9.01362419	6.63328743	-0.344999969	0	255	0
8.87024975	6.62979984	0.0470000207	0	255	0
9.08531189	6.63677502	0.0470000207	0	255	0
9.08531189	6.63677502	-0.344999969	0	255	0
9.08531189	6.63328743	-0.344999969	0	255	0
9.15699959	6.63328743	0.0470000207	0	255	0
9.01362419	6.62979984	-0.344999969	0	255	0
9.15699959	6.63328743	-0.344999969	0	255	0
8.72687531	6.64374971	-0.344999969	0	255	0
8.72687531	6.6402626	-0.344999969	0	255	0
8.72687531	6.64374971	-0.736999989	0	255	0
8.72687531	6.6402626	-0.736999989	0	255	0
8.87024975	6.64374971	-0.736999989	0	255	0
8.798563	6.63677502	-0.344999969	0	255	0
8.87024975	6.63677502	-0.344999969	0	255	0
8.87024975	6.63677502	-0.736999989	0	255	0
8.798563	6.63677502	-0.736999989	0	255	0
8.72687531	6.64374971	-0.344999969	0	255	0
8.72687531	6.64374971	-0.541000009	0	255	0
8.87024975	6.64374971	-0.541000009	0	255	0
8.58349991	6.62979984	0.43900001	0	255	0
8.72687531	6.63677502	-0.541000009	0	255	0
8.87024975	6.63677502	-0.541000009	0	255	0
8.87024975	6.63677502	-0.344999969	0	255	0
8.72687531	6.63677502	-0.736999989	0	255	0
8.94193649	6.64374971	-0.344999969	0	255	0
8.87024975	6.64374971	-0.736999989	0	255	0
8.94193649	6.64374971	-0.736999989	0	255	0
8.94193649	6.6402626	-0.736999989	0	255	0
9.01362419	6.6402626	-0.344999969	0	255	0
9.01362419	6.6402626	-0.736999989	0	255	0
8.87024975	6.6402626	-0.736999989	0	255	0
8.94193649	6.6402626	-1.12899995	0	255	0
9.01362419	6.6402626	-0.736999989	0	255	0
9.01362419	6.6402626	-0.932999969	0	255	0
9.01362419	6.63677502	-0.932999969	0	255	0
8.87024975	6.6402626	-1.12899995	0	255	0
8.94193649	6.63677502	-1.12899995	0	255	0
8.87024975	6.63677502	-1.12899995	0	255	0
8.87024975	6.63677502	-0.932999969	0	255	0
8.87024975	6.63328743	-1.12899995	0	255	0
8.87024975	6.63328743	-0.932999969	0	255	0
9.01362419	6.63677502	-0.932999969	0	255	0
8.94193649	6.62979984	-1.12899995	0	255	0
9.01362419	6.62979984	-0.932999969	0	255	0
8.94193649	6.62979984	-0.932999969	0	255	0
9.08531189	6.63677502	-0.344999969	0	255	0
9.08531189	6.63677502	-0.736999989	0	255	0
9.08531189	6.63328743	-0.736999989	0	255	0
9.15699959	6.63328743	-0.344999969	0	255	0
9.15699959	6.63328743	-0.736999989	0	255	0
9.15699959	6.62979984	-0.736999989	0	255	0
8.87024975	6.63677502	-0.932999969	0	255	0
8.87024975	6.63328743	-0.736999989	0	255	0
8.87024975	6.63328743	-0.932999969	0	255	0
9.01362419	6.63677502	-0.932999969	0	255	0
8.94193649	6.62979984	-0.736999989	0	255	0
9.01362419	6.62979984	-0.932999969	0	255	0
8.94193649	6.62979984	-0.932999969	0	255	0
9.01362419	6.63677502	-0.932999969	0	255	0
9.08531189	6.63677502	-0.736999989	0	255	0
9.08531189	6.63677502	-0.932999969	0	255	0
9.08531189	6.63328743	-1.12899995	0	255	0
9.08531189	6.62979984	-0.736999989	0	255	0
9.08531189	6.62979984	-0.932999969	0	255	0
9.01362419	6.62979984	-0.932999969	0	255	0
