-14.1940002	6.89479971	2.08800006	0	255	0
-14.007	6.89479971	2.08800006	0	255	0
-14.1940002	6.89479971	1.68200004	0	255	0
-14.1005001	6.88819981	1.68200004	0	255	0
-14.007	6.88159943	2.08800006	0	255	0
-14.1940002	6.89479971	1.07299995	0	255	0
-14.1940002	6.89479971	1.68200004	0	255	0
-14.007	6.89479971	1.07299995	0	255	0
-14.1940002	6.88159943	0.463999987	0	255	0
-14.007	6.88159943	1.68200004	0	255	0
-14.007	6.88159943	1.07299995	0	255	0
-14.1940002	6.88159943	1.07299995	0	255	0
-14.1940002	6.88159943	1.88499999	0	255	0
-14.007	6.88159943	1.88499999	0	255	0
-14.007	6.87499952	1.88499999	0	255	0
-14.007	6.87499952	1.68200004	0	255	0
-14.1940002	6.86839962	1.88499999	0	255	0
-14.1005001	6.86839962	1.88499999	0	255	0
-14.1005001	6.86839962	1.68200004	0	255	0
-14.007	6.87499952	1.68200004	0	255	0
-14.3810005	6.86839962	0.463999987	0	255	0
-14.007	6.88159943	1.27600002	0	255	0
-14.007	6.87499952	1.27600002	0	255	0
-14.1005001	6.87499952	1.27600002	0	255	0
-14.1005001	6.86839962	1.68200004	0	255	0
-14.1005001	6.86839962	1.27600002	0	255	0
-14.1940002	6.86839962	1.27600002	0	255	0
-14.1940002	6.89479971	1.27600002	0	255	0
-14.007	6.89479971	1.27600002	0	255	0
-14.1940002	6.89479971	0.0580000877	0	255	0
-14.007	6.89479971	0.0580000877	0	255	0
-14.1940002	6.86839962	1.27600002	0	255	0
-14.007	6.86839962	1.27600002	0	255	0
-14.007	6.86839962	0.0580000877	0	255	0
-14.1940002	6.86839962	0.0580000877	0	255	0
-14.4745007	6.85519981	0.666999996	0	255	0
-14.4745007	6.85519981	0.463999987	0	255	0
-14.3810005	6.85519981	0.463999987	0	255	0
-14.3810005	6.85519981	0.666999996	0	255	0
-14.4745007	6.84200001	0.463999987	0	255	0
-14.3810005	6.84200001	0.666999996	0	255	0
-14.4745007	6.84200001	0.666999996	0	255	0
-14.2875004	6.86839962	1.68200004	0	255	0
-14.2875004	6.86839962	1.88499999	0	255	0
-14.1940002	6.86839962	1.88499999	0	255	0
-14.3810005	6.86179972	2.08800006	0	255	0
-14.2875004	6.86179972	1.68200004	0	255	0
-14.1940002	6.86179972	2.08800006	0	255	0
-14.3810005	6.86179972	1.68200004	0	255	0
-14.1940002	6.86839962	1.88499999	0	255	0
-14.1005001	6.86839962	1.88499999	0	255	0
-14.1005001	6.86839962	1.68200004	0	255	0
-14.1940002	6.86179972	1.88499999	0	255	0
-14.1005001	6.86179972	1.88499999	0	255	0
-14.1940002	6.86179972	1.68200004	0	255	0
-14.2875004	6.86839962	1.68200004	0	255	0
-14.2875004	6.86839962	1.27600002	0	255	0
-14.1940002	6.86839962	1.27600002	0	255	0
-14.3810005	6.86179972	1.68200004	0	255	0
-14.2875004	6.86179972	1.27600002	0	255	0
-14.3810005	6.86179972	1.27600002	0	255	0
-14.1940002	6.86839962	2.08800006	0	255	0
-14.1940002	6.86839962	1.88499999	0	255	0
-14.007	6.86839962	1.88499999	0	255	0
-14.007	6.86839962	1.27600002	0	255	0
-14.1940002	6.85519981	1.88499999	0	255	0
-14.007	6.85519981	1.88499999	0	255	0
-14.007	6.85519981	2.08800006	0	255	0
-14.3810005	6.85519981	1.47900009	0	255	0
-14.2875004	6.85519981	1.27600002	0	255	0
-14.2875004	6.85519981	1.47900009	0	255	0
-14.2875004	6.84859991	1.68200004	0	255	0
-14.2875004	6.84200001	1.27600002	0	255	0
-14.2875004	6.84200001	1.47900009	0	255	0
-14.3810005	6.84200001	1.47900009	0	255	0
-14.1940002	6.84859991	1.68200004	0	255	0
-14.1940002	6.84859991	1.27600002	0	255	0
-14.2875004	6.84859991	1.27600002	0	255	0
-14.2875004	6.84200001	1.68200004	0	255	0
-14.2875004	6.84200001	1.27600002	0	255	0
-14.4745007	6.84859991	0.870000005	0	255	0
-14.3810005	6.84859991	1.27600002	0	255	0
-14.4745007	6.84200001	1.27600002	0	255	0
-14.5680008	6.84200001	1.27600002	0	255	0
-14.3810005	6.84859991	0.870000005	0	255	0
-14.4745007	6.84200001	0.870000005	0	255	0
-14.4745007	6.84859991	0.463999987	0	255	0
-14.3810005	6.84859991	0.870000005	0	255	0
-14.4745007	6.84200001	0.870000005	0	255	0
-14.5680008	6.84200001	0.870000005	0	255	0
-14.3810005	6.84859991	0.463999987	0	255	0
-14.4745007	6.84200001	0.463999987	0	255	0
-14.2875004	6.86839962	1.27600002	0	255	0
-14.2875004	6.86839962	0.870000005	0	255	0
-14.3810005	6.86179972	1.27600002	0	255	0
-14.2875004	6.86179972	0.870000005	0	255	0
-14.3810005	6.86179972	0.870000005	0	255	0
-14.1005001	6.86839962	1.27600002	0	255	0
-14.1940002	6.86179972	1.27600002	0	255	0
-14.1005001	6.86179972	0.870000005	0	255	0
-14.1005001	6.86839962	0.870000005	0	255	0
-14.1940002	6.86179972	0.870000005	0	255	0
-14.2875004	6.86839962	0.870000005	0	255	0
-14.2875004	6.86839962	0.463999987	0	255	0
-14.1940002	6.86839962	0.463999987	0	255	0
-14.2875004	6.85519981	0.870000005	0	255	0
-14.2875004	6.85519981	0.463999987	0	255	0
-14.1940002	6.86839962	1.27600002	0	255	0
-14.1940002	6.86839962	1.07299995	0	255	0
-14.007	6.86839962	1.07299995	0	255	0
-14.007	6.86839962	0.463999987	0	255	0
-14.1940002	6.85519981	1.07299995	0	255	0
-14.007	6.85519981	1.07299995	0	255	0
-14.007	6.85519981	1.27600002	0	255	0
-14.3810005	6.85519981	0.666999996	0	255	0
-14.1940002	6.85519981	0.666999996	0	255	0
-14.1940002	6.84859991	0.463999987	0	255	0
-14.1940002	6.84859991	0.666999996	0	255	0
-14.2875004	6.84859991	0.870000005	0	255	0
-14.2875004	6.84200001	0.463999987	0	255	0
-14.2875004	6.84200001	0.666999996	0	255	0
-14.3810005	6.84200001	0.666999996	0	255	0
-14.1940002	6.84859991	0.870000005	0	255	0
-14.3810005	6.85519981	0.463999987	0	255	0
-14.1940002	6.84859991	0.463999987	0	255	0
-14.2875004	6.84859991	0.463999987	0	255	0
-14.2875004	6.84200001	0.870000005	0	255	0
-14.2875004	6.84200001	0.463999987	0	255	0
-14.3810005	6.89479971	1.27600002	0	255	0
-14.3810005	6.89479971	1.07299995	0	255	0
-14.007	6.89479971	1.07299995	0	255	0
-14.007	6.89479971	-1.15999997	0	255	0
-14.3810005	6.86839962	1.07299995	0	255	0
-14.007	6.86839962	1.07299995	0	255	0
-14.007	6.86839962	1.27600002	0	255	0
-14.3810005	6.86839962	0.870000005	0	255	0
-14.7550001	6.84200001	0.870000005	0	255	0
-14.5680008	6.85519981	0.666999996	0	255	0
-14.3810005	6.85519981	0.666999996	0	255	0
-14.3810005	6.85519981	0.463999987	0	255	0
-14.5680008	6.84200001	0.666999996	0	255	0
-14.3810005	6.84200001	0.666999996	0	255	0
-14.5680008	6.84200001	0.463999987	0	255	0
-14.7550001	6.84200001	1.27600002	0	255	0
-14.3810005	6.86839962	0.666999996	0	255	0
-14.007	6.86839962	0.666999996	0	255	0
-14.007	6.86839962	0.463999987	0	255	0
-14.007	6.85519981	0.666999996	0	255	0
-14.007	6.85519981	0.463999987	0	255	0
-14.3810005	6.84200001	0.666999996	0	255	0
-14.1940002	6.84200001	0.666999996	0	255	0
-14.1940002	6.84200001	0.463999987	0	255	0
-14.8484993	6.8288002	-0.956999958	0	255	0
-14.8484993	6.8288002	-1.15999997	0	255	0
-14.7550001	6.8288002	-1.15999997	0	255	0
-14.7550001	6.8288002	-0.956999958	0	255	0
-14.9419994	6.82219982	-0.956999958	0	255	0
-14.9419994	6.82219982	-1.15999997	0	255	0
-14.8484993	6.82219982	-0.753999949	0	255	0
-14.9419994	6.81559992	-0.956999958	0	255	0
-14.7550001	6.81559992	-1.15999997	0	255	0
-14.7550001	6.81559992	-0.956999958	0	255	0
-15.2224998	6.80900002	0.260999978	0	255	0
-15.2224998	6.80900002	0.0579999983	0	255	0
-15.1289997	6.80900002	0.463999987	0	255	0
-15.1289997	6.80900002	0.260999978	0	255	0
-15.2224998	6.80239964	0.463999987	0	255	0
-15.1289997	6.80239964	0.260999978	0	255	0
-15.2224998	6.80239964	0.260999978	0	255	0
-15.4095001	6.80239964	-0.144999996	0	255	0
-15.4095001	6.80239964	-0.34799999	0	255	0
-15.316	6.80239964	-0.144999996	0	255	0
-15.5030003	6.79579973	-0.144999996	0	255	0
-15.5030003	6.79579973	-0.34799999	0	255	0
-15.4095001	6.79579973	0.0579999983	0	255	0
-15.5030003	6.78919983	-0.144999996	0	255	0
-15.316	6.78919983	0.463999987	0	255	0
-15.316	6.78919983	-0.144999996	0	255	0
-15.316	6.80239964	0.260999978	0	255	0
-15.1289997	6.80239964	0.260999978	0	255	0
-15.1289997	6.79579973	0.463999987	0	255	0
-15.1289997	6.79579973	0.260999978	0	255	0
-15.2224998	6.79579973	0.0579999983	0	255	0
-15.2224998	6.78919983	0.463999987	0	255	0
-15.2224998	6.78919983	0.260999978	0	255	0
-15.316	6.78919983	0.260999978	0	255	0
-15.1289997	6.81559992	-0.956999958	0	255	0
-15.1289997	6.81559992	0.463999987	0	255	0
-14.9419994	6.81559992	-0.956999958	0	255	0
-15.0354996	6.80900002	-0.753999949	0	255	0
-15.1289997	6.80239964	-0.956999958	0	255	0
-14.9419994	6.80239964	-0.34799999	0	255	0
-14.9419994	6.80239964	-0.956999958	0	255	0
-14.9419994	6.81559992	-0.956999958	0	255	0
-14.8484993	6.81559992	-1.15999997	0	255	0
-14.8484993	6.81559992	-0.956999958	0	255	0
-14.9419994	6.80900002	-1.15999997	0	255	0
-14.8484993	6.80900002	-0.753999949	0	255	0
-14.8484993	6.80900002	-0.956999958	0	255	0
-14.9419994	6.80900002	-0.956999958	0	255	0
-15.1289997	6.80239964	-0.550999999	0	255	0
-15.1289997	6.80239964	-1.15999997	0	255	0
-15.0354996	6.80239964	-0.34799999	0	255	0
-15.0354996	6.80239964	-0.550999999	0	255	0
-15.1289997	6.79579973	-0.34799999	0	255	0
-15.0354996	6.79579973	-0.753999949	0	255	0
-15.0354996	6.79579973	-0.550999999	0	255	0
-15.1289997	6.79579973	-0.550999999	0	255	0
-14.7550001	6.8354001	1.68200004	0	255	0
-14.7550001	6.8354001	1.88499999	0	255	0
-14.7550001	6.8288002	1.88499999	0	255	0
-14.5680008	6.8354001	1.88499999	0	255	0
-14.5680008	6.8354001	1.68200004	0	255	0
-14.5680008	6.8288002	1.88499999	0	255	0
-14.5680008	6.84200001	1.68200004	0	255	0
-14.5680008	6.84200001	1.88499999	0	255	0
-14.3810005	6.84200001	1.88499999	0	255	0
-14.3810005	6.84200001	1.68200004	0	255	0
-14.3810005	6.8354001	1.88499999	0	255	0
-14.3810005	6.8354001	1.68200004	0	255	0
-14.5680008	6.8288002	1.88499999	0	255	0
-14.4745007	6.8288002	1.88499999	0	255	0
-14.4745007	6.8288002	1.68200004	0	255	0
-14.7550001	6.8354001	1.68200004	0	255	0
-14.6615009	6.8354001	1.27600002	0	255	0
-14.5680008	6.8354001	1.68200004	0	255	0
-14.7550001	6.8354001	1.27600002	0	255	0
-14.5680008	6.8354001	1.27600002	0	255	0
-14.5680008	6.84200001	2.08800006	0	255	0
-14.5680008	6.84200001	1.88499999	0	255	0
-14.3810005	6.84200001	1.88499999	0	255	0
-14.5680008	6.8288002	1.88499999	0	255	0
-14.3810005	6.8288002	1.88499999	0	255	0
-14.3810005	6.8288002	2.08800006	0	255	0
-14.7550001	6.8288002	1.47900009	0	255	0
-14.6615009	6.8288002	1.27600002	0	255	0
-14.6615009	6.8288002	1.47900009	0	255	0
-14.7550001	6.82219982	1.27600002	0	255	0
-14.6615009	6.82219982	1.68200004	0	255	0
-14.6615009	6.82219982	1.47900009	0	255	0
-14.7550001	6.82219982	1.47900009	0	255	0
-14.5680008	6.82219982	1.68200004	0	255	0
-14.7550001	6.82219982	1.27600002	0	255	0
-14.5680008	6.82219982	1.27600002	0	255	0
-14.6615009	6.82219982	1.27600002	0	255	0
-14.6615009	6.81559992	1.68200004	0	255	0
-14.6615009	6.81559992	1.47900009	0	255	0
-14.7550001	6.81559992	1.47900009	0	255	0
-14.6615009	6.8354001	0.870000005	0	255	0
-14.5680008	6.8354001	1.27600002	0	255	0
-14.6615009	6.8288002	1.27600002	0	255	0
-14.5680008	6.8354001	0.870000005	0	255	0
-14.6615009	6.8288002	0.870000005	0	255	0
-14.5680008	6.84200001	1.27600002	0	255	0
-14.3810005	6.8354001	1.27600002	0	255	0
-14.5680008	6.84200001	0.870000005	0	255	0
-14.3810005	6.84200001	0.870000005	0	255	0
-14.3810005	6.8354001	0.870000005	0	255	0
-14.4745007	6.8354001	0.870000005	0	255	0
-14.4745007	6.8288002	1.27600002	0	255	0
-14.4745007	6.8288002	0.870000005	0	255	0
-14.6615009	6.8354001	0.463999987	0	255	0
-14.5680008	6.8354001	0.870000005	0	255	0
-14.6615009	6.8288002	0.870000005	0	255	0
-14.5680008	6.8354001	0.463999987	0	255	0
-14.6615009	6.8288002	0.463999987	0	255	0
-14.5680008	6.84200001	1.27600002	0	255	0
-14.5680008	6.84200001	1.07299995	0	255	0
-14.3810005	6.84200001	1.07299995	0	255	0
-14.3810005	6.84200001	0.463999987	0	255	0
-14.5680008	6.8288002	1.07299995	0	255	0
-14.3810005	6.8288002	1.07299995	0	255	0
-14.3810005	6.8288002	1.27600002	0	255	0
-14.7550001	6.8288002	0.666999996	0	255	0
-14.5680008	6.8288002	0.666999996	0	255	0
-14.5680008	6.82219982	0.463999987	0	255	0
-14.5680008	6.82219982	0.666999996	0	255	0
-14.6615009	6.82219982	0.870000005	0	255	0
-14.6615009	6.81559992	0.463999987	0	255	0
-14.6615009	6.81559992	0.666999996	0	255	0
-14.7550001	6.81559992	0.666999996	0	255	0
-14.5680008	6.82219982	0.870000005	0	255	0
-14.7550001	6.8288002	0.463999987	0	255	0
-14.5680008	6.82219982	0.463999987	0	255	0
-14.6615009	6.82219982	0.463999987	0	255	0
-14.6615009	6.81559992	0.870000005	0	255	0
-14.6615009	6.81559992	0.463999987	0	255	0
-14.7550001	6.81559992	0.463999987	0	255	0
-14.9419994	6.82219982	0.463999987	0	255	0
-14.8484993	6.82219982	0.0579999983	0	255	0
-14.7550001	6.82219982	0.463999987	0	255	0
-14.7550001	6.81559992	0.463999987	0	255	0
-14.9419994	6.82219982	0.0579999983	0	255	0
-14.7550001	6.82219982	0.0579999983	0	255	0
-14.9419994	6.82219982	0.0579999983	0	255	0
-14.8484993	6.82219982	-0.34799999	0	255	0
-14.7550001	6.82219982	0.0579999983	0	255	0
-14.9419994	6.82219982	-0.34799999	0	255	0
-14.9419994	6.81559992	-0.34799999	0	255	0
-14.7550001	6.82219982	-0.34799999	0	255	0
-15.1289997	6.81559992	0.0579999983	0	255	0
-14.9419994	6.8288002	-0.144999996	0	255	0
-14.7550001	6.8288002	-0.144999996	0	255	0
-14.7550001	6.8288002	-0.34799999	0	255	0
-14.9419994	6.81559992	-0.144999996	0	255	0
-14.7550001	6.81559992	-0.144999996	0	255	0
-14.7550001	6.81559992	0.463999987	0	255	0
-14.9419994	6.81559992	-0.34799999	0	255	0
-15.2224998	6.80900002	-0.956999958	0	255	0
-15.2224998	6.80900002	-0.753999949	0	255	0
-15.1289997	6.80900002	-1.15999997	0	255	0
-15.1289997	6.80900002	-0.956999958	0	255	0
-15.2224998	6.80239964	-1.15999997	0	255	0
-15.1289997	6.80239964	-0.956999958	0	255	0
-15.2224998	6.80239964	-0.956999958	0	255	0
-15.5030003	6.79579973	-0.550999999	0	255	0
-15.5030003	6.79579973	-0.34799999	0	255	0
-15.4095001	6.79579973	-0.753999949	0	255	0
-15.5030003	6.78919983	-0.550999999	0	255	0
-15.316	6.79579973	-0.34799999	0	255	0
-15.316	6.79579973	-0.550999999	0	255	0
-15.316	6.78919983	-1.15999997	0	255	0
-15.316	6.78919983	-0.550999999	0	255	0
-15.316	6.80239964	-0.956999958	0	255	0
-15.316	6.80239964	-0.34799999	0	255	0
-15.1289997	6.80239964	-0.956999958	0	255	0
-15.1289997	6.79579973	-1.15999997	0	255	0
-15.1289997	6.79579973	-0.956999958	0	255	0
-15.2224998	6.79579973	-0.753999949	0	255	0
-15.2224998	6.78919983	-1.15999997	0	255	0
-15.2224998	6.78919983	-0.956999958	0	255	0
-15.316	6.78919983	-0.956999958	0	255	0
-15.0354996	6.81559992	0.463999987	0	255	0
-15.0354996	6.81559992	0.0579999983	0	255	0
-15.1289997	6.80900002	0.463999987	0	255	0
-15.0354996	6.80900002	0.0579999983	0	255	0
-15.1289997	6.80900002	0.0579999983	0	255	0
-14.8484993	6.81559992	0.463999987	0	255	0
-14.9419994	6.80900002	0.463999987	0	255	0
-14.8484993	6.80900002	0.0579999983	0	255	0
-14.9419994	6.80900002	0.0579999983	0	255	0
-14.7550001	6.81559992	0.260999978	0	255	0
-14.7550001	6.81559992	0.0579999983	0	255	0
-14.7550001	6.80900002	0.260999978	0	255	0
-14.7550001	6.80900002	0.0579999983	0	255	0
-15.0354996	6.81559992	0.0579999983	0	255	0
-15.0354996	6.81559992	-0.34799999	0	255	0
-14.9419994	6.81559992	-0.34799999	0	255	0
-15.1289997	6.80900002	0.0579999983	0	255	0
-15.0354996	6.80900002	-0.34799999	0	255	0
-15.1289997	6.80900002	-0.34799999	0	255	0
-15.1289997	6.78919983	0.463999987	0	255	0
-14.9419994	6.81559992	0.463999987	0	255	0
-14.9419994	6.81559992	0.260999978	0	255	0
-14.7550001	6.81559992	0.260999978	0	255	0
-14.9419994	6.80239964	0.260999978	0	255	0
-14.7550001	6.80239964	0.260999978	0	255	0
-14.7550001	6.80239964	0.463999987	0	255	0
-15.1289997	6.80239964	-0.144999996	0	255	0
-15.0354996	6.80239964	-0.34799999	0	255	0
-15.0354996	6.80239964	-0.144999996	0	255	0
-15.1289997	6.79579973	-0.34799999	0	255	0
-15.0354996	6.79579973	0.0579999983	0	255	0
-15.0354996	6.79579973	-0.144999996	0	255	0
-15.1289997	6.79579973	-0.144999996	0	255	0
-15.0354996	6.80239964	0.0579999983	0	255	0
-15.1289997	6.79579973	0.0579999983	0	255	0
-15.0354996	6.79579973	-0.34799999	0	255	0
-15.0354996	6.80239964	-0.34799999	0	255	0
-15.1289997	6.78919983	0.0579999983	0	255	0
-15.1289997	6.79579973	-0.34799999	0	255	0
-15.5030003	6.79579973	-0.956999958	0	255	0
-15.5030003	6.79579973	-1.15999997	0	255	0
-15.4095001	6.79579973	-0.753999949	0	255	0
-15.5030003	6.78919983	-0.956999958	0	255	0
-15.316	6.79579973	-1.15999997	0	255	0
-15.316	6.79579973	-0.956999958	0	255	0
-15.316	6.78919983	-0.956999958	0	255	0
-15.316	6.80239964	-1.15999997	0	255	0
-15.1289997	6.80239964	-0.34799999	0	255	0
-15.1289997	6.79579973	-0.34799999	0	255	0
-15.1289997	6.79579973	-0.753999949	0	255	0
-15.2224998	6.79579973	-0.753999949	0	255	0
-15.2224998	6.78919983	-0.34799999	0	255	0
-15.2224998	6.78919983	-0.753999949	0	255	0
-15.5030003	6.79579973	-0.956999958	0	255	0
-15.5030003	6.79579973	-0.753999949	0	255	0
-15.4095001	6.79579973	-1.15999997	0	255	0
-15.5030003	6.78919983	-0.956999958	0	255	0
-15.316	6.79579973	-0.753999949	0	255	0
-15.316	6.79579973	-0.956999958	0	255	0
-15.316	6.78919983	-0.956999958	0	255	0
-15.1289997	6.79579973	-0.753999949	0	255	0
-15.5030003	6.78919983	-0.34799999	0	255	0
-15.1289997	6.80239964	-1.15999997	0	255	0
-15.1289997	6.79579973	-1.15999997	0	255	0
-15.2224998	6.79579973	-1.15999997	0	255	0
-15.2224998	6.78919983	-0.753999949	0	255	0
-15.2224998	6.78919983	-1.15999997	0	255	0
-15.316	6.78919983	-1.15999997	0	255	0
-15.0354996	6.81559992	-0.34799999	0	255	0
-15.0354996	6.81559992	-0.753999949	0	255	0
-15.1289997	6.80900002	-0.34799999	0	255	0
-15.0354996	6.80900002	-0.753999949	0	255	0
-15.1289997	6.80900002	-0.753999949	0	255	0
-14.9419994	6.80900002	-0.34799999	0	255	0
-14.7550001	6.80900002	-0.34799999	0	255	0
-14.9419994	6.80900002	-0.753999949	0	255	0
-14.7550001	6.81559992	-0.753999949	0	255	0
-14.7550001	6.80900002	-0.753999949	0	255	0
-15.0354996	6.81559992	-0.753999949	0	255	0
-15.0354996	6.81559992	-1.15999997	0	255	0
-14.9419994	6.81559992	-1.15999997	0	255	0
-15.1289997	6.80900002	-0.753999949	0	255	0
-15.0354996	6.80900002	-1.15999997	0	255	0
-15.1289997	6.80900002	-1.15999997	0	255	0
-15.1289997	6.78919983	-0.34799999	0	255	0
-14.9419994	6.81559992	-0.34799999	0	255	0
-14.9419994	6.81559992	-0.550999999	0	255	0
-14.7550001	6.81559992	-0.550999999	0	255	0
-14.7550001	6.81559992	-1.15999997	0	255	0
-14.9419994	6.80239964	-0.550999999	0	255	0
-14.7550001	6.80239964	-0.550999999	0	255	0
-14.7550001	6.80239964	-0.34799999	0	255	0
-15.1289997	6.80239964	-0.956999958	0	255	0
-15.0354996	6.80239964	-1.15999997	0	255	0
-15.0354996	6.80239964	-0.956999958	0	255	0
-15.1289997	6.79579973	-1.15999997	0	255	0
-15.0354996	6.79579973	-0.753999949	0	255	0
-15.0354996	6.79579973	-0.956999958	0	255	0
-15.1289997	6.79579973	-0.956999958	0	255	0
-15.0354996	6.80239964	-0.753999949	0	255	0
-15.1289997	6.79579973	-0.753999949	0	255	0
-15.0354996	6.79579973	-1.15999997	0	255	0
-15.0354996	6.80239964	-1.15999997	0	255	0
-15.1289997	6.78919983	-0.753999949	0	255	0
-15.1289997	6.79579973	-1.15999997	0	255	0
-14.6615009	6.8354001	0.0579999983	0	255	0
-14.5680008	6.8354001	0.463999987	0	255	0
-14.6615009	6.8288002	0.463999987	0	255	0
-14.5680008	6.8354001	0.0579999983	0	255	0
-14.6615009	6.8288002	0.0579999983	0	255	0
-14.5680008	6.84200001	0.463999987	0	255	0
-14.3810005	6.84200001	0.463999987	0	255	0
-14.3810005	6.8354001	0.463999987	0	255	0
-14.5680008	6.84200001	0.0579999983	0	255	0
-14.3810005	6.84200001	0.0579999983	0	255	0
-14.3810005	6.8354001	0.0579999983	0	255	0
-14.4745007	6.8354001	0.0579999983	0	255	0
-14.4745007	6.8288002	0.463999987	0	255	0
-14.4745007	6.8288002	0.0579999983	0	255	0
-14.6615009	6.8354001	-0.34799999	0	255	0
-14.5680008	6.8354001	0.0579999983	0	255	0
-14.6615009	6.8288002	0.0579999983	0	255	0
-14.5680008	6.8354001	-0.34799999	0	255	0
-14.6615009	6.8288002	-0.34799999	0	255	0
-14.5680008	6.84200001	0.463999987	0	255	0
-14.5680008	6.84200001	0.260999978	0	255	0
-14.3810005	6.84200001	0.260999978	0	255	0
-14.5680008	6.8288002	0.260999978	0	255	0
-14.3810005	6.8288002	0.260999978	0	255	0
-14.3810005	6.8288002	0.463999987	0	255	0
-14.7550001	6.8288002	-0.144999996	0	255	0
-14.5680008	6.8288002	-0.144999996	0	255	0
-14.5680008	6.82219982	-0.34799999	0	255	0
-14.5680008	6.82219982	-0.144999996	0	255	0
-14.6615009	6.82219982	0.0579999983	0	255	0
-14.6615009	6.81559992	-0.34799999	0	255	0
-14.6615009	6.81559992	-0.144999996	0	255	0
-14.7550001	6.81559992	-0.144999996	0	255	0
-14.5680008	6.82219982	0.0579999983	0	255	0
-14.7550001	6.8288002	-0.34799999	0	255	0
-14.5680008	6.82219982	-0.34799999	0	255	0
-14.6615009	6.82219982	-0.34799999	0	255	0
-14.6615009	6.81559992	0.0579999983	0	255	0
-14.6615009	6.81559992	-0.34799999	0	255	0
-14.3810005	6.84200001	-0.144999996	0	255	0
-14.2875004	6.84200001	-0.144999996	0	255	0
-14.2875004	6.84200001	-0.34799999	0	255	0
-14.3810005	6.8354001	-0.144999996	0	255	0
-14.2875004	6.8354001	-0.144999996	0	255	0
-14.3810005	6.8288002	0.0579999983	0	255	0
-14.3810005	6.8354001	-0.34799999	0	255	0
-14.6615009	6.8354001	-0.753999949	0	255	0
-14.5680008	6.8354001	-0.34799999	0	255	0
-14.6615009	6.8288002	-0.34799999	0	255	0
-14.5680008	6.8354001	-0.753999949	0	255	0
-14.6615009	6.8288002	-0.753999949	0	255	0
-14.5680008	6.84200001	-0.34799999	0	255	0
-14.5680008	6.84200001	-0.753999949	0	255	0
-14.3810005	6.84200001	-0.753999949	0	255	0
-14.4745007	6.8354001	-0.753999949	0	255	0
-14.3810005	6.8288002	-0.34799999	0	255	0
-14.3810005	6.8288002	-0.753999949	0	255	0
-14.6615009	6.8354001	-1.15999997	0	255	0
-14.5680008	6.8354001	-0.753999949	0	255	0
-14.6615009	6.8288002	-0.753999949	0	255	0
-14.5680008	6.8354001	-1.15999997	0	255	0
-14.6615009	6.8288002	-1.15999997	0	255	0
-14.5680008	6.84200001	-0.34799999	0	255	0
-14.5680008	6.84200001	-0.550999999	0	255	0
-14.3810005	6.84200001	-0.550999999	0	255	0
-14.3810005	6.84200001	-1.15999997	0	255	0
-14.5680008	6.8288002	-0.550999999	0	255	0
-14.3810005	6.8288002	-0.550999999	0	255	0
-14.3810005	6.8288002	-0.34799999	0	255	0
-14.7550001	6.8288002	-0.956999958	0	255	0
-14.5680008	6.8288002	-0.956999958	0	255	0
-14.5680008	6.82219982	-1.15999997	0	255	0
-14.5680008	6.82219982	-0.956999958	0	255	0
-14.6615009	6.82219982	-0.753999949	0	255	0
-14.6615009	6.81559992	-1.15999997	0	255	0
-14.6615009	6.81559992	-0.956999958	0	255	0
-14.7550001	6.81559992	-0.956999958	0	255	0
-14.5680008	6.8288002	-0.550999999	0	255	0
-14.4745007	6.8288002	-0.34799999	0	255	0
-14.4745007	6.8288002	-0.550999999	0	255	0
-14.5680008	6.82219982	-0.34799999	0	255	0
-14.4745007	6.82219982	-0.753999949	0	255	0
-14.4745007	6.82219982	-0.550999999	0	255	0
-14.5680008	6.82219982	-0.550999999	0	255	0
-14.5680008	6.82219982	-0.753999949	0	255	0
-14.7550001	6.8288002	-1.15999997	0	255	0
-14.5680008	6.82219982	-1.15999997	0	255	0
-14.6615009	6.82219982	-1.15999997	0	255	0
-14.6615009	6.81559992	-0.753999949	0	255	0
-14.6615009	6.81559992	-1.15999997	0	255	0
-14.7550001	6.81559992	-1.15999997	0	255	0
-14.4745007	6.8288002	-0.753999949	0	255	0
-14.5680008	6.82219982	-0.753999949	0	255	0
-14.4745007	6.82219982	-1.15999997	0	255	0
-14.4745007	6.8288002	-1.15999997	0	255	0
-14.5680008	6.81559992	-0.753999949	0	255	0
-14.5680008	6.82219982	-1.15999997	0	255	0
-14.3810005	6.84200001	0.463999987	0	255	0
-14.3810005	6.84200001	-0.144999996	0	255	0
-14.1940002	6.84200001	-0.144999996	0	255	0
-14.1940002	6.84200001	-0.34799999	0	255	0
-14.3810005	6.8288002	-0.144999996	0	255	0
-14.1940002	6.8288002	-0.144999996	0	255	0
-14.3810005	6.81559992	0.0579999983	0	255	0
-14.3810005	6.8288002	-0.34799999	0	255	0
