-3.64312506	69221.25	4.25	0	255	0
-3.61299992	69221.25	4.25	0	255	0
-3.64312506	69220.875	3.68262506	0	255	0
-3.61299992	69220.875	4.25	0	255	0
-3.64312506	69221.25	3.68262506	0	255	0
-3.61299992	69220.875	3.68262506	0	255	0
-3.67324996	69220.5	4.25	0	255	0
-3.70337486	69221.25	3.11525011	0	255	0
-3.70337486	69221.25	3.3989377	0	255	0
-3.67324996	69221.25	3.3989377	0	255	0
-3.7335	69220.5	1.98049998	0	255	0
-3.70337486	69220.875	3.3989377	0	255	0
-3.67324996	69220.875	3.3989377	0	255	0
-3.67324996	69220.875	3.11525011	0	255	0
-3.7335	69220.5	3.68262506	0	255	0
-3.64312506	69221.25	3.68262506	0	255	0
-3.64312506	69220.875	3.11525011	0	255	0
-3.61299992	69220.875	3.68262506	0	255	0
-3.64312506	69221.25	3.11525011	0	255	0
-3.61299992	69221.25	3.11525011	0	255	0
-3.61299992	69220.875	3.11525011	0	255	0
-3.67324996	69220.5	3.68262506	0	255	0
-3.82387495	69222	2.54787493	0	255	0
-3.79375005	69222	2.54787493	0	255	0
-3.82387495	69221.625	1.98049998	0	255	0
-3.79375005	69221.625	2.54787493	0	255	0
-3.82387495	69222	1.98049998	0	255	0
-3.79375005	69222	1.98049998	0	255	0
-3.79375005	69221.625	1.98049998	0	255	0
-3.85400009	69221.25	2.54787493	0	255	0
-3.79375005	69222	3.11525011	0	255	0
-3.79375005	69222	2.83156252	0	255	0
-3.7335	69222	2.83156252	0	255	0
-3.7335	69222	1.98049998	0	255	0
-3.79375005	69221.25	2.83156252	0	255	0
-3.7335	69221.25	2.83156252	0	255	0
-3.7335	69221.25	3.11525011	0	255	0
-3.79375005	69221.25	2.54787493	0	255	0
-3.7335	69222	4.25	0	255	0
-3.7335	69222	3.3989377	0	255	0
-3.67324996	69222	3.3989377	0	255	0
-3.67324996	69222	3.11525011	0	255	0
-3.7335	69220.5	3.3989377	0	255	0
-3.7335	69220.5	3.11525011	0	255	0
-3.61299992	69221.25	3.3989377	0	255	0
-3.61299992	69221.25	3.11525011	0	255	0
-3.61299992	69220.5	3.3989377	0	255	0
-3.61299992	69220.5	4.25	0	255	0
-3.58287477	69221.25	2.26418734	0	255	0
-3.58287477	69221.25	2.54787493	0	255	0
-3.55274987	69221.25	2.26418734	0	255	0
-3.58287477	69220.875	1.98049998	0	255	0
-3.55274987	69220.875	2.54787493	0	255	0
-3.55274987	69220.875	2.26418734	0	255	0
-3.58287477	69220.875	2.26418734	0	255	0
-3.55274987	69221.25	2.26418734	0	255	0
-3.52262497	69221.25	2.54787493	0	255	0
-3.52262497	69221.25	2.26418734	0	255	0
-3.55274987	69220.875	2.54787493	0	255	0
-3.52262497	69220.875	1.98049998	0	255	0
-3.52262497	69220.875	2.26418734	0	255	0
-3.55274987	69220.875	2.26418734	0	255	0
-3.61299992	69220.125	2.26418734	0	255	0
-3.61299992	69220.125	1.98049998	0	255	0
-3.58287477	69220.125	2.54787493	0	255	0
-3.61299992	69219.75	2.26418734	0	255	0
-3.55274987	69220.125	1.98049998	0	255	0
-3.55274987	69220.125	2.26418734	0	255	0
-3.55274987	69219.75	3.11525011	0	255	0
-3.55274987	69219.75	2.26418734	0	255	0
-3.61299992	69219.375	2.83156252	0	255	0
-3.61299992	69219.375	3.11525011	0	255	0
-3.58287477	69219.375	2.54787493	0	255	0
-3.61299992	69219	2.83156252	0	255	0
-3.55274987	69219.375	3.11525011	0	255	0
-3.55274987	69219.375	2.83156252	0	255	0
-3.55274987	69219	1.98049998	0	255	0
-3.55274987	69219	2.83156252	0	255	0
-3.43225002	69220.125	3.96631241	0	255	0
-3.43225002	69220.125	4.25	0	255	0
-3.40212488	69220.125	3.68262506	0	255	0
-3.40212488	69220.125	3.96631241	0	255	0
-3.40212488	69220.125	3.68262506	0	255	0
-3.40212488	69219.75	4.25	0	255	0
-3.40212488	69219.75	3.96631241	0	255	0
-3.43225002	69219.75	3.96631241	0	255	0
-3.46237493	69219.375	3.3989377	0	255	0
-3.46237493	69219.375	3.68262506	0	255	0
-3.43225002	69219.375	3.11525011	0	255	0
-3.43225002	69219.375	3.3989377	0	255	0
-3.46237493	69219	3.11525011	0	255	0
-3.43225002	69219	4.25	0	255	0
-3.43225002	69219	3.3989377	0	255	0
-3.46237493	69219	3.3989377	0	255	0
-3.43225002	69219.375	3.96631241	0	255	0
-3.43225002	69219.375	4.25	0	255	0
-3.40212488	69219.375	3.68262506	0	255	0
-3.40212488	69219.375	3.96631241	0	255	0
-3.40212488	69219.375	3.68262506	0	255	0
-3.40212488	69219	4.25	0	255	0
-3.40212488	69219	3.96631241	0	255	0
-3.43225002	69219	3.96631241	0	255	0
-3.61299992	69220.125	2.83156252	0	255	0
-3.61299992	69220.125	3.11525011	0	255	0
-3.58287477	69220.125	2.54787493	0	255	0
-3.61299992	69219.75	2.83156252	0	255	0
-3.55274987	69220.125	3.11525011	0	255	0
-3.61299992	69219.75	3.11525011	0	255	0
-3.55274987	69220.125	2.54787493	0	255	0
-3.58287477	69219.75	2.54787493	0	255	0
-3.55274987	69220.125	2.54787493	0	255	0
-3.55274987	69220.125	2.83156252	0	255	0
-3.52262497	69220.125	2.83156252	0	255	0
-3.55274987	69219.75	2.83156252	0	255	0
-3.52262497	69219.75	2.83156252	0	255	0
-3.52262497	69219.75	2.54787493	0	255	0
-3.61299992	69220.125	2.54787493	0	255	0
-3.58287477	69220.125	1.98049998	0	255	0
-3.55274987	69220.125	2.54787493	0	255	0
-3.61299992	69220.125	1.98049998	0	255	0
-3.61299992	69219.75	1.98049998	0	255	0
-3.55274987	69220.125	1.98049998	0	255	0
-3.61299992	69219	3.11525011	0	255	0
-3.55274987	69220.5	3.11525011	0	255	0
-3.55274987	69220.5	2.83156252	0	255	0
-3.49249983	69220.5	2.83156252	0	255	0
-3.61299992	69219	-0.289000005	0	255	0
-3.55274987	69219.75	2.83156252	0	255	0
-3.49249983	69219.75	2.83156252	0	255	0
-3.49249983	69219.75	3.11525011	0	255	0
-3.58287477	69219.375	2.26418734	0	255	0
-3.58287477	69219.375	2.54787493	0	255	0
-3.55274987	69219.375	1.98049998	0	255	0
-3.55274987	69219.375	2.26418734	0	255	0
-3.58287477	69219	1.98049998	0	255	0
-3.55274987	69219	3.11525011	0	255	0
-3.55274987	69219	2.26418734	0	255	0
-3.58287477	69219	2.26418734	0	255	0
-3.55274987	69219.375	2.83156252	0	255	0
-3.55274987	69219.375	3.11525011	0	255	0
-3.52262497	69219.375	2.54787493	0	255	0
-3.52262497	69219.375	2.83156252	0	255	0
-3.52262497	69219.375	2.54787493	0	255	0
-3.52262497	69219	3.11525011	0	255	0
-3.52262497	69219	2.83156252	0	255	0
-3.55274987	69219	2.83156252	0	255	0
-3.58287477	69219.375	1.98049998	0	255	0
-3.55274987	69219.375	2.54787493	0	255	0
-3.58287477	69219	2.54787493	0	255	0
-3.55274987	69219	2.54787493	0	255	0
-3.61299992	69219	2.54787493	0	255	0
-3.55274987	69219.375	1.98049998	0	255	0
-3.55274987	69219	1.98049998	0	255	0
-3.58287477	69219	1.98049998	0	255	0
-3.55274987	69219.375	2.26418734	0	255	0
-3.55274987	69219.375	2.54787493	0	255	0
-3.52262497	69219.375	1.98049998	0	255	0
-3.55274987	69219	2.26418734	0	255	0
-3.49249983	69219.375	2.54787493	0	255	0
-3.49249983	69219.375	2.26418734	0	255	0
-3.49249983	69219	2.54787493	0	255	0
-3.49249983	69219	2.26418734	0	255	0
-3.85400009	69222	1.98049998	0	255	0
-3.85400009	69221.625	1.98049998	0	255	0
-3.79375005	69221.625	1.98049998	0	255	0
-3.85400009	69222	1.41312504	0	255	0
-3.85400009	69221.625	1.41312504	0	255	0
-3.79375005	69221.625	1.41312504	0	255	0
-3.76362514	69222	1.98049998	0	255	0
-3.79375005	69221.625	1.98049998	0	255	0
-3.76362514	69221.625	1.41312504	0	255	0
-3.76362514	69222	1.41312504	0	255	0
-3.79375005	69221.25	0.845749974	0	255	0
-3.79375005	69221.625	1.41312504	0	255	0
-3.7335	69221.25	1.12943745	0	255	0
-3.7335	69221.25	1.98049998	0	255	0
-3.70337486	69221.25	0.845749974	0	255	0
-3.70337486	69221.25	1.12943745	0	255	0
-3.7335	69220.875	0.845749974	0	255	0
-3.70337486	69220.875	1.41312504	0	255	0
-3.70337486	69220.875	1.12943745	0	255	0
-3.7335	69220.875	1.12943745	0	255	0
-3.64312506	69221.25	1.98049998	0	255	0
-3.61299992	69221.25	1.98049998	0	255	0
-3.64312506	69220.875	1.41312504	0	255	0
-3.61299992	69220.875	1.98049998	0	255	0
-3.64312506	69221.25	1.41312504	0	255	0
-3.61299992	69220.875	1.41312504	0	255	0
-3.67324996	69220.5	1.98049998	0	255	0
-3.7335	69221.25	1.12943745	0	255	0
-3.7335	69221.25	1.41312504	0	255	0
-3.70337486	69221.25	1.41312504	0	255	0
-3.70337486	69221.25	1.12943745	0	255	0
-3.7335	69220.875	1.41312504	0	255	0
-3.70337486	69220.875	0.845749974	0	255	0
-3.70337486	69220.875	1.12943745	0	255	0
-3.7335	69220.875	1.12943745	0	255	0
-3.64312506	69221.25	1.41312504	0	255	0
-3.64312506	69220.875	0.845749974	0	255	0
-3.61299992	69220.875	1.41312504	0	255	0
-3.64312506	69221.25	0.845749974	0	255	0
-3.61299992	69221.25	0.845749974	0	255	0
-3.61299992	69220.875	0.845749974	0	255	0
-3.67324996	69220.5	1.41312504	0	255	0
-3.7335	69220.5	1.41312504	0	255	0
-3.67324996	69221.25	1.12943745	0	255	0
-3.61299992	69221.25	1.12943745	0	255	0
-3.61299992	69221.25	0.845749974	0	255	0
-3.67324996	69220.5	1.12943745	0	255	0
-3.61299992	69220.5	1.12943745	0	255	0
-3.61299992	69220.5	1.98049998	0	255	0
-3.67324996	69220.5	0.845749974	0	255	0
-3.61299992	69221.25	1.98049998	0	255	0
-3.61299992	69221.25	2.26418734	0	255	0
-3.61299992	69220.5	2.26418734	0	255	0
-3.49249983	69221.25	2.26418734	0	255	0
-3.49249983	69221.25	1.98049998	0	255	0
-3.49249983	69220.5	2.26418734	0	255	0
-3.61299992	69220.5	2.26418734	0	255	0
-3.49249983	69220.5	2.26418734	0	255	0
-3.61299992	69219	2.26418734	0	255	0
-3.61299992	69219	1.98049998	0	255	0
-3.49249983	69219	2.26418734	0	255	0
-3.49249983	69220.5	2.26418734	0	255	0
-3.37199998	69220.5	2.26418734	0	255	0
-3.37199998	69220.5	1.98049998	0	255	0
-3.49249983	69219	2.26418734	0	255	0
-3.37199998	69219	2.26418734	0	255	0
-3.37199998	69219	4.25	0	255	0
-3.67324996	69218.25	-0.00531250238	0	255	0
-3.67324996	69218.25	0.845749974	0	255	0
-3.67324996	69217.875	-0.289000005	0	255	0
-3.67324996	69217.875	-0.00531250238	0	255	0
-3.61299992	69218.25	-0.289000005	0	255	0
-3.61299992	69218.25	-0.00531250238	0	255	0
-3.61299992	69217.875	-0.289000005	0	255	0
-3.61299992	69217.875	-0.00531250238	0	255	0
-3.82387495	69217.125	1.69681251	0	255	0
-3.82387495	69217.125	1.41312504	0	255	0
-3.79375005	69217.125	1.98049998	0	255	0
-3.79375005	69217.125	1.69681251	0	255	0
-3.82387495	69216.75	1.98049998	0	255	0
-3.79375005	69216.75	0.845749974	0	255	0
-3.79375005	69216.75	1.69681251	0	255	0
-3.82387495	69216.75	1.69681251	0	255	0
-3.79375005	69217.125	1.69681251	0	255	0
-3.79375005	69217.125	1.98049998	0	255	0
-3.76362514	69217.125	1.41312504	0	255	0
-3.79375005	69216.75	1.69681251	0	255	0
-3.7335	69217.125	1.98049998	0	255	0
-3.7335	69217.125	1.69681251	0	255	0
-3.7335	69216.75	1.98049998	0	255	0
-3.7335	69216.75	1.69681251	0	255	0
-3.7335	69217.125	-0.00531250238	0	255	0
-3.7335	69217.125	-0.289000005	0	255	0
-3.70337486	69217.125	0.278375	0	255	0
-3.7335	69216.75	-0.00531250238	0	255	0
-3.67324996	69217.125	-0.289000005	0	255	0
-3.67324996	69217.125	-0.00531250238	0	255	0
-3.67324996	69216.75	0.845749974	0	255	0
-3.67324996	69216.75	-0.00531250238	0	255	0
-3.67324996	69217.125	-0.00531250238	0	255	0
-3.67324996	69217.125	-0.289000005	0	255	0
-3.64312506	69217.125	0.278375	0	255	0
-3.64312506	69217.125	-0.00531250238	0	255	0
-3.64312506	69217.125	0.278375	0	255	0
-3.64312506	69216.75	-0.289000005	0	255	0
-3.64312506	69216.75	-0.00531250238	0	255	0
-3.67324996	69216.75	-0.00531250238	0	255	0
-3.61299992	69218.25	3.3989377	0	255	0
-3.61299992	69218.25	4.25	0	255	0
-3.61299992	69217.875	3.11525011	0	255	0
-3.61299992	69217.875	3.3989377	0	255	0
-3.55274987	69218.25	3.3989377	0	255	0
-3.55274987	69217.875	3.11525011	0	255	0
-3.55274987	69217.875	3.3989377	0	255	0
-3.52262497	69218.25	4.25	0	255	0
-3.55274987	69217.875	4.25	0	255	0
-3.52262497	69217.875	3.68262506	0	255	0
-3.55274987	69218.25	3.68262506	0	255	0
-3.52262497	69218.25	3.68262506	0	255	0
-3.55274987	69217.5	4.25	0	255	0
-3.55274987	69217.875	3.68262506	0	255	0
-3.61299992	69218.25	3.68262506	0	255	0
-3.58287477	69218.25	3.68262506	0	255	0
-3.61299992	69217.875	3.68262506	0	255	0
-3.58287477	69217.875	3.11525011	0	255	0
-3.61299992	69218.25	3.11525011	0	255	0
-3.61299992	69217.875	3.11525011	0	255	0
-3.55274987	69218.25	3.3989377	0	255	0
-3.61299992	69217.5	4.25	0	255	0
-3.55274987	69217.875	3.3989377	0	255	0
-3.55274987	69217.875	3.11525011	0	255	0
-3.43225002	69218.25	3.96631241	0	255	0
-3.43225002	69218.25	3.11525011	0	255	0
-3.40212488	69218.25	4.25	0	255	0
-3.40212488	69218.25	3.96631241	0	255	0
-3.43225002	69217.875	4.25	0	255	0
-3.40212488	69217.875	3.68262506	0	255	0
-3.40212488	69217.875	3.96631241	0	255	0
-3.43225002	69217.875	3.96631241	0	255	0
-3.61299992	69218.25	2.26418734	0	255	0
-3.61299992	69218.25	3.11525011	0	255	0
-3.61299992	69217.875	1.98049998	0	255	0
-3.61299992	69217.875	2.26418734	0	255	0
-3.55274987	69218.25	1.98049998	0	255	0
-3.55274987	69218.25	2.26418734	0	255	0
-3.55274987	69217.875	1.98049998	0	255	0
-3.55274987	69217.875	2.26418734	0	255	0
-3.61299992	69218.25	2.54787493	0	255	0
-3.61299992	69217.875	2.54787493	0	255	0
-3.55274987	69218.25	2.54787493	0	255	0
-3.55274987	69217.875	2.54787493	0	255	0
-3.61299992	69218.25	1.98049998	0	255	0
-3.61299992	69217.875	1.98049998	0	255	0
-3.61299992	69217.5	3.11525011	0	255	0
-3.55274987	69217.875	1.98049998	0	255	0
-3.70337486	69217.125	1.41312504	0	255	0
-3.67324996	69217.125	1.98049998	0	255	0
-3.70337486	69216.75	1.98049998	0	255	0
-3.7335	69216.75	1.98049998	0	255	0
-3.67324996	69217.125	1.41312504	0	255	0
-3.70337486	69216.75	1.41312504	0	255	0
-3.67324996	69217.125	1.98049998	0	255	0
-3.64312506	69217.125	1.41312504	0	255	0
-3.61299992	69217.125	1.98049998	0	255	0
-3.61299992	69217.125	1.69681251	0	255	0
-3.61299992	69216.75	1.98049998	0	255	0
-3.61299992	69216.75	1.69681251	0	255	0
-3.67324996	69217.125	1.41312504	0	255	0
-3.64312506	69216.75	1.41312504	0	255	0
-3.70337486	69217.125	0.845749974	0	255	0
-3.67324996	69217.125	1.41312504	0	255	0
-3.70337486	69216.75	1.41312504	0	255	0
-3.7335	69216.75	1.41312504	0	255	0
-3.67324996	69217.125	0.845749974	0	255	0
-3.7335	69216	1.98049998	0	255	0
-3.70337486	69216.75	0.845749974	0	255	0
-3.67324996	69217.5	1.98049998	0	255	0
-3.67324996	69217.5	1.69681251	0	255	0
-3.61299992	69217.5	1.69681251	0	255	0
-3.61299992	69217.5	0.845749974	0	255	0
-3.67324996	69216.75	1.69681251	0	255	0
-3.61299992	69216.75	1.69681251	0	255	0
-3.61299992	69216.75	1.98049998	0	255	0
-3.70337486	69217.125	0.562062502	0	255	0
-3.70337486	69217.125	0.27837497	0	255	0
-3.67324996	69217.125	0.845749974	0	255	0
-3.67324996	69217.125	0.562062502	0	255	0
-3.70337486	69216.75	0.845749974	0	255	0
-3.67324996	69216.75	0.562062502	0	255	0
-3.70337486	69216.75	0.562062502	0	255	0
-3.67324996	69217.125	0.845749974	0	255	0
-3.64312506	69217.125	0.27837497	0	255	0
-3.61299992	69217.125	0.845749974	0	255	0
-3.61299992	69216.75	0.845749974	0	255	0
-3.67324996	69217.125	0.27837497	0	255	0
-3.61299992	69217.125	0.27837497	0	255	0
-3.61299992	69216.75	0.27837497	0	255	0
-3.67324996	69217.5	0.845749974	0	255	0
-3.67324996	69217.5	0.562062502	0	255	0
-3.61299992	69217.5	0.562062502	0	255	0
-3.61299992	69217.5	-0.289000005	0	255	0
-3.67324996	69216.75	0.562062502	0	255	0
-3.61299992	69216.75	0.562062502	0	255	0
-3.61299992	69216.75	0.845749974	0	255	0
-3.61299992	69218.25	1.12943745	0	255	0
-3.61299992	69218.25	1.98049998	0	255	0
-3.61299992	69217.875	0.845749974	0	255	0
-3.61299992	69217.875	1.12943745	0	255	0
-3.55274987	69218.25	0.845749974	0	255	0
-3.55274987	69218.25	1.12943745	0	255	0
-3.55274987	69217.875	0.845749974	0	255	0
-3.55274987	69217.875	1.12943745	0	255	0
-3.61299992	69218.25	1.41312504	0	255	0
-3.61299992	69217.875	1.41312504	0	255	0
-3.55274987	69218.25	1.41312504	0	255	0
-3.55274987	69217.875	1.41312504	0	255	0
-3.61299992	69218.25	0.845749974	0	255	0
-3.61299992	69217.875	0.845749974	0	255	0
-3.55274987	69217.875	0.845749974	0	255	0
-3.55274987	69218.25	1.12943745	0	255	0
-3.52262497	69218.25	1.12943745	0	255	0
-3.52262497	69218.25	0.845749974	0	255	0
-3.55274987	69217.875	1.12943745	0	255	0
-3.52262497	69217.875	1.12943745	0	255	0
-3.55274987	69217.5	1.41312504	0	255	0
-3.55274987	69217.875	0.845749974	0	255	0
-3.43225002	69218.25	1.69681251	0	255	0
-3.43225002	69218.25	0.845749974	0	255	0
-3.43225002	69217.875	1.98049998	0	255	0
-3.43225002	69217.875	1.69681251	0	255	0
-3.37199998	69218.25	1.98049998	0	255	0
-3.37199998	69217.875	1.98049998	0	255	0
-3.40212488	69218.25	1.41312504	0	255	0
-3.37199998	69218.25	1.41312504	0	255	0
-3.37199998	69217.875	1.41312504	0	255	0
-3.43225002	69217.5	1.98049998	0	255	0
-3.40212488	69218.25	0.845749974	0	255	0
-3.40212488	69218.25	1.12943745	0	255	0
-3.37199998	69218.25	1.12943745	0	255	0
-3.37199998	69218.25	0.845749974	0	255	0
-3.40212488	69217.875	1.12943745	0	255	0
-3.37199998	69217.875	1.12943745	0	255	0
-3.37199998	69217.875	0.845749974	0	255	0
-3.43225002	69217.5	1.41312504	0	255	0
-3.58287477	69218.25	-0.00531253219	0	255	0
-3.58287477	69218.25	-0.289000005	0	255	0
-3.55274987	69218.25	-0.289000005	0	255	0
-3.55274987	69218.25	-0.00531253219	0	255	0
-3.58287477	69217.875	0.27837497	0	255	0
-3.55274987	69217.875	-0.289000005	0	255	0
-3.55274987	69217.875	-0.00531253219	0	255	0
-3.58287477	69217.875	-0.00531253219	0	255	0
-3.58287477	69218.25	-0.00531250238	0	255	0
-3.58287477	69218.25	0.27837497	0	255	0
-3.55274987	69218.25	-0.00531250238	0	255	0
-3.58287477	69217.875	-0.289000005	0	255	0
-3.55274987	69217.875	0.27837497	0	255	0
-3.55274987	69217.875	-0.00531250238	0	255	0
-3.58287477	69217.875	-0.00531250238	0	255	0
-3.55274987	69218.25	-0.00531250238	0	255	0
-3.55274987	69217.875	0.27837497	0	255	0
-3.55274987	69217.875	-0.00531250238	0	255	0
-3.49249983	69218.25	0.27837497	0	255	0
-3.49249983	69217.875	0.27837497	0	255	0
-3.52262497	69218.25	-0.289000005	0	255	0
-3.49249983	69218.25	-0.289000005	0	255	0
-3.49249983	69217.875	-0.289000005	0	255	0
-3.55274987	69217.5	0.27837497	0	255	0
-3.49249983	69218.25	0.845749974	0	255	0
-3.49249983	69218.25	1.12943745	0	255	0
-3.43225002	69218.25	1.12943745	0	255	0
-3.49249983	69217.5	1.41312504	0	255	0
-3.49249983	69217.5	1.12943745	0	255	0
-3.43225002	69217.5	1.12943745	0	255	0
-3.43225002	69217.5	0.845749974	0	255	0
-3.49249983	69217.5	0.845749974	0	255	0
-3.49249983	69217.125	0.845749974	0	255	0
-3.49249983	69217.125	1.12943745	0	255	0
-3.49249983	69216.75	1.12943745	0	255	0
-3.49249983	69216.75	0.845749974	0	255	0
-3.43225002	69217.125	1.12943745	0	255	0
-3.43225002	69217.125	0.845749974	0	255	0
-3.43225002	69216.75	1.12943745	0	255	0
-3.49249983	69216	1.98049998	0	255	0
-3.43225002	69217.5	1.98049998	0	255	0
-3.43225002	69217.5	1.69681251	0	255	0
-3.37199998	69217.5	1.69681251	0	255	0
-3.37199998	69217.5	0.845749974	0	255	0
-3.43225002	69216.75	1.69681251	0	255	0
-3.37199998	69216.75	1.69681251	0	255	0
-3.37199998	69216.75	1.98049998	0	255	0
-3.43225002	69216.75	1.41312504	0	255	0
-3.61299992	69217.125	-0.00531250238	0	255	0
-3.61299992	69217.125	0.27837497	0	255	0
-3.58287477	69217.125	-0.289000005	0	255	0
-3.61299992	69216.75	-0.00531250238	0	255	0
-3.55274987	69217.125	0.27837497	0	255	0
-3.61299992	69216.75	0.27837497	0	255	0
-3.55274987	69217.125	-0.289000005	0	255	0
-3.61299992	69216	0.845749974	0	255	0
-3.58287477	69216.75	-0.289000005	0	255	0
-3.55274987	69217.5	0.845749974	0	255	0
-3.55274987	69217.5	0.562062502	0	255	0
-3.49249983	69217.5	0.562062502	0	255	0
-3.61299992	69216	1.98049998	0	255	0
-3.55274987	69216.75	0.562062502	0	255	0
-3.49249983	69216.75	0.562062502	0	255	0
-3.49249983	69216.75	0.845749974	0	255	0
-3.55274987	69216.375	-0.289000005	0	255	0
-3.55274987	69216.375	-0.00531250238	0	255	0
-3.52262497	69216.375	-0.00531250238	0	255	0
-3.55274987	69216	0.27837497	0	255	0
-3.55274987	69216	-0.00531250238	0	255	0
-3.52262497	69216	-0.00531250238	0	255	0
-3.52262497	69216	-0.289000005	0	255	0
-3.55274987	69216	-0.289000005	0	255	0
