-8.0170002	6.80501223	3.4630003	0	255	0
-8.0170002	6.80501223	3.20100021	0	255	0
-8.00281239	6.80501223	3.72500014	0	255	0
-8.0170002	6.80494976	3.4630003	0	255	0
-7.98862505	6.80501223	3.20100021	0	255	0
-7.98862505	6.80501223	3.4630003	0	255	0
-7.98862505	6.80494976	3.4630003	0	255	0
-7.98862505	6.80501223	4.24900007	0	255	0
-7.97443771	6.80501223	3.72500014	0	255	0
-7.97443771	6.80501223	3.72500014	0	255	0
-7.97443771	6.80494976	4.24900007	0	255	0
-7.98862505	6.80501223	3.72500014	0	255	0
-7.97443771	6.80494976	3.72500014	0	255	0
-7.98862505	6.80501223	3.4630003	0	255	0
-7.98862505	6.80501223	3.72500014	0	255	0
-7.97443771	6.80501223	3.20100021	0	255	0
-7.98862505	6.80494976	3.4630003	0	255	0
-7.9602499	6.80501223	3.72500014	0	255	0
-7.9602499	6.80494976	3.72500014	0	255	0
-7.9602499	6.80501223	3.20100021	0	255	0
-7.97443771	6.80494976	3.20100021	0	255	0
-7.9602499	6.80501223	3.20100021	0	255	0
-7.9602499	6.80501223	3.4630003	0	255	0
-7.94606256	6.80501223	3.4630003	0	255	0
-7.9602499	6.80494976	3.72500014	0	255	0
-7.9602499	6.80494976	3.4630003	0	255	0
-7.94606256	6.80494976	3.4630003	0	255	0
-7.94606256	6.80494976	3.20100021	0	255	0
-7.97443771	6.80501223	2.93900013	0	255	0
-7.97443771	6.80501223	2.67700005	0	255	0
-7.9602499	6.80501223	3.20100021	0	255	0
-7.9602499	6.80501223	2.93900013	0	255	0
-7.97443771	6.80494976	3.20100021	0	255	0
-7.9602499	6.80494976	2.93900013	0	255	0
-7.97443771	6.80494976	2.93900013	0	255	0
-7.93187523	6.8052001	3.20100021	0	255	0
-7.93187523	6.8052001	3.4630003	0	255	0
-7.90350008	6.8052001	3.4630003	0	255	0
-7.90350008	6.8052001	2.15300012	0	255	0
-7.9602499	6.80507469	3.20100021	0	255	0
-7.9602499	6.80507469	3.4630003	0	255	0
-7.9602499	6.80494976	3.4630003	0	255	0
-7.90350008	6.80494976	3.4630003	0	255	0
-7.90350008	6.80494976	4.24900007	0	255	0
-8.0170002	6.80494976	2.41499996	0	255	0
-8.0170002	6.80494976	4.24900007	0	255	0
-8.0170002	6.80488729	2.15300012	0	255	0
-8.0170002	6.80488729	2.41499996	0	255	0
-7.98862505	6.80494976	2.41499996	0	255	0
-7.98862505	6.80488729	2.15300012	0	255	0
-7.98862505	6.80488729	2.41499996	0	255	0
-7.98862505	6.80494976	2.41499996	0	255	0
-7.98862505	6.80488729	2.15300012	0	255	0
-7.98862505	6.80488729	2.41499996	0	255	0
-7.9602499	6.80494976	2.15300012	0	255	0
-7.9602499	6.80494976	2.41499996	0	255	0
-7.9602499	6.80488729	2.15300012	0	255	0
-7.9602499	6.80488729	2.41499996	0	255	0
-8.0170002	6.80482483	2.93900013	0	255	0
-8.0170002	6.80482483	2.15300012	0	255	0
-7.98862505	6.80482483	3.20100021	0	255	0
-7.98862505	6.80482483	2.93900013	0	255	0
-8.00281239	6.80476236	2.67700005	0	255	0
-8.0170002	6.8046999	2.93900013	0	255	0
-7.98862505	6.8046999	2.15300012	0	255	0
-7.98862505	6.8046999	2.93900013	0	255	0
-7.97443771	6.80476236	2.41499996	0	255	0
-7.97443771	6.80476236	2.67700005	0	255	0
-7.9602499	6.80476236	2.15300012	0	255	0
-7.9602499	6.80476236	2.41499996	0	255	0
-7.97443771	6.8046999	2.15300012	0	255	0
-7.9602499	6.8046999	4.24900007	0	255	0
-7.9602499	6.8046999	2.41499996	0	255	0
-7.97443771	6.8046999	2.41499996	0	255	0
-7.9602499	6.80476236	3.20100021	0	255	0
-7.9602499	6.80476236	3.4630003	0	255	0
-7.94606256	6.80476236	3.4630003	0	255	0
-7.9602499	6.8046999	3.72500014	0	255	0
-7.9602499	6.8046999	3.4630003	0	255	0
-7.94606256	6.8046999	3.4630003	0	255	0
-7.94606256	6.8046999	3.20100021	0	255	0
-7.97443771	6.80494976	3.20100021	0	255	0
-7.97443771	6.80488729	2.67700005	0	255	0
-7.9602499	6.80488729	3.20100021	0	255	0
-7.97443771	6.80494976	2.67700005	0	255	0
-7.9602499	6.80494976	2.67700005	0	255	0
-7.9602499	6.80488729	2.67700005	0	255	0
-7.98862505	6.80482483	2.15300012	0	255	0
-7.97443771	6.80482483	2.93900013	0	255	0
-7.97443771	6.80482483	3.20100021	0	255	0
-7.9602499	6.80482483	3.20100021	0	255	0
-7.9602499	6.80482483	2.93900013	0	255	0
-7.97443771	6.8046999	3.20100021	0	255	0
-7.9602499	6.8046999	2.93900013	0	255	0
-7.97443771	6.8046999	2.93900013	0	255	0
-7.94606256	6.80494976	3.20100021	0	255	0
-7.9602499	6.80488729	3.20100021	0	255	0
-7.94606256	6.80488729	2.67700005	0	255	0
-7.9602499	6.80488729	2.67700005	0	255	0
-7.93187523	6.80494976	2.93900013	0	255	0
-7.93187523	6.80488729	2.93900013	0	255	0
-7.93187523	6.80488729	2.67700005	0	255	0
-7.9602499	6.80494976	2.41499996	0	255	0
-7.9602499	6.80488729	2.67700005	0	255	0
-7.9602499	6.80488729	2.41499996	0	255	0
-7.93187523	6.80494976	2.41499996	0	255	0
-7.93187523	6.80488729	2.67700005	0	255	0
-7.93187523	6.80488729	2.41499996	0	255	0
-7.9602499	6.80482483	2.41499996	0	255	0
-7.94606256	6.80482483	2.15300012	0	255	0
-7.94606256	6.80482483	2.41499996	0	255	0
-7.9602499	6.80476236	2.15300012	0	255	0
-7.94606256	6.80476236	2.67700005	0	255	0
-7.94606256	6.80476236	2.41499996	0	255	0
-7.9602499	6.80476236	2.41499996	0	255	0
-7.9602499	6.80482483	2.41499996	0	255	0
-7.9602499	6.80482483	2.67700005	0	255	0
-7.93187523	6.80482483	2.67700005	0	255	0
-7.93187523	6.80482483	2.41499996	0	255	0
-7.94606256	6.80476236	2.15300012	0	255	0
-7.9602499	6.8046999	2.41499996	0	255	0
-7.93187523	6.8046999	2.67700005	0	255	0
-7.93187523	6.8046999	2.41499996	0	255	0
-7.93187523	6.80513763	1.89100003	0	255	0
-7.93187523	6.80513763	2.15300012	0	255	0
-7.91768742	6.80513763	1.62900007	0	255	0
-7.93187523	6.80507469	1.89100003	0	255	0
-7.90350008	6.80513763	2.15300012	0	255	0
-7.90350008	6.80507469	2.15300012	0	255	0
-7.93187523	6.80507469	1.10500002	0	255	0
-7.90350008	6.80513763	1.62900007	0	255	0
-7.90350008	6.80507469	1.62900007	0	255	0
-7.91768742	6.80507469	1.62900007	0	255	0
-7.91768742	6.80501223	1.89100003	0	255	0
-7.91768742	6.80501223	1.62900007	0	255	0
-7.90350008	6.80501223	2.15300012	0	255	0
-7.90350008	6.80501223	1.89100003	0	255	0
-7.91768742	6.80494976	2.15300012	0	255	0
-7.90350008	6.80494976	2.15300012	0	255	0
-7.90350008	6.80494976	1.89100003	0	255	0
-7.91768742	6.80494976	1.89100003	0	255	0
-7.91768742	6.80494976	1.62900007	0	255	0
-7.91768742	6.80494976	1.89100003	0	255	0
-7.90350008	6.80494976	1.89100003	0	255	0
-7.90350008	6.80494976	1.62900007	0	255	0
-7.91768742	6.80488729	1.89100003	0	255	0
-7.90350008	6.80488729	1.89100003	0	255	0
-7.90350008	6.80488729	1.62900007	0	255	0
-7.93187523	6.80482483	1.10500002	0	255	0
-7.91768742	6.80482483	1.62900007	0	255	0
-7.91768742	6.80482483	1.89100003	0	255	0
-7.90350008	6.80482483	1.89100003	0	255	0
-7.90350008	6.80482483	1.62900007	0	255	0
-7.91768742	6.8046999	1.89100003	0	255	0
-7.90350008	6.8046999	1.89100003	0	255	0
-7.90350008	6.8046999	1.62900007	0	255	0
-7.91768742	6.8046999	1.62900007	0	255	0
-7.90350008	6.8052001	4.24900007	0	255	0
-7.90350008	6.8052001	2.41499996	0	255	0
-7.84675026	6.8052001	2.41499996	0	255	0
-7.84675026	6.8052001	2.15300012	0	255	0
-7.90350008	6.80494976	2.41499996	0	255	0
-7.84675026	6.80494976	2.41499996	0	255	0
-7.84675026	6.8052001	3.20100021	0	255	0
-7.84675026	6.8052001	2.93900013	0	255	0
-7.78999996	6.8052001	2.93900013	0	255	0
-7.78999996	6.8052001	0.057	0	255	0
-7.84675026	6.80494976	2.93900013	0	255	0
-7.78999996	6.80494976	2.93900013	0	255	0
-7.78999996	6.80494976	3.20100021	0	255	0
-7.84675026	6.80494976	2.67700005	0	255	0
-7.90350008	6.80494976	2.41499996	0	255	0
-7.84675026	6.80494976	2.41499996	0	255	0
-7.90350008	6.8046999	2.41499996	0	255	0
-7.90350008	6.8046999	2.15300012	0	255	0
-7.84675026	6.8046999	2.41499996	0	255	0
-7.84675026	6.80494976	2.41499996	0	255	0
-7.78999996	6.80494976	2.41499996	0	255	0
-7.78999996	6.80494976	2.15300012	0	255	0
-7.78999996	6.80482483	2.41499996	0	255	0
-7.78999996	6.80482483	2.15300012	0	255	0
-7.84675026	6.8046999	2.41499996	0	255	0
-7.81837511	6.8046999	2.41499996	0	255	0
-7.81837511	6.8046999	2.15300012	0	255	0
-8.0170002	6.80463743	0.319000036	0	255	0
-8.0170002	6.80463743	0.057	0	255	0
-8.00281239	6.80463743	0.58100003	0	255	0
-8.0170002	6.80457497	0.319000036	0	255	0
-7.98862505	6.80463743	0.057	0	255	0
-7.98862505	6.80463743	0.319000036	0	255	0
-7.98862505	6.80457497	1.10500014	0	255	0
-7.98862505	6.80457497	0.319000036	0	255	0
-7.98862505	6.80463743	0.319000036	0	255	0
-7.98862505	6.80463743	0.057	0	255	0
-7.97443771	6.80463743	0.58100003	0	255	0
-7.98862505	6.80457497	0.319000036	0	255	0
-7.9602499	6.80463743	0.057	0	255	0
-7.9602499	6.80463743	0.319000036	0	255	0
-7.9602499	6.80457497	0.057	0	255	0
-7.9602499	6.80457497	0.319000036	0	255	0
-8.0170002	6.8045125	0.843000054	0	255	0
-8.0170002	6.8045125	1.10500014	0	255	0
-8.00281239	6.8045125	0.58100003	0	255	0
-8.0170002	6.80445004	0.843000054	0	255	0
-7.98862505	6.8045125	1.10500014	0	255	0
-7.98862505	6.8045125	0.843000054	0	255	0
-7.98862505	6.80445004	0.057	0	255	0
-7.98862505	6.80445004	0.843000054	0	255	0
-7.98862505	6.8045125	0.319000036	0	255	0
-7.98862505	6.8045125	0.057	0	255	0
-7.97443771	6.8045125	0.58100003	0	255	0
-7.98862505	6.80445004	0.319000036	0	255	0
-7.9602499	6.8045125	0.057	0	255	0
-7.9602499	6.8045125	0.319000036	0	255	0
-7.9602499	6.80445004	0.319000036	0	255	0
-7.9602499	6.80463743	0.319000036	0	255	0
-7.9602499	6.80463743	0.057	0	255	0
-7.94606256	6.80463743	0.58100003	0	255	0
-7.9602499	6.80457497	0.319000036	0	255	0
-7.93187523	6.80463743	0.057	0	255	0
-7.93187523	6.80463743	0.319000036	0	255	0
-7.93187523	6.80457497	1.10500014	0	255	0
-7.93187523	6.80457497	0.319000036	0	255	0
-7.93187523	6.80463743	0.319000036	0	255	0
-7.93187523	6.80463743	0.057	0	255	0
-7.91768742	6.80463743	0.58100003	0	255	0
-7.91768742	6.80463743	0.319000036	0	255	0
-7.91768742	6.80463743	0.58100003	0	255	0
-7.91768742	6.80457497	0.057	0	255	0
-7.91768742	6.80457497	0.319000036	0	255	0
-7.93187523	6.80457497	0.319000036	0	255	0
-7.9602499	6.8045125	0.843000054	0	255	0
-7.9602499	6.8045125	1.10500014	0	255	0
-7.94606256	6.8045125	0.58100003	0	255	0
-7.9602499	6.80445004	0.843000054	0	255	0
-7.93187523	6.8045125	1.10500014	0	255	0
-7.93187523	6.8045125	0.843000054	0	255	0
-7.93187523	6.80445004	0.057	0	255	0
-7.93187523	6.80445004	0.843000054	0	255	0
-7.93187523	6.8045125	0.319000036	0	255	0
-7.93187523	6.8045125	0.057	0	255	0
-7.91768742	6.8045125	0.58100003	0	255	0
-7.91768742	6.8045125	0.319000036	0	255	0
-7.91768742	6.8045125	0.58100003	0	255	0
-7.91768742	6.80445004	0.057	0	255	0
-7.91768742	6.80445004	0.319000036	0	255	0
-7.93187523	6.80445004	0.319000036	0	255	0
-8.0170002	6.80445004	1.89100015	0	255	0
-8.0170002	6.80445004	0.057	0	255	0
-8.0170002	6.80438757	2.15300012	0	255	0
-8.0170002	6.80438757	1.89100015	0	255	0
-7.98862505	6.80445004	1.89100015	0	255	0
-7.98862505	6.80438757	2.15300012	0	255	0
-7.98862505	6.80438757	1.89100015	0	255	0
-7.98862505	6.80445004	1.89100015	0	255	0
-7.98862505	6.80438757	2.15300012	0	255	0
-7.98862505	6.80438757	1.89100015	0	255	0
-7.9602499	6.80445004	1.89100015	0	255	0
-7.9602499	6.80438757	2.15300012	0	255	0
-7.9602499	6.80438757	1.89100015	0	255	0
-7.9602499	6.80445004	0.319000036	0	255	0
-7.9602499	6.80438757	0.057	0	255	0
-7.9602499	6.80438757	0.319000036	0	255	0
-7.93187523	6.80445004	0.319000036	0	255	0
-7.93187523	6.80438757	0.057	0	255	0
-7.93187523	6.80438757	0.319000036	0	255	0
-7.93187523	6.80445004	0.319000036	0	255	0
-7.93187523	6.80438757	0.057	0	255	0
-7.93187523	6.80438757	0.319000036	0	255	0
-7.90350008	6.80445004	0.057	0	255	0
-7.90350008	6.80445004	0.319000036	0	255	0
-7.90350008	6.80438757	0.057	0	255	0
-7.90350008	6.80438757	0.319000036	0	255	0
-7.91768742	6.80463743	1.62900007	0	255	0
-7.90350008	6.80463743	2.15300012	0	255	0
-7.90350008	6.80463743	1.89100003	0	255	0
-7.91768742	6.80457497	2.15300012	0	255	0
-7.90350008	6.80457497	2.15300012	0	255	0
-7.90350008	6.80457497	1.89100003	0	255	0
-7.93187523	6.80463743	1.62900007	0	255	0
-7.93187523	6.80463743	1.89100003	0	255	0
-7.93187523	6.80457497	1.10500002	0	255	0
-7.93187523	6.80457497	1.89100003	0	255	0
-7.91768742	6.80457497	1.62900007	0	255	0
-7.93187523	6.80457497	1.62900007	0	255	0
-7.93187523	6.8045125	1.89100003	0	255	0
-7.93187523	6.8045125	2.15300012	0	255	0
-7.91768742	6.8045125	1.62900007	0	255	0
-7.93187523	6.80445004	1.89100003	0	255	0
-7.90350008	6.8045125	2.15300012	0	255	0
-7.90350008	6.8045125	1.89100003	0	255	0
-7.90350008	6.80445004	1.89100003	0	255	0
-7.91768742	6.80445004	1.89100003	0	255	0
-7.91768742	6.80445004	2.15300012	0	255	0
-7.90350008	6.80445004	1.89100003	0	255	0
-7.91768742	6.80438757	1.62900007	0	255	0
-7.90350008	6.80438757	2.15300012	0	255	0
-7.90350008	6.80438757	1.89100003	0	255	0
-7.91768742	6.80438757	1.89100003	0	255	0
-7.90350008	6.80463743	1.62900007	0	255	0
-7.90350008	6.80463743	1.89100003	0	255	0
-7.88931274	6.80463743	1.89100003	0	255	0
-7.90350008	6.80457497	2.15300012	0	255	0
-7.90350008	6.80457497	1.89100003	0	255	0
-7.88931274	6.80457497	1.89100003	0	255	0
-7.88931274	6.80457497	1.62900007	0	255	0
-7.90350008	6.80457497	1.62900007	0	255	0
-7.87512493	6.80463743	0.843000054	0	255	0
-7.87512493	6.80463743	1.10500002	0	255	0
-7.8609376	6.80463743	0.58100003	0	255	0
-7.87512493	6.80457497	0.843000054	0	255	0
-7.84675026	6.80463743	1.10500002	0	255	0
-7.84675026	6.80463743	0.843000054	0	255	0
-7.84675026	6.80457497	1.10500002	0	255	0
-7.84675026	6.80457497	0.843000054	0	255	0
-7.87512493	6.8046999	1.10500002	0	255	0
-7.87512493	6.8046999	0.843000054	0	255	0
-7.84675026	6.8046999	0.843000054	0	255	0
-7.84675026	6.8046999	0.057	0	255	0
-7.87512493	6.80457497	0.843000054	0	255	0
-7.84675026	6.80457497	0.843000054	0	255	0
-7.84675026	6.80457497	1.10500002	0	255	0
-7.87512493	6.80457497	0.58100003	0	255	0
-7.87512493	6.8045125	0.843000054	0	255	0
-7.87512493	6.8045125	1.10500002	0	255	0
-7.8609376	6.8045125	0.58100003	0	255	0
-7.87512493	6.80445004	0.843000054	0	255	0
-7.84675026	6.8045125	1.10500002	0	255	0
-7.87512493	6.80445004	1.10500002	0	255	0
-7.84675026	6.8045125	0.58100003	0	255	0
-7.8609376	6.80445004	0.58100003	0	255	0
-7.8609376	6.8045125	0.319000006	0	255	0
-7.8609376	6.8045125	0.057	0	255	0
-7.84675026	6.8045125	0.58100003	0	255	0
-7.84675026	6.8045125	0.319000006	0	255	0
-7.8609376	6.80445004	0.58100003	0	255	0
-7.84675026	6.80445004	0.319000006	0	255	0
-7.8609376	6.80445004	0.319000006	0	255	0
-7.84675026	6.8046999	2.15300012	0	255	0
-7.84675026	6.8046999	1.3670001	0	255	0
-7.81837511	6.8046999	1.3670001	0	255	0
-7.81837511	6.8046999	1.10500002	0	255	0
-7.84675026	6.80445004	1.3670001	0	255	0
-7.81837511	6.80445004	1.3670001	0	255	0
-7.81837511	6.80445004	1.10500002	0	255	0
-7.90350008	6.80445004	0.319000006	0	255	0
-7.90350008	6.80445004	2.15300012	0	255	0
-7.90350008	6.80438757	0.057	0	255	0
-7.90350008	6.80438757	0.319000006	0	255	0
-7.87512493	6.80445004	0.319000006	0	255	0
-7.87512493	6.80438757	0.057	0	255	0
-7.87512493	6.80438757	0.319000006	0	255	0
-7.87512493	6.80445004	0.319000006	0	255	0
-7.87512493	6.80438757	0.057	0	255	0
-7.87512493	6.80438757	0.319000006	0	255	0
-7.84675026	6.80445004	0.057	0	255	0
-7.84675026	6.80445004	0.319000006	0	255	0
-7.84675026	6.80438757	0.057	0	255	0
-7.84675026	6.80438757	0.319000006	0	255	0
-7.88931274	6.8043251	0.842999995	0	255	0
-7.88931274	6.8043251	1.10500002	0	255	0
-7.87512493	6.8043251	0.842999995	0	255	0
-7.88931274	6.80426216	0.58099997	0	255	0
-7.87512493	6.80426216	1.10500002	0	255	0
-7.87512493	6.80426216	0.842999995	0	255	0
-7.88931274	6.80426216	0.842999995	0	255	0
-7.87512493	6.8043251	0.319000006	0	255	0
-7.8609376	6.8043251	0.057	0	255	0
-7.8609376	6.8043251	0.319000006	0	255	0
-7.87512493	6.80426216	0.057	0	255	0
-7.8609376	6.80426216	0.58099997	0	255	0
-7.8609376	6.80426216	0.319000006	0	255	0
-7.87512493	6.80426216	0.319000006	0	255	0
-7.8609376	6.80445004	1.10500002	0	255	0
-7.8609376	6.80438757	0.58100003	0	255	0
-7.84675026	6.80438757	1.10500002	0	255	0
-7.8609376	6.80445004	0.58100003	0	255	0
-7.84675026	6.80445004	0.58100003	0	255	0
-7.84675026	6.80438757	0.58100003	0	255	0
-7.87512493	6.8043251	0.843000054	0	255	0
-7.87512493	6.80426216	1.10500002	0	255	0
-7.87512493	6.80426216	0.843000054	0	255	0
-7.84675026	6.8043251	1.10500002	0	255	0
-7.84675026	6.80426216	1.10500002	0	255	0
-7.8609376	6.8043251	0.58100003	0	255	0
-7.84675026	6.8043251	0.58100003	0	255	0
-7.84675026	6.80426216	0.58100003	0	255	0
-7.87512493	6.8041997	1.10500002	0	255	0
-7.83256245	6.80445004	1.10500002	0	255	0
-7.84675026	6.80438757	1.10500002	0	255	0
-7.83256245	6.80438757	0.58100003	0	255	0
-7.83256245	6.80445004	0.58100003	0	255	0
-7.84675026	6.80438757	0.58100003	0	255	0
-7.84675026	6.80445004	0.319000006	0	255	0
-7.84675026	6.80438757	0.58100003	0	255	0
-7.84675026	6.80438757	0.319000006	0	255	0
-7.81837511	6.80445004	0.58100003	0	255	0
-7.81837511	6.80438757	0.58100003	0	255	0
-7.83256245	6.80445004	0.057	0	255	0
-7.81837511	6.80445004	0.057	0	255	0
-7.81837511	6.80438757	0.057	0	255	0
-7.81837511	6.80445004	1.10500002	0	255	0
-7.81837511	6.80445004	0.843000054	0	255	0
-7.78999996	6.80445004	0.843000054	0	255	0
-7.78999996	6.80445004	0.057	0	255	0
-7.81837511	6.8043251	0.843000054	0	255	0
-7.78999996	6.8043251	0.843000054	0	255	0
-7.78999996	6.8043251	1.10500002	0	255	0
-7.84675026	6.8043251	0.319000036	0	255	0
-7.83256245	6.8043251	0.057	0	255	0
-7.83256245	6.8043251	0.319000036	0	255	0
-7.84675026	6.80426216	0.057	0	255	0
-7.83256245	6.80426216	0.58100003	0	255	0
-7.83256245	6.80426216	0.319000036	0	255	0
-7.84675026	6.80426216	0.319000036	0	255	0
-7.84675026	6.80426216	0.58100003	0	255	0
-7.81837511	6.80426216	0.58100003	0	255	0
-7.84675026	6.8043251	0.057	0	255	0
-7.84675026	6.8041997	1.10500002	0	255	0
-7.81837511	6.80426216	0.057	0	255	0
-7.84675026	6.8041997	0.319000006	0	255	0
-7.83256245	6.8041997	0.319000006	0	255	0
-7.83256245	6.8041997	0.057	0	255	0
-7.84675026	6.8041997	0.057	0	255	0
-7.80418777	6.8043251	0.057	0	255	0
-7.80418777	6.8043251	0.319000006	0	255	0
-7.78999996	6.8043251	0.319000006	0	255	0
-7.78999996	6.8043251	0.057	0	255	0
-7.80418777	6.80426216	0.319000006	0	255	0
-7.78999996	6.80426216	0.319000006	0	255	0
-7.78999996	6.80426216	0.057	0	255	0
-7.81837511	6.8041997	0.58100003	0	255	0
