-2.87993741	67124.8125	2.84275007	0	255	0
-2.87993741	67124.8125	2.69149995	0	255	0
-2.84837484	67124.8125	2.99399996	0	255	0
-2.84837484	67124.8125	2.84275007	0	255	0
-2.87993741	67123.5	2.99399996	0	255	0
-2.84837484	67123.5	2.38899994	0	255	0
-2.84837484	67123.5	2.84275007	0	255	0
-2.87993741	67123.5	2.84275007	0	255	0
-2.84837484	67124.8125	2.54024982	0	255	0
-2.84837484	67124.8125	2.38899994	0	255	0
-2.81681252	67124.8125	2.69149995	0	255	0
-2.84837484	67123.5	2.54024982	0	255	0
-2.78524995	67124.8125	2.38899994	0	255	0
-2.78524995	67124.8125	2.54024982	0	255	0
-2.78524995	67123.5	3.59899998	0	255	0
-2.78524995	67123.5	2.54024982	0	255	0
-2.78524995	67126.125	3.14524984	0	255	0
-2.78524995	67126.125	3.59899998	0	255	0
-2.75368738	67126.125	2.99399996	0	255	0
-2.75368738	67126.125	3.14524984	0	255	0
-2.75368738	67124.8125	3.29649997	0	255	0
-2.78524995	67123.5	3.14524984	0	255	0
-2.72212505	67124.8125	2.99399996	0	255	0
-2.72212505	67124.8125	3.14524984	0	255	0
-2.72212505	67123.5	3.14524984	0	255	0
-2.72212505	67126.125	3.29649997	0	255	0
-2.72212505	67126.125	3.44775009	0	255	0
-2.69056249	67126.125	3.44775009	0	255	0
-2.69056249	67126.125	3.29649997	0	255	0
-2.72212505	67124.8125	3.44775009	0	255	0
-2.69056249	67124.8125	3.44775009	0	255	0
-2.72212505	67124.8125	3.29649997	0	255	0
-2.75368738	67124.8125	2.99399996	0	255	0
-2.72212505	67124.8125	3.29649997	0	255	0
-2.75368738	67123.5	3.29649997	0	255	0
-2.78524995	67123.5	3.29649997	0	255	0
-2.72212505	67124.8125	2.99399996	0	255	0
-2.75368738	67123.5	2.99399996	0	255	0
-2.72212505	67124.8125	3.29649997	0	255	0
-2.69056249	67124.8125	2.99399996	0	255	0
-2.69056249	67124.8125	2.99399996	0	255	0
-2.69056249	67123.5	3.29649997	0	255	0
-2.72212505	67124.8125	2.99399996	0	255	0
-2.69056249	67123.5	2.99399996	0	255	0
-2.75368738	67124.8125	2.54024982	0	255	0
-2.75368738	67124.8125	2.69149995	0	255	0
-2.72212505	67124.8125	2.38899994	0	255	0
-2.72212505	67124.8125	2.54024982	0	255	0
-2.75368738	67123.5	2.38899994	0	255	0
-2.72212505	67123.5	2.54024982	0	255	0
-2.75368738	67123.5	2.54024982	0	255	0
-2.72212505	67124.8125	2.99399996	0	255	0
-2.69056249	67124.8125	2.69149995	0	255	0
-2.69056249	67124.8125	2.69149995	0	255	0
-2.69056249	67123.5	2.99399996	0	255	0
-2.72212505	67124.8125	2.69149995	0	255	0
-2.69056249	67123.5	2.69149995	0	255	0
-2.75368738	67124.8125	2.38899994	0	255	0
-2.72212505	67124.8125	2.69149995	0	255	0
-2.75368738	67123.5	2.69149995	0	255	0
-2.78524995	67123.5	2.69149995	0	255	0
-2.72212505	67124.8125	2.38899994	0	255	0
-2.75368738	67123.5	2.38899994	0	255	0
-2.72212505	67124.8125	2.69149995	0	255	0
-2.69056249	67124.8125	2.38899994	0	255	0
-2.65899992	67124.8125	2.69149995	0	255	0
-2.65899992	67123.5	2.69149995	0	255	0
-2.72212505	67124.8125	2.38899994	0	255	0
-2.65899992	67124.8125	2.38899994	0	255	0
-3.16400003	67132.6875	2.08649993	0	255	0
-3.16400003	67132.6875	2.23775005	0	255	0
-3.16400003	67131.375	2.23775005	0	255	0
-3.16400003	67131.375	2.08649993	0	255	0
-3.1008749	67132.6875	2.23775005	0	255	0
-3.1008749	67132.6875	2.08649993	0	255	0
-3.1008749	67131.375	2.23775005	0	255	0
-3.1008749	67132.6875	2.08649993	0	255	0
-3.1008749	67132.6875	2.23775005	0	255	0
-3.06931257	67132.6875	2.23775005	0	255	0
-3.1008749	67131.375	1.78399992	0	255	0
-3.1008749	67131.375	2.23775005	0	255	0
-3.06931257	67131.375	2.23775005	0	255	0
-3.06931257	67131.375	2.08649993	0	255	0
-3.16400003	67134.0078	1.93524992	0	255	0
-3.16400003	67134.0078	2.08649993	0	255	0
-3.16400003	67132.6875	2.08649993	0	255	0
-3.16400003	67132.6875	1.93524992	0	255	0
-3.1008749	67134.0078	2.08649993	0	255	0
-3.1008749	67134.0078	1.93524992	0	255	0
-3.1008749	67132.6875	2.08649993	0	255	0
-3.1008749	67132.6875	1.93524992	0	255	0
-3.1008749	67134.0078	2.38899994	0	255	0
-3.1008749	67134.0078	2.23775005	0	255	0
-3.03775001	67134.0078	2.23775005	0	255	0
-3.03775001	67134.0078	1.78399992	0	255	0
-3.1008749	67131.375	2.23775005	0	255	0
-3.03775001	67131.375	2.23775005	0	255	0
-3.03775001	67131.375	2.38899994	0	255	0
-3.03775001	67134.0078	1.93524992	0	255	0
-3.03775001	67134.0078	2.08649993	0	255	0
-2.97462511	67134.0078	2.08649993	0	255	0
-2.97462511	67134.0078	1.93524992	0	255	0
-3.00618744	67132.6875	1.78399992	0	255	0
-3.03775001	67131.375	1.93524992	0	255	0
-2.97462511	67131.375	1.93524992	0	255	0
-2.97462511	67134.0078	1.63275003	0	255	0
-2.97462511	67134.0078	2.08649993	0	255	0
-2.91149998	67134.0078	2.08649993	0	255	0
-2.91149998	67134.0078	1.63275003	0	255	0
-2.97462511	67131.375	1.17900002	0	255	0
-2.91149998	67131.375	2.08649993	0	255	0
-2.91149998	67131.375	1.63275003	0	255	0
-2.97462511	67131.375	1.63275003	0	255	0
-3.03775001	67131.375	1.93524992	0	255	0
-3.03775001	67131.375	2.08649993	0	255	0
-3.03775001	67130.0625	2.08649993	0	255	0
-3.03775001	67130.0625	1.93524992	0	255	0
-2.97462511	67131.375	1.93524992	0	255	0
-2.97462511	67130.0625	2.08649993	0	255	0
-2.97462511	67130.0625	1.93524992	0	255	0
-2.97462511	67131.375	1.93524992	0	255	0
-2.94306254	67131.375	2.08649993	0	255	0
-2.94306254	67131.375	1.93524992	0	255	0
-2.97462511	67130.0625	2.08649993	0	255	0
-2.94306254	67130.0625	1.78399992	0	255	0
-2.94306254	67130.0625	1.93524992	0	255	0
-2.97462511	67130.0625	1.93524992	0	255	0
-2.91149998	67134.0078	3.59899998	0	255	0
-2.91149998	67134.0078	2.54024982	0	255	0
-2.78524995	67134.0078	2.54024982	0	255	0
-2.78524995	67134.0078	2.38899994	0	255	0
-2.91149998	67128.75	2.54024982	0	255	0
-2.91149998	67128.75	2.38899994	0	255	0
-2.78524995	67128.75	2.54024982	0	255	0
-2.91149998	67123.5	2.99399996	0	255	0
-2.78524995	67134.0078	2.99399996	0	255	0
-2.78524995	67134.0078	2.84275007	0	255	0
-2.65899992	67134.0078	2.84275007	0	255	0
-2.65899992	67134.0078	1.17900002	0	255	0
-2.78524995	67128.75	2.84275007	0	255	0
-2.65899992	67128.75	2.84275007	0	255	0
-2.65899992	67128.75	2.99399996	0	255	0
-2.78524995	67128.75	2.69149995	0	255	0
-2.78524995	67126.125	2.38899994	0	255	0
-2.78524995	67126.125	2.54024982	0	255	0
-2.78524995	67123.5	2.54024982	0	255	0
-2.78524995	67123.5	2.38899994	0	255	0
-2.65899992	67126.125	2.54024982	0	255	0
-2.65899992	67126.125	2.38899994	0	255	0
-2.65899992	67123.5	2.54024982	0	255	0
-2.65899992	67123.5	3.59899998	0	255	0
-2.91149998	67123.5	3.44775009	0	255	0
-2.91149998	67123.5	1.17900002	0	255	0
-2.91149998	67122.1875	3.59899998	0	255	0
-2.91149998	67122.1875	3.44775009	0	255	0
-2.84837484	67123.5	3.44775009	0	255	0
-2.84837484	67122.1875	3.59899998	0	255	0
-2.84837484	67122.1875	3.44775009	0	255	0
-2.84837484	67123.5	3.44775009	0	255	0
-2.84837484	67122.1875	3.59899998	0	255	0
-2.84837484	67122.1875	3.44775009	0	255	0
-2.78524995	67123.5	3.44775009	0	255	0
-2.78524995	67122.1875	3.59899998	0	255	0
-2.78524995	67122.1875	3.44775009	0	255	0
-2.75368738	67123.5	3.59899998	0	255	0
-2.78524995	67122.1875	3.59899998	0	255	0
-2.75368738	67122.1875	3.29649997	0	255	0
-2.78524995	67123.5	3.29649997	0	255	0
-2.78524995	67122.1875	3.29649997	0	255	0
-2.72212505	67123.5	3.44775009	0	255	0
-2.72212505	67122.1875	3.44775009	0	255	0
-2.72212505	67122.1875	3.29649997	0	255	0
-2.75368738	67123.5	3.29649997	0	255	0
-2.75368738	67122.1875	2.99399996	0	255	0
-2.72212505	67122.1875	3.29649997	0	255	0
-2.75368738	67123.5	2.99399996	0	255	0
-2.72212505	67123.5	2.99399996	0	255	0
-2.72212505	67122.1875	2.99399996	0	255	0
-2.78524995	67120.875	3.29649997	0	255	0
-2.72212505	67123.5	2.84275007	0	255	0
-2.72212505	67123.5	3.29649997	0	255	0
-2.65899992	67123.5	3.29649997	0	255	0
-2.65899992	67123.5	2.84275007	0	255	0
-2.72212505	67120.875	2.38899994	0	255	0
-2.65899992	67120.875	3.29649997	0	255	0
-2.65899992	67120.875	2.84275007	0	255	0
-2.72212505	67120.875	2.84275007	0	255	0
-2.78524995	67123.5	3.59899998	0	255	0
-2.78524995	67123.5	3.14524984	0	255	0
-2.78524995	67120.875	3.14524984	0	255	0
-2.78524995	67120.875	2.99399996	0	255	0
-2.65899992	67123.5	3.14524984	0	255	0
-2.65899992	67120.875	3.14524984	0	255	0
-2.65899992	67120.875	2.99399996	0	255	0
-2.75368738	67123.5	2.38899994	0	255	0
-2.75368738	67122.1875	2.08649993	0	255	0
-2.72212505	67122.1875	2.38899994	0	255	0
-2.75368738	67123.5	2.08649993	0	255	0
-2.72212505	67122.1875	2.08649993	0	255	0
-2.78524995	67120.875	2.38899994	0	255	0
-2.69056249	67123.5	2.38899994	0	255	0
-2.72212505	67122.1875	2.38899994	0	255	0
-2.69056249	67122.1875	2.08649993	0	255	0
-2.69056249	67123.5	2.08649993	0	255	0
-2.72212505	67120.875	1.78399992	0	255	0
-2.72212505	67122.1875	2.08649993	0	255	0
-2.75368738	67123.5	2.08649993	0	255	0
-2.75368738	67122.1875	1.78399992	0	255	0
-2.72212505	67122.1875	2.08649993	0	255	0
-2.75368738	67123.5	1.78399992	0	255	0
-2.72212505	67123.5	1.78399992	0	255	0
-2.72212505	67122.1875	1.78399992	0	255	0
-2.78524995	67120.875	2.08649993	0	255	0
-2.72212505	67123.5	1.63275003	0	255	0
-2.72212505	67123.5	2.08649993	0	255	0
-2.65899992	67123.5	2.08649993	0	255	0
-2.65899992	67123.5	1.63275003	0	255	0
-2.72212505	67120.875	1.17900002	0	255	0
-2.65899992	67120.875	2.08649993	0	255	0
-2.65899992	67120.875	1.63275003	0	255	0
-2.72212505	67120.875	1.63275003	0	255	0
-2.78524995	67123.5	2.38899994	0	255	0
-2.78524995	67123.5	1.93524992	0	255	0
-2.78524995	67120.875	1.93524992	0	255	0
-2.78524995	67120.875	1.78399992	0	255	0
-2.65899992	67123.5	1.93524992	0	255	0
-2.65899992	67123.5	1.17900002	0	255	0
-2.65899992	67120.875	1.93524992	0	255	0
-2.65899992	67120.875	1.78399992	0	255	0
-2.91149998	67114.3125	1.63274992	0	255	0
-2.91149998	67114.3125	1.78399992	0	255	0
-2.87993741	67114.3125	1.48149991	0	255	0
-2.91149998	67113	1.63274992	0	255	0
-2.84837484	67114.3125	1.78399992	0	255	0
-2.84837484	67114.3125	1.63274992	0	255	0
-2.84837484	67113	1.17900002	0	255	0
-2.84837484	67113	1.63274992	0	255	0
-2.81681252	67115.625	1.33025002	0	255	0
-2.81681252	67115.625	1.17900002	0	255	0
-2.78524995	67115.625	1.17900002	0	255	0
-2.78524995	67115.625	1.33025002	0	255	0
-2.84837484	67114.3125	1.33025002	0	255	0
-2.84837484	67114.3125	1.17900002	0	255	0
-2.81681252	67114.3125	1.48149991	0	255	0
-2.84837484	67113	1.33025002	0	255	0
-2.78524995	67113	1.33025002	0	255	0
-2.78524995	67115.625	2.08649993	0	255	0
-2.75368738	67116.9375	1.93524992	0	255	0
-2.72212505	67116.9375	1.93524992	0	255	0
-2.72212505	67116.9375	1.78399992	0	255	0
-2.75368738	67115.625	1.93524992	0	255	0
-2.72212505	67115.625	1.93524992	0	255	0
-2.75368738	67115.625	1.78399992	0	255	0
-2.75368738	67115.625	2.08649993	0	255	0
-2.75368738	67115.625	1.78399992	0	255	0
-2.78524995	67114.3125	2.08649993	0	255	0
-2.75368738	67114.3125	1.78399992	0	255	0
-2.78524995	67114.3125	1.78399992	0	255	0
-2.78524995	67113	1.78399992	0	255	0
-2.69056249	67115.625	2.08649993	0	255	0
-2.65899992	67115.625	1.93524992	0	255	0
-2.65899992	67115.625	1.78399992	0	255	0
-2.69056249	67114.3125	1.78399992	0	255	0
-2.69056249	67113	2.08649993	0	255	0
-2.65899992	67113	1.93524992	0	255	0
-2.65899992	67113	1.78399992	0	255	0
