-18.2849998	66927.75	2.77649999	0	255	0
-18.2849998	66927.75	3.02312517	0	255	0
-18.2849998	66847.5	3.02312517	0	255	0
-18.2849998	66847.5	2.77649999	0	255	0
-18.1480007	66927.75	3.02312517	0	255	0
-18.1480007	66927.75	2.77649999	0	255	0
-18.1480007	66847.5	3.02312517	0	255	0
-18.1480007	66847.5	3.76300001	0	255	0
-18.3535004	66807.375	2.28324986	0	255	0
-18.3535004	66807.375	2.5298748	0	255	0
-18.3535004	66767.25	2.5298748	0	255	0
-18.2849998	66807.375	2.5298748	0	255	0
-18.2849998	66807.375	2.28324986	0	255	0
-18.2849998	66767.25	2.5298748	0	255	0
-18.4220009	66767.25	2.28324986	0	255	0
-18.3877506	66807.375	2.03662491	0	255	0
-18.3535004	66807.375	2.03662491	0	255	0
-18.3535004	66807.375	1.78999996	0	255	0
-18.3877506	66767.25	2.03662491	0	255	0
-18.3535004	66767.25	2.03662491	0	255	0
-18.3877506	66767.25	1.78999996	0	255	0
-18.3535004	66847.5	2.77649999	0	255	0
-18.3535004	66847.5	2.5298748	0	255	0
-18.2849998	66847.5	2.5298748	0	255	0
-18.3535004	66767.25	2.5298748	0	255	0
-18.2849998	66767.25	2.5298748	0	255	0
-18.2849998	66767.25	2.77649999	0	255	0
-18.3877506	66767.25	2.03662491	0	255	0
-18.3877506	66767.25	1.78999996	0	255	0
-18.3535004	66767.25	2.03662491	0	255	0
-18.3877506	66727.125	2.28324986	0	255	0
-18.3535004	66727.125	1.78999996	0	255	0
-18.3535004	66727.125	2.03662491	0	255	0
-18.3877506	66727.125	2.03662491	0	255	0
-18.3535004	66767.25	2.5298748	0	255	0
-18.3535004	66727.125	2.5298748	0	255	0
-18.3535004	66727.125	2.28324986	0	255	0
-18.2849998	66767.25	2.5298748	0	255	0
-18.3192501	66687	2.5298748	0	255	0
-18.2849998	66687	2.5298748	0	255	0
-18.3192501	66687	2.28324986	0	255	0
-18.3877506	66767.25	2.28324986	0	255	0
-18.3877506	66727.125	1.78999996	0	255	0
-18.3535004	66727.125	2.28324986	0	255	0
-18.4220009	66767.25	1.78999996	0	255	0
-18.4220009	66767.25	2.03662491	0	255	0
-18.4220009	66727.125	2.03662491	0	255	0
-18.4220009	66727.125	1.78999996	0	255	0
-18.3535004	66727.125	1.78999996	0	255	0
-18.3535004	66727.125	2.28324986	0	255	0
-18.3535004	66727.125	1.78999996	0	255	0
-18.2849998	66767.25	1.78999996	0	255	0
-18.3192501	66687	2.28324986	0	255	0
-18.3192501	66687	1.78999996	0	255	0
-18.2849998	66847.5	2.5298748	0	255	0
-18.2164993	66847.5	2.5298748	0	255	0
-18.2164993	66807.375	2.5298748	0	255	0
-18.2164993	66807.375	2.28324986	0	255	0
-18.2849998	66767.25	2.5298748	0	255	0
-18.2507496	66767.25	2.5298748	0	255	0
-18.2507496	66767.25	2.28324986	0	255	0
-18.2164993	66847.5	2.5298748	0	255	0
-18.182251	66847.5	2.5298748	0	255	0
-18.182251	66847.5	2.28324986	0	255	0
-18.2164993	66807.375	2.5298748	0	255	0
-18.182251	66807.375	2.5298748	0	255	0
-18.2164993	66767.25	1.78999996	0	255	0
-18.2164993	66807.375	2.28324986	0	255	0
-18.2164993	66807.375	2.28324986	0	255	0
-18.2164993	66847.5	1.78999996	0	255	0
-18.2164993	66807.375	1.78999996	0	255	0
-18.2507496	66807.375	1.78999996	0	255	0
-18.2507496	66767.25	2.28324986	0	255	0
-18.2507496	66767.25	1.78999996	0	255	0
-18.2849998	66767.25	1.78999996	0	255	0
-18.2164993	66847.5	2.77649999	0	255	0
-18.2164993	66847.5	2.5298748	0	255	0
-18.1480007	66847.5	2.5298748	0	255	0
-18.1480007	66847.5	1.78999996	0	255	0
-18.2164993	66767.25	2.5298748	0	255	0
-18.1480007	66767.25	2.5298748	0	255	0
-18.1480007	66767.25	2.77649999	0	255	0
-18.2164993	66767.25	2.28324986	0	255	0
-18.2849998	66767.25	2.03662491	0	255	0
-18.2507496	66767.25	1.78999996	0	255	0
-18.2507496	66767.25	2.03662491	0	255	0
-18.2507496	66727.125	2.28324986	0	255	0
-18.2849998	66687	2.03662491	0	255	0
-18.2164993	66727.125	1.78999996	0	255	0
-18.2164993	66727.125	2.03662491	0	255	0
-18.2164993	66687	2.03662491	0	255	0
-18.2164993	66727.125	2.28324986	0	255	0
-18.2164993	66727.125	2.5298748	0	255	0
-18.2164993	66687	2.5298748	0	255	0
-18.1480007	66727.125	2.5298748	0	255	0
-18.1480007	66727.125	2.28324986	0	255	0
-18.1480007	66687	2.5298748	0	255	0
-18.2849998	66727.125	2.28324986	0	255	0
-18.2507496	66727.125	1.78999996	0	255	0
-18.2164993	66727.125	2.28324986	0	255	0
-18.2849998	66727.125	1.78999996	0	255	0
-18.2164993	66727.125	1.78999996	0	255	0
-18.2164993	66727.125	2.28324986	0	255	0
-18.182251	66727.125	1.78999996	0	255	0
-18.1480007	66727.125	2.28324986	0	255	0
-18.2164993	66727.125	1.78999996	0	255	0
-18.1480007	66727.125	1.78999996	0	255	0
-18.1137505	66967.875	2.5298748	0	255	0
-18.0795021	66967.875	2.5298748	0	255	0
-18.0795021	66967.875	2.28324986	0	255	0
-18.1137505	66927.75	2.5298748	0	255	0
-18.0795021	66927.75	2.5298748	0	255	0
-18.1137505	66927.75	2.28324986	0	255	0
-18.0795021	66967.875	2.28324986	0	255	0
-18.0795021	66967.875	2.5298748	0	255	0
-18.0795021	66927.75	2.5298748	0	255	0
-18.0110016	66967.875	2.5298748	0	255	0
-18.0110016	66967.875	2.28324986	0	255	0
-18.0110016	66927.75	2.5298748	0	255	0
-18.0110016	66927.75	2.28324986	0	255	0
-18.1137505	66967.875	1.78999996	0	255	0
-18.0795021	66967.875	2.28324986	0	255	0
-18.1137505	66927.75	2.28324986	0	255	0
-18.0795021	66967.875	1.78999996	0	255	0
-18.1137505	66927.75	1.78999996	0	255	0
-18.0795021	67008	2.77649999	0	255	0
-18.0795021	67008	2.5298748	0	255	0
-18.0110016	67008	2.5298748	0	255	0
-18.0110016	67008	1.78999996	0	255	0
-18.0795021	66927.75	2.5298748	0	255	0
-18.0110016	66927.75	2.5298748	0	255	0
-18.0110016	66927.75	2.77649999	0	255	0
-18.1480007	66927.75	2.03662491	0	255	0
-18.0795021	66927.75	2.03662491	0	255	0
-18.0795021	66887.625	1.78999996	0	255	0
-18.0795021	66887.625	2.03662491	0	255	0
-18.1137505	66887.625	2.28324986	0	255	0
-18.1137505	66847.5	1.78999996	0	255	0
-18.1137505	66847.5	2.03662491	0	255	0
-18.1480007	66847.5	2.03662491	0	255	0
-18.0795021	66927.75	2.5298748	0	255	0
-18.0452518	66927.75	2.5298748	0	255	0
-18.0452518	66927.75	2.28324986	0	255	0
-18.0795021	66887.625	2.5298748	0	255	0
-18.0452518	66887.625	2.5298748	0	255	0
-18.0795021	66847.5	2.77649999	0	255	0
-18.0795021	66887.625	2.28324986	0	255	0
-18.0795021	66887.625	2.28324986	0	255	0
-18.1480007	66927.75	1.78999996	0	255	0
-18.0795021	66887.625	1.78999996	0	255	0
-18.1137505	66887.625	1.78999996	0	255	0
-18.1137505	66847.5	2.28324986	0	255	0
-18.1137505	66847.5	1.78999996	0	255	0
-18.1480007	66847.5	1.78999996	0	255	0
-18.0452518	66927.75	2.28324986	0	255	0
-18.0795021	66887.625	2.28324986	0	255	0
-18.0452518	66887.625	1.78999996	0	255	0
-18.0452518	66927.75	1.78999996	0	255	0
-18.0795021	66847.5	2.28324986	0	255	0
-18.0795021	66887.625	1.78999996	0	255	0
-18.0110016	67008	2.77649999	0	255	0
-18.0110016	66927.75	2.77649999	0	255	0
-17.8740005	67008	2.77649999	0	255	0
-17.8740005	66927.75	2.77649999	0	255	0
-18.0110016	67008	1.29674995	0	255	0
-18.0110016	66927.75	1.29674995	0	255	0
-17.8740005	67008	1.29674995	0	255	0
-17.8740005	66927.75	1.29674995	0	255	0
-18.1480007	66727.125	2.03662491	0	255	0
-18.1480007	66727.125	1.78999996	0	255	0
-18.1137505	66727.125	2.28324986	0	255	0
-18.1480007	66687	2.03662491	0	255	0
-18.0795021	66727.125	1.78999996	0	255	0
-18.0795021	66727.125	2.03662491	0	255	0
-18.0795021	66687	2.03662491	0	255	0
-18.0795021	66727.125	2.28324986	0	255	0
-18.0795021	66727.125	2.5298748	0	255	0
-18.0452518	66727.125	2.5298748	0	255	0
-18.0795021	66687	2.5298748	0	255	0
-18.0452518	66687	2.5298748	0	255	0
-18.0452518	66687	2.28324986	0	255	0
-18.1480007	66727.125	2.28324986	0	255	0
-18.1137505	66727.125	1.78999996	0	255	0
-18.0795021	66727.125	2.28324986	0	255	0
-18.1480007	66727.125	1.78999996	0	255	0
-18.0795021	66727.125	1.78999996	0	255	0
-18.0795021	66687	1.78999996	0	255	0
-18.2507496	66887.625	1.050125	0	255	0
-18.2507496	66887.625	1.29674995	0	255	0
-18.2164993	66887.625	0.803499997	0	255	0
-18.2164993	66887.625	1.050125	0	255	0
-18.2507496	66847.5	0.803499997	0	255	0
-18.2164993	66847.5	1.050125	0	255	0
-18.2507496	66847.5	1.050125	0	255	0
-18.182251	66927.75	1.78999996	0	255	0
-18.1480007	66927.75	1.78999996	0	255	0
-18.182251	66927.75	1.29674995	0	255	0
-18.2164993	66887.625	1.78999996	0	255	0
-18.182251	66887.625	1.29674995	0	255	0
-18.2164993	66887.625	1.29674995	0	255	0
-18.2507496	66887.625	0.803499997	0	255	0
-18.2164993	66887.625	1.29674995	0	255	0
-18.2507496	66847.5	1.29674995	0	255	0
-18.2849998	66847.5	1.29674995	0	255	0
-18.2164993	66887.625	0.803499997	0	255	0
-18.2507496	66847.5	0.803499997	0	255	0
-18.182251	66927.75	1.29674995	0	255	0
-18.2164993	66927.75	1.050125	0	255	0
-18.1480007	66927.75	0.803499997	0	255	0
-18.2164993	66887.625	1.29674995	0	255	0
-18.182251	66887.625	0.803499997	0	255	0
-18.3535004	66847.5	0.310249984	0	255	0
-18.3192501	66887.625	0.063624993	0	255	0
-18.2849998	66887.625	0.063624993	0	255	0
-18.2849998	66887.625	-0.182999998	0	255	0
-18.3192501	66847.5	0.063624993	0	255	0
-18.2849998	66847.5	0.063624993	0	255	0
-18.3192501	66847.5	-0.182999998	0	255	0
-18.2849998	66927.75	0.803499997	0	255	0
-18.2849998	66927.75	1.050125	0	255	0
-18.2849998	66847.5	1.050125	0	255	0
-18.1480007	66927.75	1.050125	0	255	0
-18.1480007	66927.75	0.803499997	0	255	0
-18.1480007	66847.5	1.050125	0	255	0
-18.1480007	66847.5	1.78999996	0	255	0
-18.3877506	66807.375	0.0636250079	0	255	0
-18.3877506	66807.375	0.310250014	0	255	0
-18.3535004	66807.375	-0.182999998	0	255	0
-18.3535004	66807.375	0.0636250079	0	255	0
-18.3877506	66767.25	-0.182999998	0	255	0
-18.3535004	66767.25	0.0636250079	0	255	0
-18.3877506	66767.25	0.0636250079	0	255	0
-18.3192501	66847.5	0.0636250079	0	255	0
-18.3192501	66847.5	-0.182999998	0	255	0
-18.2849998	66847.5	0.0636250079	0	255	0
-18.3535004	66807.375	0.0636250079	0	255	0
-18.3535004	66807.375	-0.182999998	0	255	0
-18.3192501	66807.375	0.310250014	0	255	0
-18.3535004	66767.25	0.0636250079	0	255	0
-18.2849998	66767.25	0.0636250079	0	255	0
-18.4220009	66767.25	0.55687499	0	255	0
-18.4220009	66767.25	-0.182999998	0	255	0
-18.4220009	66727.125	0.803499997	0	255	0
-18.4220009	66727.125	0.55687499	0	255	0
-18.3535004	66767.25	0.55687499	0	255	0
-18.3535004	66727.125	0.803499997	0	255	0
-18.3535004	66727.125	0.55687499	0	255	0
-18.3535004	66767.25	0.0636250079	0	255	0
-18.2849998	66767.25	0.0636250079	0	255	0
-18.3192501	66727.125	0.310250014	0	255	0
-18.3535004	66687	0.0636250079	0	255	0
-18.2849998	66687	1.78999996	0	255	0
-18.2849998	66687	0.0636250079	0	255	0
-18.2164993	66807.375	1.29674995	0	255	0
-18.2507496	66807.375	1.29674995	0	255	0
-18.2164993	66767.25	1.54337502	0	255	0
-18.2507496	66767.25	1.29674995	0	255	0
-18.2164993	66807.375	1.78999996	0	255	0
-18.1480007	66847.5	1.54337502	0	255	0
-18.1480007	66807.375	1.78999996	0	255	0
-18.1480007	66807.375	1.54337502	0	255	0
-18.182251	66847.5	1.29674995	0	255	0
-18.2164993	66807.375	1.29674995	0	255	0
-18.2164993	66807.375	1.29674995	0	255	0
-18.2164993	66847.5	0.803499997	0	255	0
-18.2164993	66807.375	0.803499997	0	255	0
-18.2507496	66807.375	0.803499997	0	255	0
-18.2507496	66767.25	1.29674995	0	255	0
-18.2507496	66767.25	0.803499997	0	255	0
-18.2849998	66767.25	0.803499997	0	255	0
-18.2164993	66847.5	1.78999996	0	255	0
-18.2164993	66847.5	1.54337502	0	255	0
-18.1480007	66847.5	1.54337502	0	255	0
-18.2164993	66767.25	1.54337502	0	255	0
-18.1480007	66767.25	1.54337502	0	255	0
-18.1480007	66767.25	1.78999996	0	255	0
-18.2164993	66767.25	1.29674995	0	255	0
-18.2849998	66727.125	1.050125	0	255	0
-18.2849998	66727.125	0.803499997	0	255	0
-18.2507496	66727.125	1.29674995	0	255	0
-18.2849998	66687	1.050125	0	255	0
-18.2164993	66727.125	0.803499997	0	255	0
-18.2164993	66727.125	1.050125	0	255	0
-18.2164993	66687	1.050125	0	255	0
-18.2164993	66727.125	1.78999996	0	255	0
-18.182251	66727.125	1.29674995	0	255	0
-18.1480007	66727.125	1.78999996	0	255	0
-18.2164993	66727.125	1.29674995	0	255	0
-18.1480007	66727.125	1.29674995	0	255	0
-18.2849998	66727.125	1.29674995	0	255	0
-18.2507496	66727.125	0.803499997	0	255	0
-18.2164993	66727.125	1.29674995	0	255	0
-18.2849998	66727.125	0.803499997	0	255	0
-18.2164993	66727.125	0.803499997	0	255	0
-18.2164993	66727.125	1.29674995	0	255	0
-18.182251	66727.125	0.803499997	0	255	0
-18.1480007	66727.125	1.29674995	0	255	0
-18.1480007	66727.125	1.050125	0	255	0
-18.1480007	66687	1.050125	0	255	0
-18.2164993	66727.125	0.803499997	0	255	0
-18.182251	66687	0.803499997	0	255	0
-18.3877506	66807.375	0.310249984	0	255	0
-18.3535004	66807.375	0.803499997	0	255	0
-18.3877506	66767.25	0.803499997	0	255	0
-18.3535004	66807.375	0.310249984	0	255	0
-18.3877506	66767.25	0.310249984	0	255	0
-18.3192501	66847.5	0.803499997	0	255	0
-18.3192501	66847.5	0.310249984	0	255	0
-18.2849998	66847.5	0.310249984	0	255	0
-18.3535004	66807.375	0.803499997	0	255	0
-18.3192501	66807.375	0.310249984	0	255	0
-18.3535004	66807.375	0.310249984	0	255	0
-18.3877506	66847.5	-0.182999998	0	255	0
-18.3877506	66847.5	0.063624993	0	255	0
-18.3535004	66847.5	0.063624993	0	255	0
-18.3535004	66847.5	-0.182999998	0	255	0
-18.3877506	66807.375	-0.182999998	0	255	0
-18.3535004	66807.375	0.310249984	0	255	0
-18.3877506	66767.25	0.310249984	0	255	0
-18.4220009	66807.375	-0.182999998	0	255	0
-18.4220009	66807.375	0.063624993	0	255	0
-18.4220009	66767.25	0.063624993	0	255	0
-18.4220009	66767.25	-0.182999998	0	255	0
-18.4220009	66687	0.803499997	0	255	0
-18.3535004	66847.5	0.803499997	0	255	0
-18.3535004	66847.5	0.55687499	0	255	0
-18.2849998	66847.5	0.55687499	0	255	0
-18.3535004	66767.25	0.55687499	0	255	0
-18.2849998	66767.25	0.55687499	0	255	0
-18.2849998	66767.25	0.803499997	0	255	0
-18.4220009	66767.25	0.063624993	0	255	0
-18.4220009	66727.125	-0.182999998	0	255	0
-18.4220009	66727.125	0.063624993	0	255	0
-18.3535004	66767.25	0.063624993	0	255	0
-18.3877506	66687	-0.182999998	0	255	0
-18.3535004	66687	0.063624993	0	255	0
-18.3877506	66687	0.063624993	0	255	0
-18.3535004	66727.125	0.310249984	0	255	0
-18.3192501	66727.125	0.310249984	0	255	0
-18.3535004	66687	0.55687499	0	255	0
-18.2849998	66687	0.310249984	0	255	0
-18.3192501	66687	0.310249984	0	255	0
-18.4220009	66767.25	0.063624993	0	255	0
-18.4220009	66727.125	0.310249984	0	255	0
-18.4220009	66727.125	0.063624993	0	255	0
-18.3535004	66767.25	0.063624993	0	255	0
-18.3535004	66727.125	0.310249984	0	255	0
-18.3535004	66727.125	0.063624993	0	255	0
-18.3535004	66767.25	0.063624993	0	255	0
-18.3192501	66767.25	0.310249984	0	255	0
-18.3192501	66767.25	0.063624993	0	255	0
-18.3535004	66727.125	0.310249984	0	255	0
-18.3192501	66727.125	-0.182999998	0	255	0
-18.3192501	66727.125	0.063624993	0	255	0
-18.3535004	66727.125	0.063624993	0	255	0
-18.2164993	66807.375	0.803499997	0	255	0
-18.2164993	66807.375	0.310249984	0	255	0
-18.2507496	66807.375	0.310249984	0	255	0
-18.2507496	66767.25	0.803499997	0	255	0
-18.2507496	66767.25	0.310249984	0	255	0
-18.182251	66847.5	0.803499997	0	255	0
-18.2164993	66807.375	0.803499997	0	255	0
-18.182251	66807.375	0.310249984	0	255	0
-18.182251	66847.5	0.310249984	0	255	0
-18.2164993	66767.25	-0.182999998	0	255	0
-18.2164993	66807.375	0.310249984	0	255	0
-18.2849998	66807.375	0.310249984	0	255	0
-18.2164993	66807.375	0.310249984	0	255	0
-18.2849998	66807.375	-0.182999998	0	255	0
-18.2164993	66847.5	-0.182999998	0	255	0
-18.2164993	66807.375	-0.182999998	0	255	0
-18.2849998	66727.125	0.063624993	0	255	0
-18.2849998	66727.125	-0.182999998	0	255	0
-18.2507496	66727.125	0.310249984	0	255	0
-18.2849998	66687	0.063624993	0	255	0
-18.2164993	66727.125	-0.182999998	0	255	0
-18.2164993	66727.125	0.063624993	0	255	0
-18.2164993	66687	0.803499997	0	255	0
-18.2164993	66687	0.063624993	0	255	0
-18.1480007	67008	3.76300001	0	255	0
-18.1480007	67008	2.03662491	0	255	0
-18.0110016	67008	2.03662491	0	255	0
-18.0110016	67008	1.78999996	0	255	0
-18.1480007	66847.5	2.03662491	0	255	0
-18.1480007	66847.5	1.78999996	0	255	0
-18.0110016	66847.5	2.03662491	0	255	0
-18.1480007	66687	2.77649999	0	255	0
-18.0110016	67008	2.77649999	0	255	0
-18.0110016	67008	2.5298748	0	255	0
-17.8740005	67008	2.5298748	0	255	0
-17.8740005	67008	-0.182999998	0	255	0
-18.0110016	66847.5	2.5298748	0	255	0
-17.8740005	66847.5	2.5298748	0	255	0
-17.8740005	66847.5	2.77649999	0	255	0
-18.0110016	66847.5	2.28324986	0	255	0
-18.1480007	66767.25	1.78999996	0	255	0
-18.1480007	66767.25	2.03662491	0	255	0
-18.0795021	66767.25	2.03662491	0	255	0
-18.1480007	66687	2.28324986	0	255	0
-18.1480007	66687	2.03662491	0	255	0
-18.0795021	66687	2.03662491	0	255	0
-18.0795021	66687	1.78999996	0	255	0
-18.3192501	66566.625	0.0636249781	0	255	0
-18.3192501	66566.625	0.310249954	0	255	0
-18.2849998	66566.625	-0.182999998	0	255	0
-18.2849998	66566.625	0.0636249781	0	255	0
-18.3192501	66526.5	-0.182999998	0	255	0
-18.2849998	66526.5	0.0636249781	0	255	0
-18.3192501	66526.5	0.0636249781	0	255	0
-18.2507496	66646.875	0.0636249781	0	255	0
-18.2507496	66646.875	0.310249954	0	255	0
-18.2164993	66646.875	-0.182999998	0	255	0
-18.2164993	66646.875	0.0636249781	0	255	0
-18.2507496	66606.75	-0.182999998	0	255	0
-18.2164993	66606.75	0.0636249781	0	255	0
-18.2507496	66606.75	0.0636249781	0	255	0
-18.2164993	66687	0.0636249781	0	255	0
-18.2164993	66687	-0.182999998	0	255	0
-18.1480007	66687	-0.182999998	0	255	0
-18.1480007	66687	0.0636249781	0	255	0
-18.182251	66646.875	0.310249954	0	255	0
-18.2164993	66606.75	0.0636249781	0	255	0
-18.1480007	66606.75	0.0636249781	0	255	0
-18.2849998	66606.75	0.556874931	0	255	0
-18.2849998	66606.75	-0.182999998	0	255	0
-18.2164993	66606.75	0.556874931	0	255	0
-18.2507496	66566.625	0.310249954	0	255	0
-18.2849998	66526.5	0.556874931	0	255	0
-18.2164993	66526.5	-0.182999998	0	255	0
-18.2164993	66526.5	0.556874931	0	255	0
-18.2164993	66606.75	0.0636249781	0	255	0
-18.1480007	66606.75	0.0636249781	0	255	0
-18.182251	66566.625	0.310249954	0	255	0
-18.2164993	66526.5	0.0636249781	0	255	0
-18.1480007	66526.5	0.0636249781	0	255	0
-18.3535004	66526.5	1.54337502	0	255	0
-18.3535004	66526.5	1.78999996	0	255	0
-18.2849998	66526.5	1.54337502	0	255	0
-18.3192501	66486.375	1.29674995	0	255	0
-18.3535004	66446.25	1.54337502	0	255	0
-18.2849998	66446.25	1.54337502	0	255	0
-18.4220009	66406.125	1.05012488	0	255	0
-18.4220009	66406.125	0.803499937	0	255	0
-18.3877506	66406.125	1.29674995	0	255	0
-18.4220009	66366	1.05012488	0	255	0
-18.3535004	66406.125	0.803499937	0	255	0
-18.3535004	66406.125	1.05012488	0	255	0
-18.3535004	66366	1.78999996	0	255	0
-18.3535004	66366	1.05012488	0	255	0
-18.3535004	66446.25	1.54337502	0	255	0
-18.3535004	66446.25	0.803499937	0	255	0
-18.2849998	66446.25	1.54337502	0	255	0
-18.3192501	66406.125	1.29674995	0	255	0
-18.3535004	66366	1.54337502	0	255	0
-18.2849998	66366	-0.182999998	0	255	0
-18.2849998	66366	1.54337502	0	255	0
-18.2849998	66526.5	0.0636249781	0	255	0
-18.2164993	66526.5	0.0636249781	0	255	0
-18.2507496	66486.375	0.310249954	0	255	0
-18.2849998	66446.25	0.0636249781	0	255	0
-18.2164993	66446.25	0.0636249781	0	255	0
-18.2164993	66526.5	0.0636249781	0	255	0
-18.1480007	66526.5	0.0636249781	0	255	0
-18.182251	66486.375	0.310249954	0	255	0
-18.2164993	66446.25	0.0636249781	0	255	0
-18.1480007	66446.25	0.0636249781	0	255	0
-18.2849998	66446.25	0.556874931	0	255	0
-18.2849998	66446.25	-0.182999998	0	255	0
-18.2164993	66446.25	0.556874931	0	255	0
-18.2507496	66406.125	0.310249954	0	255	0
-18.2849998	66366	0.556874931	0	255	0
-18.2164993	66366	-0.182999998	0	255	0
-18.2164993	66366	0.556874931	0	255	0
-18.2164993	66446.25	0.0636249781	0	255	0
-18.1480007	66446.25	0.0636249781	0	255	0
-18.1480007	66406.125	-0.182999998	0	255	0
-18.1480007	66406.125	0.0636249781	0	255	0
-18.182251	66406.125	0.310249954	0	255	0
-18.182251	66366	-0.182999998	0	255	0
-18.182251	66366	0.0636249781	0	255	0
-18.2164993	66366	0.0636249781	0	255	0
-18.1480007	66646.875	3.76300001	0	255	0
-18.1137505	66646.875	3.26975012	0	255	0
-18.0795021	66646.875	3.76300001	0	255	0
-18.0795021	66646.875	3.51637506	0	255	0
-18.0795021	66606.75	3.51637506	0	255	0
-18.1480007	66646.875	3.26975012	0	255	0
-18.1137505	66606.75	3.26975012	0	255	0
-18.0795021	66646.875	3.51637506	0	255	0
-18.0795021	66646.875	3.76300001	0	255	0
-18.0452518	66646.875	3.26975012	0	255	0
-18.0452518	66646.875	3.51637506	0	255	0
-18.0452518	66646.875	3.26975012	0	255	0
-18.0452518	66606.75	3.76300001	0	255	0
-18.0452518	66606.75	3.51637506	0	255	0
-18.0795021	66606.75	3.51637506	0	255	0
-18.1480007	66687	3.02312517	0	255	0
-18.0795021	66687	3.02312517	0	255	0
-18.0795021	66687	2.77649999	0	255	0
-18.1480007	66646.875	3.26975012	0	255	0
-18.1137505	66646.875	2.77649999	0	255	0
-18.0795021	66646.875	3.26975012	0	255	0
-18.1480007	66606.75	2.77649999	0	255	0
-18.0795021	66687	3.76300001	0	255	0
-18.0795021	66687	3.51637506	0	255	0
-18.0110016	66687	3.51637506	0	255	0
-18.0795021	66606.75	3.51637506	0	255	0
-18.0110016	66606.75	3.51637506	0	255	0
-18.0110016	66606.75	3.76300001	0	255	0
-18.1480007	66606.75	3.02312517	0	255	0
-18.0795021	66606.75	3.02312517	0	255	0
-18.1137505	66566.625	3.26975012	0	255	0
-18.1480007	66526.5	3.02312517	0	255	0
-18.0795021	66526.5	3.76300001	0	255	0
-18.0795021	66526.5	3.02312517	0	255	0
-18.0795021	66606.75	3.51637506	0	255	0
-18.0452518	66606.75	3.76300001	0	255	0
-18.0452518	66606.75	3.51637506	0	255	0
-18.0795021	66566.625	3.76300001	0	255	0
-18.0452518	66566.625	3.26975012	0	255	0
-18.0452518	66566.625	3.51637506	0	255	0
-18.0795021	66566.625	3.51637506	0	255	0
-18.0110016	66687	3.26975012	0	255	0
-17.9767513	66687	3.26975012	0	255	0
-18.0110016	66646.875	3.26975012	0	255	0
-17.9767513	66646.875	2.77649999	0	255	0
-17.9767513	66687	2.77649999	0	255	0
-18.0110016	66606.75	3.26975012	0	255	0
-18.0110016	66646.875	2.77649999	0	255	0
-18.0795021	66687	2.77649999	0	255	0
-18.0795021	66646.875	2.77649999	0	255	0
-18.0795021	66646.875	2.28324986	0	255	0
-18.1137505	66646.875	2.28324986	0	255	0
-18.1137505	66606.75	2.77649999	0	255	0
-18.1137505	66606.75	2.28324986	0	255	0
-18.0795021	66646.875	2.28324986	0	255	0
-18.1480007	66646.875	1.78999996	0	255	0
-18.0795021	66687	1.78999996	0	255	0
-18.0795021	66646.875	1.78999996	0	255	0
-18.1137505	66646.875	1.78999996	0	255	0
-18.1137505	66606.75	2.28324986	0	255	0
-18.1137505	66606.75	2.03662491	0	255	0
-18.1480007	66606.75	2.03662491	0	255	0
-18.1480007	66526.5	2.03662491	0	255	0
-18.1137505	66526.5	1.78999996	0	255	0
-18.1137505	66526.5	2.03662491	0	255	0
-18.1480007	66486.375	1.78999996	0	255	0
-18.1137505	66486.375	2.28324986	0	255	0
-18.1137505	66486.375	2.03662491	0	255	0
-18.1480007	66486.375	2.03662491	0	255	0
-18.3192501	66566.625	1.29674995	0	255	0
-18.2849998	66566.625	1.78999996	0	255	0
-18.3192501	66526.5	1.78999996	0	255	0
-18.3535004	66526.5	1.78999996	0	255	0
-18.2849998	66566.625	1.29674995	0	255	0
-18.3192501	66526.5	1.29674995	0	255	0
-18.3192501	66566.625	0.803499997	0	255	0
-18.2849998	66566.625	1.29674995	0	255	0
-18.3192501	66526.5	1.29674995	0	255	0
-18.3535004	66526.5	1.29674995	0	255	0
-18.2849998	66566.625	0.803499997	0	255	0
-18.3192501	66526.5	0.803499997	0	255	0
-18.2507496	66646.875	1.29674995	0	255	0
-18.2164993	66646.875	1.78999996	0	255	0
-18.2507496	66606.75	1.78999996	0	255	0
-18.2164993	66646.875	1.29674995	0	255	0
-18.2507496	66606.75	1.29674995	0	255	0
-18.2164993	66687	1.78999996	0	255	0
-18.2164993	66687	1.29674995	0	255	0
-18.182251	66646.875	1.29674995	0	255	0
-18.1480007	66606.75	1.78999996	0	255	0
-18.1480007	66606.75	1.29674995	0	255	0
-18.2849998	66646.875	1.29674995	0	255	0
-18.2507496	66646.875	0.803499997	0	255	0
-18.2164993	66646.875	1.29674995	0	255	0
-18.2849998	66646.875	0.803499997	0	255	0
-18.2164993	66646.875	0.803499997	0	255	0
-18.2164993	66687	0.55687499	0	255	0
-18.2164993	66687	1.29674995	0	255	0
-18.1480007	66687	0.55687499	0	255	0
-18.2164993	66606.75	-0.182999998	0	255	0
-18.1480007	66606.75	1.29674995	0	255	0
-18.1480007	66606.75	0.55687499	0	255	0
-18.2164993	66606.75	0.55687499	0	255	0
-18.2849998	66606.75	1.050125	0	255	0
-18.2164993	66606.75	1.050125	0	255	0
-18.2507496	66566.625	1.29674995	0	255	0
-18.2849998	66526.5	1.050125	0	255	0
-18.2164993	66526.5	1.050125	0	255	0
-18.182251	66606.75	1.78999996	0	255	0
-18.2164993	66566.625	1.78999996	0	255	0
-18.182251	66566.625	1.29674995	0	255	0
-18.182251	66606.75	1.29674995	0	255	0
-18.2164993	66566.625	1.29674995	0	255	0
-18.2507496	66566.625	0.803499997	0	255	0
-18.2164993	66526.5	1.29674995	0	255	0
-18.2164993	66526.5	0.803499997	0	255	0
-18.2164993	66606.75	1.050125	0	255	0
-18.182251	66606.75	1.29674995	0	255	0
-18.182251	66606.75	1.050125	0	255	0
-18.2164993	66566.625	1.29674995	0	255	0
-18.182251	66566.625	0.803499997	0	255	0
-18.182251	66566.625	1.050125	0	255	0
-18.2164993	66566.625	1.050125	0	255	0
-18.3192501	66606.75	0.803499997	0	255	0
-18.2849998	66606.75	0.803499997	0	255	0
-18.3192501	66606.75	0.310249984	0	255	0
-18.3192501	66526.5	0.803499997	0	255	0
-18.3535004	66566.625	0.310249984	0	255	0
-18.3535004	66566.625	0.55687499	0	255	0
-18.3535004	66526.5	0.55687499	0	255	0
-18.3535004	66526.5	0.310249984	0	255	0
-18.3192501	66606.75	0.063624993	0	255	0
-18.3192501	66606.75	0.310249984	0	255	0
-18.2849998	66606.75	0.063624993	0	255	0
-18.3535004	66566.625	0.063624993	0	255	0
-18.3535004	66566.625	0.310249984	0	255	0
-18.3192501	66566.625	-0.182999998	0	255	0
-18.3535004	66526.5	0.063624993	0	255	0
-18.2849998	66526.5	0.063624993	0	255	0
-18.2849998	66687	1.78999996	0	255	0
-18.2849998	66687	1.050125	0	255	0
-18.1480007	66687	1.050125	0	255	0
-18.4220009	66366	3.76300001	0	255	0
-18.1480007	66606.75	1.050125	0	255	0
-18.1480007	66606.75	0.803499997	0	255	0
-18.2849998	66526.5	1.050125	0	255	0
-18.2164993	66526.5	1.050125	0	255	0
-18.2164993	66526.5	0.803499997	0	255	0
-18.3535004	66526.5	0.0636250079	0	255	0
-18.3535004	66526.5	-0.182999998	0	255	0
-18.2849998	66526.5	0.0636250079	0	255	0
-18.3192501	66486.375	0.310250014	0	255	0
-18.3535004	66446.25	0.0636250079	0	255	0
-18.2849998	66446.25	0.0636250079	0	255	0
-18.3877506	66446.25	0.55687499	0	255	0
-18.3877506	66446.25	0.803499997	0	255	0
-18.3535004	66446.25	0.55687499	0	255	0
-18.4220009	66406.125	0.55687499	0	255	0
-18.4220009	66406.125	0.803499997	0	255	0
-18.3877506	66406.125	0.310250014	0	255	0
-18.4220009	66366	0.55687499	0	255	0
-18.3535004	66366	-0.182999998	0	255	0
-18.3535004	66366	0.55687499	0	255	0
-18.3535004	66446.25	0.0636250079	0	255	0
-18.2849998	66446.25	0.0636250079	0	255	0
-18.3192501	66406.125	0.310250014	0	255	0
-18.3535004	66366	0.0636250079	0	255	0
-18.2849998	66366	1.78999996	0	255	0
-18.2849998	66366	0.0636250079	0	255	0
-18.2164993	66526.5	1.78999996	0	255	0
-18.2164993	66526.5	1.54337502	0	255	0
-18.2164993	66486.375	1.78999996	0	255	0
-18.2164993	66486.375	1.54337502	0	255	0
-18.2507496	66526.5	1.29674995	0	255	0
-18.2507496	66486.375	1.29674995	0	255	0
-18.2507496	66446.25	1.78999996	0	255	0
-18.2507496	66446.25	1.29674995	0	255	0
-18.2507496	66526.5	1.29674995	0	255	0
-18.2507496	66526.5	0.803499997	0	255	0
-18.2849998	66486.375	0.803499997	0	255	0
-18.2507496	66486.375	0.803499997	0	255	0
-18.2507496	66446.25	1.29674995	0	255	0
-18.2507496	66446.25	1.050125	0	255	0
-18.2849998	66446.25	1.050125	0	255	0
-18.2849998	66446.25	1.050125	0	255	0
-18.2507496	66446.25	0.803499997	0	255	0
-18.2507496	66446.25	1.050125	0	255	0
-18.2849998	66406.125	0.803499997	0	255	0
-18.2507496	66406.125	1.29674995	0	255	0
-18.2507496	66406.125	1.050125	0	255	0
-18.2849998	66406.125	1.050125	0	255	0
-18.3535004	66526.5	0.803499997	0	255	0
-18.3535004	66486.375	0.803499997	0	255	0
-18.2849998	66486.375	0.803499997	0	255	0
-18.3535004	66526.5	0.310249984	0	255	0
-18.3535004	66486.375	0.310249984	0	255	0
-18.2849998	66526.5	0.310249984	0	255	0
-18.2849998	66486.375	0.310249984	0	255	0
-18.3535004	66526.5	0.803499997	0	255	0
-18.3535004	66526.5	0.55687499	0	255	0
-18.2849998	66526.5	0.55687499	0	255	0
-18.4220009	66366	1.78999996	0	255	0
-18.3535004	66446.25	0.55687499	0	255	0
-18.2849998	66446.25	0.55687499	0	255	0
-18.2849998	66446.25	0.803499997	0	255	0
-18.4220009	66446.25	0.063624993	0	255	0
-18.4220009	66446.25	0.803499997	0	255	0
-18.3535004	66446.25	0.063624993	0	255	0
-18.3877506	66406.125	0.310249984	0	255	0
-18.4220009	66366	0.063624993	0	255	0
-18.3535004	66366	0.063624993	0	255	0
-18.2849998	66446.25	0.803499997	0	255	0
-18.2849998	66406.125	0.803499997	0	255	0
-18.2849998	66446.25	0.310249984	0	255	0
-18.2849998	66406.125	0.310249984	0	255	0
-18.3192501	66406.125	0.310249984	0	255	0
-18.3192501	66366	0.803499997	0	255	0
-18.3192501	66366	0.310249984	0	255	0
-18.3877506	66446.25	0.063624993	0	255	0
-18.3877506	66446.25	0.310249984	0	255	0
-18.3535004	66446.25	0.063624993	0	255	0
-18.3877506	66366	0.310249984	0	255	0
-18.3535004	66366	0.063624993	0	255	0
-18.3877506	66366	0.063624993	0	255	0
-18.3535004	66446.25	0.063624993	0	255	0
-18.3192501	66446.25	0.310249984	0	255	0
-18.3192501	66446.25	0.063624993	0	255	0
-18.3192501	66406.125	-0.182999998	0	255	0
-18.3192501	66366	0.310249984	0	255	0
-18.3192501	66366	0.063624993	0	255	0
-18.3535004	66366	0.063624993	0	255	0
-18.2507496	66526.5	0.803499997	0	255	0
-18.2849998	66486.375	0.803499997	0	255	0
-18.2507496	66486.375	0.310249984	0	255	0
-18.2849998	66526.5	0.310249984	0	255	0
-18.2507496	66526.5	0.310249984	0	255	0
-18.2849998	66446.25	0.803499997	0	255	0
-18.2849998	66486.375	0.310249984	0	255	0
-18.1480007	66646.875	1.78999996	0	255	0
-18.0795021	66687	1.78999996	0	255	0
-18.0795021	66687	1.54337502	0	255	0
-18.0795021	66646.875	1.78999996	0	255	0
-18.0795021	66646.875	1.54337502	0	255	0
-18.1480007	66687	1.29674995	0	255	0
-18.1137505	66687	1.29674995	0	255	0
-18.1480007	66606.75	1.78999996	0	255	0
-18.1480007	66646.875	1.29674995	0	255	0
