7.31274986	6.75162506	3.72100019	0	255	0
7.3276248	6.75176239	3.46700001	0	255	0
7.34249973	6.75176239	3.46700001	0	255	0
7.34249973	6.75176239	3.21300006	0	255	0
7.3276248	6.75162506	3.46700001	0	255	0
7.34249973	6.75162506	3.46700001	0	255	0
7.34249973	6.75162506	4.22900009	0	255	0
7.3276248	6.75162506	3.21300006	0	255	0
7.3276248	6.75141907	2.45099998	0	255	0
7.3276248	6.75141907	2.70499992	0	255	0
7.33506203	6.75141907	2.19700003	0	255	0
7.33506203	6.75141907	2.45099998	0	255	0
7.33506203	6.75141907	2.19700003	0	255	0
7.33506203	6.7513504	2.70499992	0	255	0
7.33506203	6.7513504	2.45099998	0	255	0
7.3276248	6.7513504	2.45099998	0	255	0
7.35737467	6.75176239	3.21300006	0	255	0
7.35737467	6.75169373	4.22900009	0	255	0
7.3722496	6.75176239	4.22900009	0	255	0
7.3722496	6.75169373	4.22900009	0	255	0
7.35737467	6.75169373	3.72100019	0	255	0
7.3722496	6.75169373	3.72100019	0	255	0
7.34993744	6.75176239	3.72100019	0	255	0
7.34993744	6.75169373	3.21300006	0	255	0
7.35737467	6.75169373	3.72100019	0	255	0
7.34993744	6.75176239	3.21300006	0	255	0
7.35737467	6.75169373	3.21300006	0	255	0
7.34249973	6.75162506	3.72100019	0	255	0
7.35737467	6.75169373	3.72100019	0	255	0
7.3722496	6.75169373	3.72100019	0	255	0
7.35737467	6.75169373	3.21300006	0	255	0
7.3722496	6.75176239	3.21300006	0	255	0
7.3722496	6.75169373	3.21300006	0	255	0
7.3722496	6.75176239	3.46700001	0	255	0
7.3722496	6.75176239	4.22900009	0	255	0
7.3722496	6.75169373	3.21300006	0	255	0
7.3722496	6.75169373	3.46700001	0	255	0
7.38712502	6.75176239	3.21300006	0	255	0
7.38712502	6.75176239	3.46700001	0	255	0
7.38712502	6.75169373	3.21300006	0	255	0
7.38712502	6.75169373	3.46700001	0	255	0
7.3722496	6.75176239	3.21300006	0	255	0
7.3722496	6.75176239	3.46700001	0	255	0
7.37968731	6.75176239	3.46700001	0	255	0
7.37968731	6.75176239	3.21300006	0	255	0
7.3722496	6.75169373	3.46700001	0	255	0
7.37968731	6.75169373	3.46700001	0	255	0
7.3722496	6.75162506	3.72100019	0	255	0
7.3722496	6.75169373	3.21300006	0	255	0
7.34249973	6.75176239	2.45099998	0	255	0
7.34249973	6.75176239	3.21300006	0	255	0
7.34249973	6.75169373	2.19700003	0	255	0
7.34249973	6.75169373	2.45099998	0	255	0
7.35737467	6.75176239	2.45099998	0	255	0
7.35737467	6.75169373	2.19700003	0	255	0
7.35737467	6.75169373	2.45099998	0	255	0
7.3648119	6.75176239	3.21300006	0	255	0
7.35737467	6.75169373	3.21300006	0	255	0
7.3648119	6.75169373	2.70499992	0	255	0
7.3648119	6.75176239	2.70499992	0	255	0
7.35737467	6.75162506	3.21300006	0	255	0
7.35737467	6.75169373	2.70499992	0	255	0
7.34249973	6.75176239	2.70499992	0	255	0
7.34249973	6.75169373	2.70499992	0	255	0
7.35737467	6.75169373	2.70499992	0	255	0
7.34249973	6.75176239	2.19700003	0	255	0
7.34249973	6.75169373	2.19700003	0	255	0
7.34249973	6.75162506	3.21300006	0	255	0
7.35737467	6.75169373	2.19700003	0	255	0
7.35737467	6.75162506	2.45099998	0	255	0
7.35737467	6.75162506	2.19700003	0	255	0
7.35737467	6.7515564	2.19700003	0	255	0
7.35737467	6.7515564	2.45099998	0	255	0
7.3722496	6.75162506	2.45099998	0	255	0
7.3648119	6.75148773	2.19700003	0	255	0
7.3722496	6.75148773	2.19700003	0	255	0
7.3722496	6.75148773	2.45099998	0	255	0
7.3648119	6.75148773	2.45099998	0	255	0
7.3648119	6.75141907	2.45099998	0	255	0
7.3648119	6.75141907	2.70499992	0	255	0
7.3722496	6.75141907	2.19700003	0	255	0
7.3722496	6.75141907	2.45099998	0	255	0
7.3648119	6.7513504	2.19700003	0	255	0
7.3722496	6.7513504	4.22900009	0	255	0
7.3722496	6.7513504	2.45099998	0	255	0
7.3648119	6.7513504	2.45099998	0	255	0
7.3722496	6.7515564	4.22900009	0	255	0
7.38712502	6.75162506	4.22900009	0	255	0
7.38712502	6.75162506	3.97500014	0	255	0
7.38712502	6.7515564	4.22900009	0	255	0
7.3722496	6.75162506	3.72100019	0	255	0
7.37968731	6.75162506	3.72100019	0	255	0
7.3722496	6.75148773	3.97500014	0	255	0
7.38712502	6.7515564	3.72100019	0	255	0
7.38712502	6.75148773	3.97500014	0	255	0
7.38712502	6.75148773	3.72100019	0	255	0
7.3722496	6.7515564	3.72100019	0	255	0
7.37968731	6.7515564	3.21300006	0	255	0
7.37968731	6.7515564	3.21300006	0	255	0
7.37968731	6.75148773	3.72100019	0	255	0
7.3722496	6.7515564	3.21300006	0	255	0
7.37968731	6.75148773	3.21300006	0	255	0
7.3722496	6.75148773	3.21300006	0	255	0
7.3722496	6.75141907	3.46700001	0	255	0
7.3722496	6.75141907	3.21300006	0	255	0
7.37968731	6.75141907	3.72100019	0	255	0
7.3722496	6.7513504	3.46700001	0	255	0
7.38712502	6.75141907	3.21300006	0	255	0
7.38712502	6.75141907	3.46700001	0	255	0
7.38712502	6.7513504	4.22900009	0	255	0
7.38712502	6.7513504	3.46700001	0	255	0
7.3722496	6.75141907	3.21300006	0	255	0
7.3722496	6.75141907	3.46700001	0	255	0
7.37968731	6.75141907	3.46700001	0	255	0
7.3722496	6.7513504	3.72100019	0	255	0
7.3722496	6.7513504	3.46700001	0	255	0
7.37968731	6.7513504	3.46700001	0	255	0
7.37968731	6.7513504	3.21300006	0	255	0
7.3722496	6.7513504	3.21300006	0	255	0
7.35737467	6.75162506	2.95900011	0	255	0
7.35737467	6.75162506	3.21300006	0	255	0
7.35737467	6.7515564	3.21300006	0	255	0
7.35737467	6.7515564	2.95900011	0	255	0
7.3722496	6.75162506	2.95900011	0	255	0
7.3722496	6.7515564	3.21300006	0	255	0
7.3722496	6.7515564	2.95900011	0	255	0
7.34993744	6.75162506	2.19700003	0	255	0
7.34993744	6.75162506	2.45099998	0	255	0
7.35737467	6.75162506	2.45099998	0	255	0
7.35737467	6.75162506	2.19700003	0	255	0
7.35737467	6.7515564	2.19700003	0	255	0
7.34249973	6.75148773	2.70499992	0	255	0
7.34993744	6.7515564	2.19700003	0	255	0
7.35737467	6.7515564	2.70499992	0	255	0
7.34993744	6.75148773	2.70499992	0	255	0
7.35737467	6.75148773	2.45099998	0	255	0
7.34993744	6.75148773	2.45099998	0	255	0
7.35737467	6.75162506	3.21300006	0	255	0
7.35737467	6.75162506	2.95900011	0	255	0
7.3722496	6.75162506	2.95900011	0	255	0
7.34249973	6.7513504	0.165000007	0	255	0
7.35737467	6.75148773	2.95900011	0	255	0
7.3722496	6.75148773	2.95900011	0	255	0
7.3722496	6.75148773	3.21300006	0	255	0
7.34249973	6.75141907	2.45099998	0	255	0
7.34249973	6.75141907	2.70499992	0	255	0
7.34993744	6.75141907	2.19700003	0	255	0
7.34249973	6.7513504	2.45099998	0	255	0
7.35737467	6.75141907	2.70499992	0	255	0
7.35737467	6.75141907	2.45099998	0	255	0
7.35737467	6.7513504	2.70499992	0	255	0
7.35737467	6.7513504	2.45099998	0	255	0
7.35737467	6.75141907	2.45099998	0	255	0
7.35737467	6.75141907	2.70499992	0	255	0
7.3648119	6.75141907	2.19700003	0	255	0
7.3648119	6.75141907	2.45099998	0	255	0
7.3648119	6.75141907	2.19700003	0	255	0
7.3648119	6.7513504	2.70499992	0	255	0
7.3648119	6.7513504	2.45099998	0	255	0
7.35737467	6.7513504	2.45099998	0	255	0
7.3722496	6.75162506	2.95900011	0	255	0
7.3722496	6.7515564	3.21300006	0	255	0
7.3722496	6.7515564	2.95900011	0	255	0
7.38712502	6.75162506	3.21300006	0	255	0
7.38712502	6.75162506	2.95900011	0	255	0
7.38712502	6.7515564	3.21300006	0	255	0
7.38712502	6.7515564	2.95900011	0	255	0
7.3276248	6.75176239	1.18099999	0	255	0
7.3276248	6.75169373	2.19700003	0	255	0
7.34249973	6.75176239	2.19700003	0	255	0
7.34249973	6.75169373	2.19700003	0	255	0
7.3276248	6.75169373	1.68900001	0	255	0
7.34249973	6.75169373	1.68900001	0	255	0
7.31274986	6.75176239	1.18099999	0	255	0
7.31274986	6.75176239	1.43499994	0	255	0
7.31274986	6.75169373	1.43499994	0	255	0
7.31274986	6.75169373	1.18099999	0	255	0
7.3276248	6.75176239	1.43499994	0	255	0
7.3276248	6.75169373	1.43499994	0	255	0
7.3276248	6.75169373	1.18099999	0	255	0
7.3276248	6.75169373	1.68900001	0	255	0
7.34249973	6.75169373	1.68900001	0	255	0
7.3276248	6.75169373	1.18099999	0	255	0
7.34249973	6.75176239	1.18099999	0	255	0
7.34249973	6.75169373	1.18099999	0	255	0
7.30531216	6.75176239	0.672999978	0	255	0
7.30531216	6.75176239	0.926999986	0	255	0
7.31274986	6.75176239	0.926999986	0	255	0
7.30531216	6.75169373	0.926999986	0	255	0
7.31274986	6.75169373	0.926999986	0	255	0
7.31274986	6.75169373	0.672999978	0	255	0
7.29787493	6.75162506	1.18099999	0	255	0
7.28299999	6.75176239	0.165000007	0	255	0
7.28299999	6.75176239	0.419	0	255	0
7.28299999	6.75169373	0.419	0	255	0
7.28299999	6.75169373	0.165000007	0	255	0
7.29787493	6.75176239	0.419	0	255	0
7.29787493	6.75169373	0.419	0	255	0
7.29787493	6.75169373	0.165000007	0	255	0
7.29787493	6.75176239	0.672999978	0	255	0
7.29787493	6.75169373	0.672999978	0	255	0
7.31274986	6.75169373	0.672999978	0	255	0
7.29787493	6.75169373	0.165000007	0	255	0
7.31274986	6.75176239	0.165000007	0	255	0
7.31274986	6.75169373	0.165000007	0	255	0
7.31274986	6.7519002	2.19700003	0	255	0
7.31274986	6.7519002	1.43499994	0	255	0
7.34249973	6.7519002	1.43499994	0	255	0
7.34249973	6.7519002	0.165000007	0	255	0
7.31274986	6.75162506	1.43499994	0	255	0
7.31274986	6.75162506	1.18099999	0	255	0
7.34249973	6.75162506	1.43499994	0	255	0
7.34249973	6.75162506	2.19700003	0	255	0
7.33506203	6.75141907	1.94300008	0	255	0
7.33506203	6.75141907	1.68900001	0	255	0
7.34249973	6.75141907	2.19700003	0	255	0
7.34249973	6.75141907	1.94300008	0	255	0
7.33506203	6.7513504	2.19700003	0	255	0
7.34249973	6.7513504	1.94300008	0	255	0
7.33506203	6.7513504	1.94300008	0	255	0
7.3276248	6.75141907	1.18099999	0	255	0
7.3276248	6.75141907	1.43499994	0	255	0
7.3276248	6.7513504	1.43499994	0	255	0
7.3276248	6.7513504	1.18099999	0	255	0
7.34249973	6.75141907	1.43499994	0	255	0
7.34249973	6.75141907	1.18099999	0	255	0
7.34249973	6.7513504	1.43499994	0	255	0
7.34249973	6.7513504	1.18099999	0	255	0
7.29787493	6.75162506	1.18099999	0	255	0
7.29787493	6.75162506	0.926999986	0	255	0
7.31274986	6.75162506	0.926999986	0	255	0
7.29787493	6.75148773	0.926999986	0	255	0
7.31274986	6.75148773	0.926999986	0	255	0
7.31274986	6.75148773	1.18099999	0	255	0
7.29787493	6.75148773	0.672999978	0	255	0
7.30531216	6.75141907	0.419	0	255	0
7.30531216	6.75141907	0.165000007	0	255	0
7.31274986	6.75141907	0.672999978	0	255	0
7.31274986	6.75141907	0.419	0	255	0
7.30531216	6.7513504	0.672999978	0	255	0
7.31274986	6.7513504	0.672999978	0	255	0
7.31274986	6.7513504	0.419	0	255	0
7.30531216	6.7513504	0.419	0	255	0
7.32018757	6.75162506	0.672999978	0	255	0
7.32018757	6.75162506	0.926999986	0	255	0
7.3276248	6.75162506	0.926999986	0	255	0
7.32018757	6.7515564	0.926999986	0	255	0
7.3276248	6.7515564	0.926999986	0	255	0
7.3276248	6.7515564	0.672999978	0	255	0
7.31274986	6.75148773	1.18099999	0	255	0
7.3276248	6.75162506	1.18099999	0	255	0
7.34249973	6.75162506	1.18099999	0	255	0
7.3276248	6.7515564	0.672999978	0	255	0
7.34249973	6.75162506	0.672999978	0	255	0
7.34249973	6.7515564	0.672999978	0	255	0
7.33506203	6.7515564	0.672999978	0	255	0
7.3276248	6.75148773	0.926999986	0	255	0
7.34249973	6.75148773	1.18099999	0	255	0
7.34249973	6.75148773	0.926999986	0	255	0
7.31274986	6.75162506	0.672999978	0	255	0
7.32018757	6.75162506	0.672999978	0	255	0
7.31274986	6.7515564	0.165000007	0	255	0
7.3276248	6.75162506	0.419	0	255	0
7.3276248	6.75162506	0.165000007	0	255	0
7.3276248	6.7515564	0.165000007	0	255	0
7.32018757	6.7515564	0.165000007	0	255	0
7.31274986	6.75148773	0.419	0	255	0
7.3276248	6.7515564	0.672999978	0	255	0
7.3276248	6.75148773	0.419	0	255	0
7.3276248	6.75162506	1.18099999	0	255	0
7.3276248	6.75162506	0.926999986	0	255	0
7.34249973	6.75162506	0.926999986	0	255	0
7.34249973	6.75162506	0.165000007	0	255	0
7.3276248	6.75148773	0.926999986	0	255	0
7.34249973	6.75148773	0.926999986	0	255	0
7.34249973	6.75148773	1.18099999	0	255	0
7.3276248	6.75141907	0.926999986	0	255	0
7.3276248	6.75141907	1.18099999	0	255	0
7.33506203	6.75141907	0.672999978	0	255	0
7.33506203	6.75141907	0.926999986	0	255	0
7.33506203	6.75141907	0.672999978	0	255	0
7.33506203	6.7513504	1.18099999	0	255	0
7.33506203	6.7513504	0.926999986	0	255	0
7.3276248	6.7513504	0.926999986	0	255	0
7.31274986	6.75141907	0.419	0	255	0
7.31274986	6.75141907	0.672999978	0	255	0
7.32018757	6.75141907	0.165000007	0	255	0
7.32018757	6.75141907	0.419	0	255	0
7.32018757	6.75141907	0.165000007	0	255	0
7.32018757	6.7513504	0.672999978	0	255	0
7.32018757	6.7513504	0.419	0	255	0
7.31274986	6.7513504	0.419	0	255	0
7.3276248	6.75141907	0.419	0	255	0
7.3276248	6.75141907	0.672999978	0	255	0
7.33506203	6.75141907	0.165000007	0	255	0
7.33506203	6.75141907	0.419	0	255	0
7.33506203	6.75141907	0.165000007	0	255	0
7.33506203	6.7513504	0.672999978	0	255	0
7.33506203	6.7513504	0.419	0	255	0
7.3276248	6.7513504	0.419	0	255	0
7.34249973	6.75176239	2.19700003	0	255	0
7.34249973	6.75176239	2.45099998	0	255	0
7.35737467	6.75176239	2.45099998	0	255	0
7.34249973	6.75162506	2.70499992	0	255	0
7.34249973	6.75162506	2.45099998	0	255	0
7.35737467	6.75162506	2.45099998	0	255	0
7.35737467	6.75162506	2.19700003	0	255	0
7.34249973	6.75162506	2.45099998	0	255	0
7.35737467	6.75162506	2.45099998	0	255	0
7.35737467	6.75162506	2.19700003	0	255	0
7.34249973	6.7513504	2.45099998	0	255	0
7.35737467	6.7513504	2.45099998	0	255	0
7.35737467	6.7513504	2.19700003	0	255	0
7.3276248	6.75114441	0.41900003	0	255	0
7.3276248	6.75114441	0.165000007	0	255	0
7.33506203	6.75114441	0.673000038	0	255	0
7.3276248	6.75107527	0.41900003	0	255	0
7.34249973	6.75114441	0.165000007	0	255	0
7.34249973	6.75114441	0.41900003	0	255	0
7.34249973	6.75107527	0.165000007	0	255	0
7.34249973	6.75107527	0.41900003	0	255	0
7.3276248	6.75100613	0.41900003	0	255	0
7.3276248	6.75100613	0.165000007	0	255	0
7.33506203	6.75100613	0.673000038	0	255	0
7.3276248	6.75093746	0.41900003	0	255	0
7.34249973	6.75100613	0.165000007	0	255	0
7.34249973	6.75100613	0.41900003	0	255	0
7.34249973	6.75093746	0.165000007	0	255	0
7.34249973	6.75093746	0.41900003	0	255	0
7.34993744	6.7513504	3.97500014	0	255	0
7.34993744	6.7513504	4.22900009	0	255	0
7.35737467	6.7513504	4.22900009	0	255	0
7.35737467	6.7513504	3.97500014	0	255	0
7.34993744	6.75128174	3.72100019	0	255	0
7.35737467	6.75128174	4.22900009	0	255	0
7.35737467	6.75128174	3.97500014	0	255	0
7.34993744	6.75128174	3.97500014	0	255	0
7.3648119	6.7513504	3.97500014	0	255	0
7.3648119	6.7513504	4.22900009	0	255	0
7.3722496	6.7513504	3.97500014	0	255	0
7.3648119	6.75128174	3.72100019	0	255	0
7.3722496	6.75128174	4.22900009	0	255	0
7.3722496	6.75128174	3.97500014	0	255	0
7.3648119	6.75128174	3.97500014	0	255	0
7.35737467	6.7513504	4.22900009	0	255	0
7.35737467	6.7513504	3.97500014	0	255	0
7.3722496	6.7513504	3.97500014	0	255	0
7.35737467	6.75121307	3.97500014	0	255	0
7.3722496	6.75121307	3.97500014	0	255	0
7.3722496	6.75121307	4.22900009	0	255	0
7.35737467	6.75121307	3.72100019	0	255	0
7.34249973	6.75114441	3.46700001	0	255	0
7.34249973	6.75114441	3.21300006	0	255	0
7.34993744	6.75114441	3.72100019	0	255	0
7.34249973	6.75107527	3.46700001	0	255	0
7.35737467	6.75114441	3.21300006	0	255	0
7.35737467	6.75114441	3.46700001	0	255	0
7.35737467	6.75107527	3.46700001	0	255	0
7.3648119	6.75121307	3.97500014	0	255	0
7.3648119	6.75121307	4.22900009	0	255	0
7.3722496	6.75121307	4.22900009	0	255	0
7.3722496	6.75121307	3.97500014	0	255	0
7.35737467	6.75114441	4.22900009	0	255	0
7.3648119	6.75114441	3.72100019	0	255	0
7.3722496	6.75107527	2.19700003	0	255	0
7.3722496	6.75107527	3.97500014	0	255	0
7.35737467	6.75114441	3.72100019	0	255	0
7.3648119	6.75107527	3.72100019	0	255	0
7.34249973	6.75114441	3.72100019	0	255	0
7.34993744	6.75114441	3.21300006	0	255	0
7.35737467	6.75114441	3.72100019	0	255	0
7.34249973	6.75114441	3.21300006	0	255	0
7.34249973	6.75107527	3.21300006	0	255	0
7.35737467	6.75114441	3.21300006	0	255	0
7.35737467	6.75107527	3.21300006	0	255	0
7.35737467	6.75114441	3.46700001	0	255	0
7.35737467	6.75114441	3.72100019	0	255	0
7.3648119	6.75114441	3.21300006	0	255	0
7.3648119	6.75114441	3.46700001	0	255	0
7.3648119	6.75114441	3.21300006	0	255	0
7.3648119	6.75107527	3.72100019	0	255	0
7.3648119	6.75107527	3.46700001	0	255	0
7.35737467	6.75107527	3.46700001	0	255	0
7.3722496	6.7513504	3.97500014	0	255	0
7.3722496	6.75128174	4.22900009	0	255	0
7.3722496	6.75128174	3.97500014	0	255	0
7.38712502	6.7513504	4.22900009	0	255	0
7.38712502	6.7513504	3.97500014	0	255	0
7.38712502	6.75128174	4.22900009	0	255	0
7.38712502	6.75128174	3.97500014	0	255	0
7.37968731	6.75121307	3.46700001	0	255	0
7.37968731	6.75121307	3.21300006	0	255	0
7.38712502	6.75121307	3.21300006	0	255	0
7.38712502	6.75121307	3.46700001	0	255	0
7.37968731	6.75114441	3.72100019	0	255	0
7.38712502	6.75114441	3.21300006	0	255	0
7.38712502	6.75114441	3.46700001	0	255	0
7.37968731	6.75114441	3.46700001	0	255	0
7.34993744	6.7513504	2.70499992	0	255	0
7.34993744	6.7513504	2.95900011	0	255	0
7.35737467	6.7513504	2.95900011	0	255	0
7.34993744	6.75128174	2.95900011	0	255	0
7.35737467	6.75128174	2.95900011	0	255	0
7.35737467	6.75128174	2.70499992	0	255	0
7.35737467	6.7513504	3.21300006	0	255	0
7.35737467	6.75128174	3.21300006	0	255	0
7.3722496	6.7513504	2.95900011	0	255	0
7.3722496	6.75128174	3.21300006	0	255	0
7.3722496	6.75128174	2.95900011	0	255	0
7.3648119	6.7513504	2.70499992	0	255	0
7.35737467	6.75128174	2.70499992	0	255	0
7.34249973	6.7513504	2.45099998	0	255	0
7.34249973	6.7513504	2.70499992	0	255	0
7.34249973	6.75128174	2.70499992	0	255	0
7.34249973	6.75128174	2.45099998	0	255	0
7.35737467	6.7513504	2.45099998	0	255	0
7.35737467	6.75128174	2.70499992	0	255	0
7.35737467	6.75128174	2.45099998	0	255	0
7.35737467	6.7513504	3.21300006	0	255	0
7.35737467	6.7513504	2.95900011	0	255	0
7.3722496	6.7513504	2.95900011	0	255	0
7.3722496	6.7513504	2.19700003	0	255	0
7.35737467	6.75121307	2.95900011	0	255	0
7.3722496	6.75121307	2.95900011	0	255	0
7.3722496	6.75121307	3.21300006	0	255	0
7.34249973	6.75121307	2.45099998	0	255	0
7.35737467	6.75121307	2.45099998	0	255	0
7.34993744	6.75114441	2.70499992	0	255	0
7.34249973	6.75107527	2.45099998	0	255	0
7.35737467	6.75107527	2.45099998	0	255	0
7.35737467	6.75114441	3.21300006	0	255	0
7.3722496	6.75121307	3.21300006	0	255	0
7.3722496	6.75121307	2.95900011	0	255	0
7.3722496	6.75114441	3.21300006	0	255	0
7.3722496	6.75114441	2.95900011	0	255	0
7.3648119	6.75121307	2.70499992	0	255	0
7.35737467	6.75114441	2.70499992	0	255	0
7.34249973	6.75114441	2.45099998	0	255	0
7.34249973	6.75114441	2.70499992	0	255	0
7.34993744	6.75114441	2.19700003	0	255	0
7.34993744	6.75114441	2.45099998	0	255	0
7.34993744	6.75114441	2.19700003	0	255	0
7.34993744	6.75107527	2.70499992	0	255	0
7.34993744	6.75107527	2.45099998	0	255	0
7.34249973	6.75107527	2.45099998	0	255	0
7.34249973	6.75100613	2.45099998	0	255	0
7.34249973	6.75100613	2.19700003	0	255	0
7.34993744	6.75100613	2.70499992	0	255	0
7.34249973	6.75093746	2.45099998	0	255	0
7.35737467	6.75100613	2.19700003	0	255	0
7.35737467	6.75100613	2.45099998	0	255	0
7.35737467	6.75093746	3.21300006	0	255	0
7.35737467	6.75093746	2.45099998	0	255	0
7.35737467	6.75100613	2.45099998	0	255	0
7.35737467	6.75100613	2.19700003	0	255	0
7.3648119	6.75100613	2.70499992	0	255	0
7.35737467	6.75093746	2.45099998	0	255	0
7.3722496	6.75100613	2.19700003	0	255	0
7.3722496	6.75100613	2.45099998	0	255	0
7.3722496	6.75093746	2.19700003	0	255	0
7.3722496	6.75093746	2.45099998	0	255	0
7.38712502	6.75093746	3.21300006	0	255	0
7.39456272	6.75100613	3.97500014	0	255	0
7.40199995	6.75100613	3.97500014	0	255	0
7.40199995	6.75100613	3.72100019	0	255	0
7.39456272	6.75093746	3.97500014	0	255	0
7.40199995	6.75093746	3.97500014	0	255	0
7.40199995	6.75093746	3.72100019	0	255	0
7.39456272	6.75093746	3.72100019	0	255	0
7.3722496	6.75100613	3.46700001	0	255	0
7.3722496	6.75100613	3.72100019	0	255	0
7.37968731	6.75100613	3.21300006	0	255	0
7.3722496	6.75093746	3.46700001	0	255	0
7.38712502	6.75100613	3.72100019	0	255	0
7.38712502	6.75100613	3.46700001	0	255	0
7.38712502	6.75093746	3.46700001	0	255	0
7.38712502	6.75107527	4.22900009	0	255	0
7.38712502	6.75107527	3.97500014	0	255	0
7.40199995	6.75107527	3.97500014	0	255	0
7.40199995	6.75107527	3.21300006	0	255	0
7.38712502	6.75093746	3.97500014	0	255	0
7.40199995	6.75093746	3.97500014	0	255	0
7.40199995	6.75093746	4.22900009	0	255	0
7.34249973	6.75100613	3.21300006	0	255	0
7.34993744	6.75100613	2.70499992	0	255	0
7.35737467	6.75100613	3.21300006	0	255	0
7.35737467	6.75100613	2.95900011	0	255	0
7.35737467	6.75093746	2.95900011	0	255	0
7.34249973	6.75100613	2.70499992	0	255	0
7.34249973	6.75093746	3.21300006	0	255	0
7.34993744	6.75093746	2.70499992	0	255	0
7.35737467	6.75100613	2.70499992	0	255	0
7.35737467	6.75100613	2.95900011	0	255	0
7.3648119	6.75100613	2.95900011	0	255	0
7.35737467	6.75093746	2.95900011	0	255	0
7.3648119	6.75093746	2.95900011	0	255	0
7.3648119	6.75093746	2.70499992	0	255	0
7.34249973	6.75100613	2.70499992	0	255	0
7.34993744	6.75100613	2.19700003	0	255	0
7.35737467	6.75100613	2.70499992	0	255	0
7.35737467	6.75100613	2.45099998	0	255	0
7.35737467	6.75093746	2.45099998	0	255	0
7.34249973	6.75100613	2.19700003	0	255	0
7.34993744	6.75093746	2.19700003	0	255	0
7.34249973	6.75093746	2.19700003	0	255	0
7.29787493	6.75107527	1.68900001	0	255	0
7.30531216	6.75114441	1.43499994	0	255	0
7.31274986	6.75114441	1.43499994	0	255	0
7.31274986	6.75114441	1.18099999	0	255	0
7.30531216	6.75107527	1.43499994	0	255	0
7.31274986	6.75107527	1.43499994	0	255	0
7.30531216	6.75107527	1.18099999	0	255	0
7.33506203	6.7513504	1.68900001	0	255	0
7.33506203	6.7513504	1.94300008	0	255	0
7.34249973	6.7513504	1.94300008	0	255	0
7.33506203	6.75128174	1.94300008	0	255	0
7.34249973	6.75128174	1.94300008	0	255	0
7.34249973	6.75128174	1.68900001	0	255	0
7.3276248	6.75121307	1.18099999	0	255	0
7.3276248	6.7513504	0.926999986	0	255	0
7.3276248	6.7513504	1.68900001	0	255	0
7.34249973	6.7513504	0.926999986	0	255	0
7.3276248	6.75121307	0.165000007	0	255	0
7.34249973	6.75121307	1.68900001	0	255	0
7.34249973	6.75121307	0.926999986	0	255	0
7.3276248	6.75121307	0.926999986	0	255	0
7.32018757	6.75114441	1.43499994	0	255	0
7.32018757	6.75114441	1.68900001	0	255	0
7.3276248	6.75114441	1.18099999	0	255	0
7.3276248	6.75114441	1.43499994	0	255	0
7.32018757	6.75107527	1.18099999	0	255	0
7.3276248	6.75107527	1.43499994	0	255	0
7.32018757	6.75107527	1.43499994	0	255	0
7.33506203	6.75121307	1.68900001	0	255	0
7.33506203	6.75121307	1.94300008	0	255	0
7.34249973	6.75121307	1.94300008	0	255	0
7.34249973	6.75121307	1.68900001	0	255	0
7.34249973	6.75114441	1.68900001	0	255	0
7.3276248	6.75114441	2.19700003	0	255	0
7.33506203	6.75114441	1.68900001	0	255	0
7.34249973	6.75114441	2.19700003	0	255	0
7.34249973	6.75107527	2.19700003	0	255	0
7.34249973	6.75107527	1.94300008	0	255	0
7.3276248	6.75114441	1.68900001	0	255	0
7.33506203	6.75107527	1.68900001	0	255	0
7.31274986	6.75114441	1.68900001	0	255	0
7.32018757	6.75114441	1.18099999	0	255	0
7.3276248	6.75114441	1.68900001	0	255	0
7.31274986	6.75114441	1.18099999	0	255	0
7.3276248	6.75114441	1.18099999	0	255	0
7.3276248	6.75107527	1.18099999	0	255	0
7.31274986	6.75107527	0.165000007	0	255	0
7.3276248	6.75121307	1.43499994	0	255	0
7.3276248	6.75114441	1.18099999	0	255	0
7.34249973	6.75121307	1.43499994	0	255	0
7.34249973	6.75121307	1.18099999	0	255	0
7.34249973	6.75114441	1.43499994	0	255	0
7.34249973	6.75114441	1.18099999	0	255	0
7.3276248	6.75114441	1.68900001	0	255	0
7.33506203	6.75114441	1.18099999	0	255	0
7.33506203	6.75114441	1.18099999	0	255	0
7.33506203	6.75107527	1.68900001	0	255	0
7.33506203	6.75107527	1.43499994	0	255	0
7.3276248	6.75107527	1.43499994	0	255	0
7.29787493	6.7513504	1.18099999	0	255	0
7.29787493	6.7513504	0.926999986	0	255	0
7.31274986	6.7513504	0.926999986	0	255	0
7.31274986	6.7513504	0.165000007	0	255	0
7.29787493	6.75121307	0.926999986	0	255	0
7.31274986	6.75121307	0.926999986	0	255	0
7.31274986	6.75121307	1.18099999	0	255	0
7.29787493	6.75121307	0.672999978	0	255	0
7.29787493	6.75114441	0.926999986	0	255	0
7.29787493	6.75114441	1.18099999	0	255	0
7.30531216	6.75114441	0.672999978	0	255	0
7.30531216	6.75114441	0.926999986	0	255	0
7.30531216	6.75114441	0.672999978	0	255	0
7.30531216	6.75107527	1.18099999	0	255	0
7.30531216	6.75107527	0.926999986	0	255	0
7.29787493	6.75107527	0.926999986	0	255	0
7.28299999	6.75107527	0.672999978	0	255	0
7.2904377	6.75114441	0.419	0	255	0
7.29787493	6.75114441	0.419	0	255	0
7.29787493	6.75114441	0.165000007	0	255	0
7.2904377	6.75107527	0.419	0	255	0
7.29787493	6.75107527	0.419	0	255	0
7.2904377	6.75107527	0.165000007	0	255	0
7.28299999	6.75107527	1.18099999	0	255	0
7.29787493	6.75121307	0.419	0	255	0
7.30531216	6.75121307	0.419	0	255	0
7.30531216	6.75121307	0.165000007	0	255	0
7.30531216	6.75114441	0.165000007	0	255	0
7.31274986	6.75114441	0.672999978	0	255	0
7.30531216	6.75107527	0.672999978	0	255	0
7.31274986	6.75107527	0.672999978	0	255	0
7.29787493	6.75107527	0.419	0	255	0
7.31274986	6.75114441	0.165000007	0	255	0
7.31274986	6.7513504	2.19700003	0	255	0
7.31274986	6.7513504	1.43499994	0	255	0
7.3276248	6.7513504	1.43499994	0	255	0
7.3276248	6.7513504	1.18099999	0	255	0
7.31274986	6.75107527	1.43499994	0	255	0
7.34249973	6.75121307	1.43499994	0	255	0
7.34249973	6.75121307	1.18099999	0	255	0
7.34249973	6.75107527	1.43499994	0	255	0
7.34249973	6.75107527	2.19700003	0	255	0
7.31274986	6.75100613	1.68900001	0	255	0
7.31274986	6.75100613	1.94300008	0	255	0
7.31274986	6.75093746	1.94300008	0	255	0
7.3276248	6.75100613	1.94300008	0	255	0
7.3276248	6.75100613	1.68900001	0	255	0
7.3276248	6.75093746	1.94300008	0	255	0
7.3276248	6.75100613	2.19700003	0	255	0
7.33506203	6.75100613	1.68900001	0	255	0
7.34249973	6.75100613	2.19700003	0	255	0
7.34249973	6.75100613	1.94300008	0	255	0
7.34249973	6.75093746	2.19700003	0	255	0
7.34249973	6.75093746	1.94300008	0	255	0
7.3276248	6.75100613	1.68900001	0	255	0
7.3276248	6.75093746	1.18099999	0	255	0
7.33506203	6.75093746	1.68900001	0	255	0
7.31274986	6.75100613	1.68900001	0	255	0
7.32018757	6.75100613	1.18099999	0	255	0
7.3276248	6.75100613	1.68900001	0	255	0
7.31274986	6.75100613	1.18099999	0	255	0
7.31274986	6.75093746	1.18099999	0	255	0
7.3276248	6.75100613	1.18099999	0	255	0
7.31274986	6.75080013	2.19700003	0	255	0
7.3276248	6.75107527	2.19700003	0	255	0
7.3276248	6.75107527	1.94300008	0	255	0
7.34249973	6.75107527	1.94300008	0	255	0
7.34249973	6.75107527	1.18099999	0	255	0
7.3276248	6.75093746	1.94300008	0	255	0
7.34249973	6.75093746	1.94300008	0	255	0
7.34249973	6.75093746	2.19700003	0	255	0
7.30531216	6.75100613	0.672999978	0	255	0
7.31274986	6.75100613	1.18099999	0	255	0
7.30531216	6.75093746	1.18099999	0	255	0
7.31274986	6.75093746	1.18099999	0	255	0
7.29787493	6.75100613	0.672999978	0	255	0
7.29787493	6.75100613	0.926999986	0	255	0
7.29787493	6.75093746	0.926999986	0	255	0
7.31274986	6.75100613	0.672999978	0	255	0
7.31274986	6.75093746	0.672999978	0	255	0
7.28299999	6.75100613	0.672999978	0	255	0
7.2904377	6.75100613	0.165000007	0	255	0
7.29787493	6.75100613	0.672999978	0	255	0
7.28299999	6.75100613	0.165000007	0	255	0
7.28299999	6.75093746	0.165000007	0	255	0
7.29787493	6.75100613	0.165000007	0	255	0
7.28299999	6.75080013	1.18099999	0	255	0
7.29787493	6.75107527	1.18099999	0	255	0
7.29787493	6.75107527	0.926999986	0	255	0
7.31274986	6.75107527	0.926999986	0	255	0
7.29787493	6.75093746	0.926999986	0	255	0
7.31274986	6.75093746	0.926999986	0	255	0
7.31274986	6.75093746	1.18099999	0	255	0
7.31274986	6.75100613	1.18099999	0	255	0
7.32018757	6.75100613	0.672999978	0	255	0
7.3276248	6.75100613	1.18099999	0	255	0
7.3276248	6.75100613	0.926999986	0	255	0
7.3276248	6.75093746	0.165000007	0	255	0
7.3276248	6.75093746	0.926999986	0	255	0
7.31274986	6.75100613	0.672999978	0	255	0
7.31274986	6.75093746	1.18099999	0	255	0
7.32018757	6.75093746	0.672999978	0	255	0
7.32018757	6.75100613	0.165000007	0	255	0
7.3276248	6.75100613	0.672999978	0	255	0
7.3276248	6.75100613	0.419	0	255	0
7.32018757	6.75093746	0.672999978	0	255	0
7.3276248	6.75093746	0.672999978	0	255	0
7.3276248	6.75093746	0.419	0	255	0
7.31274986	6.75100613	0.165000007	0	255	0
7.31274986	6.75100613	0.419	0	255	0
7.31274986	6.75093746	0.419	0	255	0
7.32018757	6.75093746	0.165000007	0	255	0
7.31274986	6.75093746	0.419	0	255	0
7.31274986	6.7508688	0.419	0	255	0
7.31274986	6.7508688	0.165000007	0	255	0
7.3276248	6.75093746	0.419	0	255	0
7.3276248	6.7508688	0.419	0	255	0
7.3276248	6.7508688	0.165000007	0	255	0
7.3276248	6.75093746	0.419	0	255	0
7.33506203	6.75093746	0.419	0	255	0
7.33506203	6.75093746	0.165000007	0	255	0
7.3276248	6.7508688	0.419	0	255	0
7.33506203	6.7508688	0.419	0	255	0
7.3276248	6.75080013	0.672999978	0	255	0
7.3276248	6.7508688	0.165000007	0	255	0
7.34249973	6.7513504	1.68900001	0	255	0
7.34249973	6.7513504	1.94300008	0	255	0
7.34249973	6.75128174	1.94300008	0	255	0
7.34249973	6.75128174	1.68900001	0	255	0
7.35737467	6.7513504	1.94300008	0	255	0
7.35737467	6.7513504	1.68900001	0	255	0
7.35737467	6.75128174	1.94300008	0	255	0
7.35737467	6.75128174	1.68900001	0	255	0
7.34249973	6.75121307	1.43499994	0	255	0
7.34249973	6.75114441	1.18099999	0	255	0
7.34249973	6.75114441	1.43499994	0	255	0
7.35737467	6.75121307	1.18099999	0	255	0
7.35737467	6.75121307	1.43499994	0	255	0
7.35737467	6.75114441	1.18099999	0	255	0
7.35737467	6.75114441	1.43499994	0	255	0
7.34249973	6.75121307	1.18099999	0	255	0
7.34249973	6.75121307	1.43499994	0	255	0
7.34993744	6.75121307	1.43499994	0	255	0
7.34993744	6.75121307	1.18099999	0	255	0
7.34249973	6.75114441	1.43499994	0	255	0
7.34993744	6.75114441	1.43499994	0	255	0
7.34249973	6.75107527	1.68900001	0	255	0
7.34249973	6.75114441	1.18099999	0	255	0
7.34249973	6.75080013	0.672999978	0	255	0
7.34993744	6.7508688	0.419	0	255	0
7.35737467	6.7508688	0.419	0	255	0
7.35737467	6.7508688	0.165000007	0	255	0
7.34993744	6.75080013	0.419	0	255	0
7.35737467	6.75080013	0.419	0	255	0
7.35737467	6.75080013	0.165000007	0	255	0
7.34993744	6.75080013	0.165000007	0	255	0
