-7.36299992	7.0250001	0.160750002	0	255	0
-7.36299992	7.01025677	0.160750002	0	255	0
-7.36299992	7.01025677	0.133499995	0	255	0
-7.11887503	7.0250001	0.160750002	0	255	0
-7.24093723	7.01025677	0.133499995	0	255	0
-7.11887503	7.01025677	0.187999994	0	255	0
-7.24093723	6.99551296	0.187999994	0	255	0
-7.24093723	6.99551296	0.133499995	0	255	0
-7.36299992	7.01025677	0.133499995	0	255	0
-7.11887503	7.0250001	0.0789999962	0	255	0
-7.24093723	6.99551296	0.133499995	0	255	0
-7.36299992	6.99551296	0.106249996	0	255	0
-7.36299992	6.99551296	0.0789999962	0	255	0
-7.24093723	6.99551296	0.106249996	0	255	0
-7.24093723	6.99551296	0.0789999962	0	255	0
-7.11887503	6.99551296	0.106249996	0	255	0
-7.24093723	6.98076916	0.133499995	0	255	0
-7.11887503	6.98076916	0.0789999962	0	255	0
-7.11887503	6.98076916	0.106249996	0	255	0
-7.24093723	6.98076916	0.106249996	0	255	0
-6.99681282	6.99551296	0.187999994	0	255	0
-7.11887503	6.98076916	0.187999994	0	255	0
-6.99681282	6.98076916	0.133499995	0	255	0
-6.99681282	6.99551296	0.133499995	0	255	0
-7.11887503	6.96602535	0.160750002	0	255	0
-6.99681282	6.96602535	0.160750002	0	255	0
-6.99681282	6.96602535	0.133499995	0	255	0
-7.24093723	6.99551296	0.133499995	0	255	0
-7.24093723	6.98076916	0.0789999962	0	255	0
-7.11887503	6.98076916	0.133499995	0	255	0
-7.24093723	6.99551296	0.0789999962	0	255	0
-7.11887503	6.98076916	0.0789999962	0	255	0
-7.36299992	6.96602535	0.133499995	0	255	0
-6.99681282	6.99551296	0.133499995	0	255	0
-6.99681282	6.99551296	0.0789999962	0	255	0
-6.99681282	6.98076916	0.0789999962	0	255	0
-6.99681282	6.96602535	0.133499995	0	255	0
-6.99681282	6.96602535	0.0789999962	0	255	0
-7.11887503	6.96602535	0.0789999962	0	255	0
-7.11887503	7.0250001	0.0789999962	0	255	0
-7.24093723	7.01025677	0.0244999975	0	255	0
-7.11887503	7.0250001	-0.00275000185	0	255	0
-7.24093723	7.0250001	-0.0300000012	0	255	0
-7.36299992	7.01025677	-0.0300000012	0	255	0
-7.24093723	7.01025677	-0.0300000012	0	255	0
-7.36299992	6.99551296	-0.00275000185	0	255	0
-7.11887503	7.01025677	-0.0300000012	0	255	0
-7.24093723	6.99551296	-0.0300000012	0	255	0
-7.24093723	6.99551296	-0.00275000185	0	255	0
-7.24093723	6.99551296	-0.0300000012	0	255	0
-7.11887503	6.99551296	-0.00275000185	0	255	0
-7.24093723	6.98076916	0.0244999975	0	255	0
-7.11887503	6.98076916	-0.0300000012	0	255	0
-7.11887503	6.98076916	-0.00275000185	0	255	0
-7.24093723	6.98076916	-0.00275000185	0	255	0
-6.99681282	6.99551296	0.0789999962	0	255	0
-6.99681282	6.99551296	0.0244999975	0	255	0
-6.99681282	6.98076916	0.0244999975	0	255	0
-6.99681282	6.96602535	0.0789999962	0	255	0
-6.99681282	6.96602535	0.0244999975	0	255	0
-7.24093723	6.99551296	-0.0300000012	0	255	0
-7.24093723	6.99551296	-0.00275000185	0	255	0
-7.11887503	6.99551296	-0.00275000185	0	255	0
-7.24093723	6.98076916	-0.00275000185	0	255	0
-7.11887503	6.98076916	-0.00275000185	0	255	0
-7.11887503	6.98076916	-0.0300000012	0	255	0
-7.36299992	6.96602535	0.0244999975	0	255	0
-6.99681282	6.99551296	0.0244999975	0	255	0
-6.99681282	6.99551296	-0.0300000012	0	255	0
-6.99681282	6.98076916	-0.0300000012	0	255	0
-6.99681282	6.96602535	0.0244999975	0	255	0
-6.99681282	6.96602535	-0.0300000012	0	255	0
-7.11887503	6.96602535	-0.0300000012	0	255	0
-7.11887503	6.96602535	-0.00275000185	0	255	0
-7.11887503	6.96602535	-0.0300000012	0	255	0
-6.99681282	6.96602535	-0.0300000012	0	255	0
-6.99681282	6.96602535	-0.00275000185	0	255	0
-6.99681282	6.95128155	0.0244999975	0	255	0
-6.99681282	6.93653774	-0.0300000012	0	255	0
-6.99681282	6.93653774	-0.00275000185	0	255	0
-7.11887503	6.93653774	-0.00275000185	0	255	0
-7.11887503	6.93653774	-0.00275000185	0	255	0
-7.11887503	6.93653774	0.0789999962	0	255	0
-6.99681282	6.93653774	-0.0300000012	0	255	0
-6.99681282	6.93653774	-0.00275000185	0	255	0
-6.99681282	6.92179394	0.0244999975	0	255	0
-6.99681282	6.90705013	-0.0300000012	0	255	0
-6.99681282	6.90705013	-0.00275000185	0	255	0
-7.11887503	6.90705013	-0.00275000185	0	255	0
-7.11887503	6.96602535	0.0789999962	0	255	0
-6.99681282	6.96602535	0.0789999962	0	255	0
-7.11887503	6.96602535	0.0244999975	0	255	0
-6.99681282	6.96602535	0.0244999975	0	255	0
-6.99681282	6.95128155	0.0244999975	0	255	0
-6.99681282	6.93653774	0.0789999962	0	255	0
-6.99681282	6.93653774	0.0244999975	0	255	0
-7.11887503	6.96602535	0.0789999962	0	255	0
-7.11887503	6.96602535	0.0517499968	0	255	0
-6.87475014	6.96602535	0.0517499968	0	255	0
-7.36299992	6.90705013	0.187999994	0	255	0
-7.11887503	6.93653774	0.0517499968	0	255	0
-6.87475014	6.93653774	0.0517499968	0	255	0
-6.87475014	6.93653774	0.0789999962	0	255	0
-6.99681282	6.93653774	0.0789999962	0	255	0
-6.99681282	6.93653774	0.0244999975	0	255	0
-6.99681282	6.92179394	0.0244999975	0	255	0
-6.99681282	6.90705013	0.0789999962	0	255	0
-6.99681282	6.90705013	0.0244999975	0	255	0
-6.99681282	6.93653774	0.0244999975	0	255	0
-7.36299992	6.90705013	0.0789999962	0	255	0
-6.99681282	6.93653774	-0.0300000012	0	255	0
-6.99681282	6.92179394	-0.0300000012	0	255	0
-6.99681282	6.90705013	0.0244999975	0	255	0
-6.99681282	6.90705013	-0.0300000012	0	255	0
-7.11887503	6.90705013	-0.0300000012	0	255	0
-7.36299992	7.01025677	-0.0300000012	0	255	0
-7.11887503	7.0250001	-0.0300000012	0	255	0
-7.11887503	7.0250001	-0.0572500005	0	255	0
-7.36299992	7.0250001	-0.0844999999	0	255	0
-7.24093723	7.0250001	-0.0844999999	0	255	0
-7.36299992	6.99551296	-0.0300000012	0	255	0
-7.36299992	7.01025677	-0.0844999999	0	255	0
-7.24093723	6.99551296	-0.0300000012	0	255	0
-7.11887503	6.99551296	-0.0572500005	0	255	0
-7.24093723	6.99551296	-0.0572500005	0	255	0
-6.99681282	6.99551296	-0.0300000012	0	255	0
-7.11887503	6.99551296	-0.0844999999	0	255	0
-6.99681282	6.99551296	-0.0844999999	0	255	0
-7.11887503	6.96602535	-0.0300000012	0	255	0
-7.11887503	6.98076916	-0.0844999999	0	255	0
-6.99681282	6.98076916	-0.0844999999	0	255	0
-6.99681282	6.96602535	-0.0300000012	0	255	0
-6.99681282	6.96602535	-0.0572500005	0	255	0
-7.11887503	6.96602535	-0.0572500005	0	255	0
-7.11887503	6.96602535	-0.220750004	0	255	0
-7.11887503	6.96602535	-0.247999996	0	255	0
-6.99681282	6.96602535	-0.247999996	0	255	0
-6.99681282	6.96602535	-0.220750004	0	255	0
-6.99681282	6.95128155	-0.193499997	0	255	0
-6.99681282	6.93653774	-0.247999996	0	255	0
-6.99681282	6.93653774	-0.220750004	0	255	0
-7.11887503	6.93653774	-0.220750004	0	255	0
-7.11887503	6.93653774	-0.220750004	0	255	0
-7.11887503	6.93653774	-0.138999999	0	255	0
-6.99681282	6.93653774	-0.247999996	0	255	0
-6.99681282	6.93653774	-0.220750004	0	255	0
-6.99681282	6.92179394	-0.193499997	0	255	0
-6.99681282	6.90705013	-0.247999996	0	255	0
-6.99681282	6.90705013	-0.220750004	0	255	0
-7.11887503	6.90705013	-0.220750004	0	255	0
-7.11887503	6.90705013	-0.220750004	0	255	0
-7.11887503	6.90705013	-0.247999996	0	255	0
-6.87475014	6.90705013	-0.247999996	0	255	0
-6.87475014	6.90705013	-0.220750004	0	255	0
-6.99681282	6.89230633	-0.193499997	0	255	0
-7.11887503	6.87756252	-0.220750004	0	255	0
-6.87475014	6.87756252	-0.220750004	0	255	0
-6.99681282	6.87756252	-0.220750004	0	255	0
-6.99681282	6.87756252	-0.247999996	0	255	0
-6.87475014	6.87756252	-0.220750004	0	255	0
-6.99681282	6.86281872	-0.193499997	0	255	0
-6.87475014	6.86281872	-0.247999996	0	255	0
-6.87475014	6.86281872	-0.220750004	0	255	0
-6.99681282	6.86281872	-0.220750004	0	255	0
-6.87475014	6.89230633	-0.220750004	0	255	0
-6.87475014	6.89230633	-0.247999996	0	255	0
-6.75268745	6.89230633	-0.193499997	0	255	0
-6.75268745	6.89230633	-0.220750004	0	255	0
-6.75268745	6.89230633	-0.193499997	0	255	0
-6.75268745	6.87756252	-0.247999996	0	255	0
-6.75268745	6.87756252	-0.220750004	0	255	0
-6.87475014	6.87756252	-0.220750004	0	255	0
-6.87475014	6.87756252	-0.16624999	0	255	0
-6.87475014	6.87756252	-0.247999996	0	255	0
-6.87475014	6.86281872	-0.138999999	0	255	0
-6.87475014	6.86281872	-0.16624999	0	255	0
-6.63062477	6.87756252	-0.138999999	0	255	0
-6.63062477	6.87756252	-0.16624999	0	255	0
-6.75268745	6.84807491	-0.138999999	0	255	0
-6.63062477	6.84807491	-0.247999996	0	255	0
-6.63062477	6.84807491	-0.16624999	0	255	0
-6.75268745	6.84807491	-0.16624999	0	255	0
-6.63062477	6.86281872	-0.220750004	0	255	0
-6.63062477	6.86281872	-0.247999996	0	255	0
-6.50856209	6.86281872	-0.193499997	0	255	0
-6.50856209	6.86281872	-0.220750004	0	255	0
-6.50856209	6.86281872	-0.193499997	0	255	0
-6.50856209	6.84807491	-0.247999996	0	255	0
-6.50856209	6.84807491	-0.220750004	0	255	0
-6.63062477	6.84807491	-0.220750004	0	255	0
-6.63062477	6.84807491	-0.220750004	0	255	0
-6.63062477	6.84807491	-0.247999996	0	255	0
-6.63062477	6.83333111	-0.247999996	0	255	0
-6.63062477	6.83333111	-0.220750004	0	255	0
-6.38649988	6.84807491	-0.247999996	0	255	0
-6.38649988	6.84807491	-0.220750004	0	255	0
-6.38649988	6.83333111	-0.247999996	0	255	0
-6.38649988	6.83333111	-0.220750004	0	255	0
-6.38649988	6.8185873	0.0789999962	0	255	0
-6.26443768	6.83333111	0.0517499968	0	255	0
-6.14237499	6.83333111	0.0517499968	0	255	0
-6.14237499	6.83333111	0.0244999975	0	255	0
-6.26443768	6.8185873	0.0517499968	0	255	0
-6.14237499	6.8185873	0.0517499968	0	255	0
-6.26443768	6.8185873	0.0244999975	0	255	0
-6.14237499	6.83333111	0.0244999975	0	255	0
-6.14237499	6.83333111	0.0517499968	0	255	0
-6.02031231	6.83333111	0.0517499968	0	255	0
-6.14237499	6.8185873	-0.0300000012	0	255	0
-6.14237499	6.8185873	0.0517499968	0	255	0
-6.02031231	6.8185873	0.0517499968	0	255	0
-6.02031231	6.8185873	0.0244999975	0	255	0
-6.38649988	6.84807491	0.0244999975	0	255	0
-6.26443768	6.84807491	0.0244999975	0	255	0
-6.38649988	6.84807491	-0.0300000012	0	255	0
-6.26443768	6.84807491	-0.0300000012	0	255	0
-6.26443768	6.83333111	-0.0300000012	0	255	0
-6.14237499	6.83333111	0.0244999975	0	255	0
-6.38649988	6.8185873	-0.0300000012	0	255	0
-6.14237499	6.83333111	-0.0300000012	0	255	0
-6.14237499	6.84807491	0.0789999962	0	255	0
-6.14237499	6.84807491	0.0517499968	0	255	0
-5.89824963	6.84807491	0.0517499968	0	255	0
-6.38649988	6.78909969	0.187999994	0	255	0
-6.14237499	6.8185873	0.0517499968	0	255	0
-5.89824963	6.8185873	0.0517499968	0	255	0
-5.89824963	6.8185873	0.0789999962	0	255	0
-6.02031231	6.8185873	0.0244999975	0	255	0
-6.02031231	6.8185873	0.0517499968	0	255	0
-5.89824963	6.8185873	0.0517499968	0	255	0
-6.02031231	6.8038435	0.0517499968	0	255	0
-5.89824963	6.8038435	0.0517499968	0	255	0
-5.89824963	6.8038435	0.0244999975	0	255	0
-6.14237499	6.78909969	0.0789999962	0	255	0
-6.14237499	6.8038435	0.0244999975	0	255	0
-5.89824963	6.8038435	0.0244999975	0	255	0
-6.14237499	6.8038435	-0.0300000012	0	255	0
-5.89824963	6.8185873	-0.0300000012	0	255	0
-5.89824963	6.8038435	-0.0300000012	0	255	0
-5.89824963	6.8185873	-0.00275000185	0	255	0
-5.89824963	6.8185873	0.0789999962	0	255	0
-5.89824963	6.8038435	-0.0300000012	0	255	0
-5.89824963	6.8038435	-0.00275000185	0	255	0
-5.65412474	6.8185873	-0.0300000012	0	255	0
-5.65412474	6.8185873	-0.00275000185	0	255	0
-5.77618694	6.78909969	-0.0300000012	0	255	0
-5.65412474	6.78909969	-0.00275000185	0	255	0
-5.77618694	6.78909969	-0.00275000185	0	255	0
-5.53206253	6.8038435	0.0244999975	0	255	0
-5.40999985	6.8038435	0.0789999962	0	255	0
-5.53206253	6.78909969	0.0789999962	0	255	0
-5.40999985	6.78909969	0.0789999962	0	255	0
-5.65412474	6.8038435	0.0244999975	0	255	0
-5.65412474	6.8038435	0.0517499968	0	255	0
-5.65412474	6.78909969	0.0517499968	0	255	0
-5.40999985	6.8038435	0.0244999975	0	255	0
-5.89824963	6.8185873	0.0244999975	0	255	0
-5.89824963	6.8038435	0.0244999975	0	255	0
-5.65412474	6.8185873	0.0244999975	0	255	0
-5.89824963	6.8185873	-0.0300000012	0	255	0
-5.89824963	6.8038435	-0.0300000012	0	255	0
-5.89824963	6.78909969	0.0789999962	0	255	0
-5.77618694	6.78909969	0.0244999975	0	255	0
-5.77618694	6.78909969	-0.0300000012	0	255	0
-5.65412474	6.8038435	0.0244999975	0	255	0
-5.53206253	6.8038435	-0.0300000012	0	255	0
-5.40999985	6.8038435	0.0244999975	0	255	0
-5.65412474	6.8038435	-0.0300000012	0	255	0
-5.40999985	6.8038435	-0.0300000012	0	255	0
-7.11887503	6.90705013	-0.0300000012	0	255	0
-6.99681282	6.90705013	-0.0300000012	0	255	0
-7.11887503	6.90705013	-0.0844999999	0	255	0
-6.99681282	6.90705013	-0.0844999999	0	255	0
-7.11887503	6.89230633	-0.0844999999	0	255	0
-6.99681282	6.89230633	-0.0844999999	0	255	0
-7.11887503	6.87756252	-0.0572500005	0	255	0
-6.87475014	6.89230633	-0.0300000012	0	255	0
-6.87475014	6.89230633	-0.0844999999	0	255	0
-6.99681282	6.87756252	-0.0844999999	0	255	0
-7.11887503	6.90705013	-0.0300000012	0	255	0
-7.11887503	6.90705013	-0.0572500005	0	255	0
-6.87475014	6.90705013	-0.0572500005	0	255	0
-6.87475014	6.90705013	-0.138999999	0	255	0
-7.11887503	6.87756252	-0.0572500005	0	255	0
-6.87475014	6.87756252	-0.0572500005	0	255	0
-6.87475014	6.87756252	-0.0300000012	0	255	0
-7.11887503	6.87756252	-0.0844999999	0	255	0
-6.99681282	6.87756252	-0.0300000012	0	255	0
-6.99681282	6.86281872	-0.0844999999	0	255	0
-6.87475014	6.86281872	-0.0300000012	0	255	0
-6.99681282	6.87756252	-0.0844999999	0	255	0
-6.87475014	6.86281872	-0.0844999999	0	255	0
-7.11887503	6.84807491	-0.0300000012	0	255	0
-6.99681282	6.87756252	-0.0844999999	0	255	0
-6.99681282	6.86281872	-0.138999999	0	255	0
-6.87475014	6.86281872	-0.0844999999	0	255	0
-6.99681282	6.87756252	-0.138999999	0	255	0
-6.87475014	6.87756252	-0.138999999	0	255	0
-6.87475014	6.86281872	-0.138999999	0	255	0
-7.11887503	6.84807491	-0.0844999999	0	255	0
-6.87475014	6.87756252	-0.111749999	0	255	0
-6.87475014	6.87756252	-0.0300000012	0	255	0
-6.87475014	6.86281872	-0.138999999	0	255	0
-6.87475014	6.86281872	-0.111749999	0	255	0
-6.63062477	6.87756252	-0.138999999	0	255	0
-6.63062477	6.87756252	-0.111749999	0	255	0
-6.75268745	6.84807491	-0.138999999	0	255	0
-6.63062477	6.84807491	-0.111749999	0	255	0
-6.75268745	6.84807491	-0.111749999	0	255	0
-6.63062477	6.86281872	-0.0300000012	0	255	0
-6.50856209	6.86281872	-0.0844999999	0	255	0
-6.50856209	6.86281872	-0.0844999999	0	255	0
-6.50856209	6.84807491	-0.0300000012	0	255	0
-6.63062477	6.86281872	-0.0844999999	0	255	0
-6.50856209	6.84807491	-0.0844999999	0	255	0
-6.87475014	6.87756252	-0.0844999999	0	255	0
-6.87475014	6.86281872	-0.0844999999	0	255	0
-6.63062477	6.87756252	-0.0844999999	0	255	0
-6.87475014	6.87756252	-0.138999999	0	255	0
-6.87475014	6.84807491	-0.247999996	0	255	0
-6.75268745	6.84807491	-0.0844999999	0	255	0
-6.87475014	6.84807491	-0.111749999	0	255	0
-6.63062477	6.86281872	-0.0844999999	0	255	0
-6.50856209	6.86281872	-0.138999999	0	255	0
-6.50856209	6.86281872	-0.138999999	0	255	0
-6.50856209	6.84807491	-0.0844999999	0	255	0
-6.63062477	6.86281872	-0.138999999	0	255	0
-6.50856209	6.84807491	-0.138999999	0	255	0
-6.99681282	6.89230633	-0.193499997	0	255	0
-6.87475014	6.89230633	-0.138999999	0	255	0
-6.99681282	6.87756252	-0.138999999	0	255	0
-7.11887503	6.87756252	-0.247999996	0	255	0
-6.87475014	6.89230633	-0.193499997	0	255	0
-6.87475014	6.87756252	-0.193499997	0	255	0
-6.99681282	6.87756252	-0.193499997	0	255	0
-6.99681282	6.87756252	-0.16624999	0	255	0
-6.99681282	6.87756252	-0.138999999	0	255	0
-6.87475014	6.87756252	-0.16624999	0	255	0
-6.99681282	6.86281872	-0.193499997	0	255	0
-6.87475014	6.86281872	-0.138999999	0	255	0
-6.87475014	6.86281872	-0.16624999	0	255	0
-6.99681282	6.86281872	-0.16624999	0	255	0
-6.87475014	6.87756252	-0.138999999	0	255	0
-6.87475014	6.87756252	-0.111749999	0	255	0
-6.87475014	6.84807491	-0.111749999	0	255	0
-6.38649988	6.87756252	-0.111749999	0	255	0
-6.38649988	6.87756252	-0.138999999	0	255	0
-6.38649988	6.84807491	-0.111749999	0	255	0
-6.38649988	6.84807491	-0.0300000012	0	255	0
-6.63062477	6.84807491	-0.0300000012	0	255	0
-6.63062477	6.83333111	-0.0300000012	0	255	0
-6.38649988	6.84807491	-0.0300000012	0	255	0
-6.38649988	6.83333111	-0.0300000012	0	255	0
-6.63062477	6.84807491	-0.0844999999	0	255	0
-6.63062477	6.83333111	-0.0844999999	0	255	0
-6.38649988	6.84807491	-0.0844999999	0	255	0
-6.38649988	6.83333111	-0.0844999999	0	255	0
-6.63062477	6.84807491	-0.0300000012	0	255	0
-6.63062477	6.84807491	-0.0572500005	0	255	0
-6.38649988	6.84807491	-0.0572500005	0	255	0
-6.63062477	6.8185873	-0.0572500005	0	255	0
-6.38649988	6.8185873	-0.0572500005	0	255	0
-6.38649988	6.8185873	-0.0300000012	0	255	0
-6.63062477	6.8185873	-0.0844999999	0	255	0
-6.63062477	6.84807491	-0.138999999	0	255	0
-6.63062477	6.83333111	-0.138999999	0	255	0
-6.38649988	6.83333111	-0.138999999	0	255	0
-6.63062477	6.84807491	-0.193499997	0	255	0
-6.63062477	6.83333111	-0.193499997	0	255	0
-6.38649988	6.84807491	-0.193499997	0	255	0
-6.38649988	6.83333111	-0.193499997	0	255	0
-6.63062477	6.84807491	-0.138999999	0	255	0
-6.63062477	6.84807491	-0.16624999	0	255	0
-6.38649988	6.84807491	-0.16624999	0	255	0
-6.38649988	6.84807491	-0.247999996	0	255	0
-6.63062477	6.8185873	-0.16624999	0	255	0
-6.38649988	6.8185873	-0.16624999	0	255	0
-6.38649988	6.8185873	-0.138999999	0	255	0
-6.63062477	6.8185873	-0.193499997	0	255	0
-6.38649988	6.84807491	-0.220750004	0	255	0
-6.38649988	6.84807491	-0.0300000012	0	255	0
-6.26443768	6.84807491	-0.247999996	0	255	0
-6.26443768	6.84807491	-0.220750004	0	255	0
-6.26443768	6.83333111	-0.193499997	0	255	0
-6.38649988	6.8185873	-0.220750004	0	255	0
-6.14237499	6.83333111	-0.247999996	0	255	0
-6.14237499	6.83333111	-0.220750004	0	255	0
-6.14237499	6.8185873	-0.220750004	0	255	0
-6.14237499	6.83333111	-0.220750004	0	255	0
-6.14237499	6.83333111	-0.247999996	0	255	0
-6.02031231	6.83333111	-0.193499997	0	255	0
-6.02031231	6.83333111	-0.220750004	0	255	0
-6.02031231	6.83333111	-0.193499997	0	255	0
-6.02031231	6.8185873	-0.247999996	0	255	0
-6.02031231	6.8185873	-0.220750004	0	255	0
-6.14237499	6.8185873	-0.220750004	0	255	0
-6.14237499	6.8185873	-0.220750004	0	255	0
-6.14237499	6.8038435	-0.247999996	0	255	0
-6.14237499	6.8038435	-0.220750004	0	255	0
-5.89824963	6.8185873	-0.247999996	0	255	0
-5.89824963	6.8185873	-0.220750004	0	255	0
-5.89824963	6.8038435	-0.247999996	0	255	0
-5.89824963	6.8038435	-0.220750004	0	255	0
-5.89824963	6.8185873	-0.111749999	0	255	0
-5.89824963	6.8185873	-0.0300000012	0	255	0
-5.89824963	6.8038435	-0.138999999	0	255	0
-5.89824963	6.8038435	-0.111749999	0	255	0
-5.65412474	6.8185873	-0.138999999	0	255	0
-5.65412474	6.8185873	-0.111749999	0	255	0
-5.77618694	6.78909969	-0.138999999	0	255	0
-5.65412474	6.78909969	-0.111749999	0	255	0
-5.77618694	6.78909969	-0.111749999	0	255	0
-5.65412474	6.8038435	-0.0300000012	0	255	0
-5.53206253	6.8038435	-0.0844999999	0	255	0
-5.40999985	6.8038435	-0.0300000012	0	255	0
-5.65412474	6.8038435	-0.0844999999	0	255	0
-5.40999985	6.8038435	-0.0844999999	0	255	0
-5.89824963	6.8185873	-0.0844999999	0	255	0
-5.89824963	6.8038435	-0.0844999999	0	255	0
-5.65412474	6.8185873	-0.0844999999	0	255	0
-5.89824963	6.8185873	-0.138999999	0	255	0
-5.89824963	6.8038435	-0.138999999	0	255	0
-5.89824963	6.78909969	-0.0300000012	0	255	0
-5.77618694	6.78909969	-0.0844999999	0	255	0
-5.65412474	6.78909969	-0.138999999	0	255	0
-5.77618694	6.78909969	-0.138999999	0	255	0
-5.65412474	6.8038435	-0.111749999	0	255	0
-5.65412474	6.8038435	-0.0844999999	0	255	0
-5.53206253	6.8038435	-0.138999999	0	255	0
-5.65412474	6.78909969	-0.111749999	0	255	0
-5.40999985	6.8038435	-0.0844999999	0	255	0
-5.40999985	6.8038435	-0.111749999	0	255	0
-5.40999985	6.78909969	-0.111749999	0	255	0
-6.38649988	6.84807491	-0.138999999	0	255	0
-6.26443768	6.84807491	-0.138999999	0	255	0
-6.38649988	6.83333111	-0.138999999	0	255	0
-6.26443768	6.84807491	-0.193499997	0	255	0
-6.38649988	6.83333111	-0.193499997	0	255	0
-6.14237499	6.83333111	-0.138999999	0	255	0
-6.26443768	6.8185873	-0.138999999	0	255	0
-6.14237499	6.83333111	-0.193499997	0	255	0
-6.26443768	6.8185873	-0.193499997	0	255	0
-6.14237499	6.83333111	-0.193499997	0	255	0
-6.14237499	6.83333111	-0.16624999	0	255	0
-6.02031231	6.83333111	-0.16624999	0	255	0
-6.14237499	6.8185873	-0.16624999	0	255	0
-6.02031231	6.8185873	-0.16624999	0	255	0
-6.02031231	6.8185873	-0.193499997	0	255	0
-6.38649988	6.84807491	-0.220750004	0	255	0
-6.26443768	6.84807491	-0.193499997	0	255	0
-6.26443768	6.84807491	-0.220750004	0	255	0
-6.26443768	6.83333111	-0.247999996	0	255	0
-6.26443768	6.8185873	-0.193499997	0	255	0
-6.38649988	6.83333111	-0.247999996	0	255	0
-6.38649988	6.8185873	-0.193499997	0	255	0
-6.26443768	6.8185873	-0.247999996	0	255	0
-6.38649988	6.8185873	-0.247999996	0	255	0
-6.14237499	6.8185873	-0.16624999	0	255	0
-6.14237499	6.8038435	-0.16624999	0	255	0
-6.14237499	6.8038435	-0.193499997	0	255	0
-5.89824963	6.8185873	-0.16624999	0	255	0
-5.89824963	6.8038435	-0.16624999	0	255	0
-5.89824963	6.8038435	-0.193499997	0	255	0
-6.02031231	6.8185873	-0.220750004	0	255	0
-6.02031231	6.8185873	-0.193499997	0	255	0
-5.89824963	6.8185873	-0.220750004	0	255	0
-6.02031231	6.8038435	-0.247999996	0	255	0
-5.89824963	6.8038435	-0.193499997	0	255	0
-5.89824963	6.8038435	-0.220750004	0	255	0
-6.02031231	6.8038435	-0.220750004	0	255	0
-5.89824963	6.8185873	-0.220750004	0	255	0
-5.89824963	6.8185873	-0.138999999	0	255	0
-5.77618694	6.8185873	-0.247999996	0	255	0
-5.77618694	6.8185873	-0.220750004	0	255	0
-5.89824963	6.8038435	-0.247999996	0	255	0
-5.89824963	6.8038435	-0.220750004	0	255	0
-5.65412474	6.8038435	-0.247999996	0	255	0
-5.65412474	6.8038435	-0.220750004	0	255	0
-5.77618694	6.78909969	-0.247999996	0	255	0
-5.65412474	6.78909969	-0.138999999	0	255	0
-5.65412474	6.78909969	-0.220750004	0	255	0
-5.77618694	6.78909969	-0.220750004	0	255	0
-5.77618694	6.8185873	-0.220750004	0	255	0
-5.77618694	6.8185873	-0.193499997	0	255	0
-5.65412474	6.8185873	-0.193499997	0	255	0
-5.65412474	6.8185873	-0.220750004	0	255	0
-5.77618694	6.8038435	-0.247999996	0	255	0
-5.65412474	6.8038435	-0.193499997	0	255	0
-5.65412474	6.8038435	-0.220750004	0	255	0
-5.77618694	6.8038435	-0.220750004	0	255	0
