17.5685005	6.9382	1.49699998	0	255	0
17.5685005	6.9382	1.18406248	0	255	0
17.5685005	6.92928743	1.18406248	0	255	0
17.5685005	6.92928743	1.07974994	0	255	0
17.6149998	6.9382	1.18406248	0	255	0
17.5917511	6.92037487	1.18406248	0	255	0
17.6149998	6.92037487	1.18406248	0	255	0
17.6149998	6.92037487	1.49699998	0	255	0
17.5917511	6.92037487	1.07974994	0	255	0
17.5917511	6.92037487	1.49699998	0	255	0
17.5917511	6.92037487	1.39268744	0	255	0
17.6149998	6.92037487	1.39268744	0	255	0
17.6149998	6.92037487	1.07974994	0	255	0
17.5917511	6.91146231	1.39268744	0	255	0
17.6149998	6.91146231	1.39268744	0	255	0
17.6149998	6.91146231	1.49699998	0	255	0
17.5917511	6.91146231	1.2883749	0	255	0
17.6033745	6.91591835	0.871124983	0	255	0
17.6149998	6.91591835	1.07974994	0	255	0
17.6033745	6.91146231	1.07974994	0	255	0
17.6149998	6.91146231	1.07974994	0	255	0
17.5917511	6.91591835	0.871124983	0	255	0
17.5917511	6.91591835	0.975437462	0	255	0
17.5917511	6.91146231	0.975437462	0	255	0
17.6149998	6.91591835	0.871124983	0	255	0
17.6149998	6.91146231	0.871124983	0	255	0
17.5685005	6.91146231	0.871124983	0	255	0
17.5801258	6.91591835	0.766812444	0	255	0
17.5917511	6.91591835	0.766812444	0	255	0
17.5917511	6.91591835	0.662499964	0	255	0
17.5801258	6.91146231	0.766812444	0	255	0
17.5917511	6.91146231	0.766812444	0	255	0
17.5801258	6.91146231	0.662499964	0	255	0
17.5917511	6.92037487	1.07974994	0	255	0
17.5917511	6.92037487	0.975437462	0	255	0
17.6149998	6.92037487	0.975437462	0	255	0
17.6149998	6.92037487	0.662499964	0	255	0
17.5917511	6.91146231	0.975437462	0	255	0
17.6149998	6.91146231	0.975437462	0	255	0
17.6149998	6.91146231	1.07974994	0	255	0
17.5917511	6.91146231	0.766812444	0	255	0
17.6033745	6.91146231	0.766812444	0	255	0
17.6033745	6.91146231	0.662499964	0	255	0
17.5917511	6.90254974	0.766812444	0	255	0
17.6033745	6.90254974	0.766812444	0	255	0
17.6033745	6.90254974	0.662499964	0	255	0
17.5917511	6.90254974	0.662499964	0	255	0
17.6149998	6.9382	0.766812444	0	255	0
17.6382484	6.9382	0.766812444	0	255	0
17.6382484	6.9382	0.662499964	0	255	0
17.6149998	6.92928743	0.766812444	0	255	0
17.6382484	6.92928743	0.766812444	0	255	0
17.6382484	6.9382	1.07974994	0	255	0
17.6382484	6.9382	0.975437462	0	255	0
17.661499	6.9382	0.975437462	0	255	0
17.661499	6.9382	0.662499964	0	255	0
17.6382484	6.92928743	0.975437462	0	255	0
17.661499	6.92928743	0.975437462	0	255	0
17.661499	6.92928743	1.07974994	0	255	0
17.6382484	6.92928743	0.871124983	0	255	0
17.6266251	6.92928743	0.871124983	0	255	0
17.6149998	6.92483139	0.871124983	0	255	0
17.6382484	6.92928743	0.766812444	0	255	0
17.6382484	6.92483139	0.871124983	0	255	0
17.6266251	6.92037487	0.871124983	0	255	0
17.6149998	6.92037487	0.766812444	0	255	0
17.6382484	6.92928743	0.766812444	0	255	0
17.661499	6.92928743	0.766812444	0	255	0
17.661499	6.92928743	0.662499964	0	255	0
17.6382484	6.92037487	0.766812444	0	255	0
17.661499	6.92037487	0.766812444	0	255	0
17.661499	6.9382	0.453874946	0	255	0
17.661499	6.9382	0.766812444	0	255	0
17.7080002	6.9382	0.766812444	0	255	0
17.7080002	6.9382	0.453874946	0	255	0
17.7080002	6.92928743	0.766812444	0	255	0
17.7080002	6.92928743	0.453874946	0	255	0
17.661499	6.92037487	0.766812444	0	255	0
17.6847496	6.92037487	0.766812444	0	255	0
17.6847496	6.92037487	0.453874946	0	255	0
17.661499	6.92037487	0.453874946	0	255	0
17.6149998	6.91591835	0.975437462	0	255	0
17.6149998	6.91591835	1.07974994	0	255	0
17.6266251	6.91591835	0.871124983	0	255	0
17.6266251	6.91591835	0.975437462	0	255	0
17.6266251	6.91591835	0.871124983	0	255	0
17.6266251	6.91146231	1.07974994	0	255	0
17.6266251	6.91146231	0.975437462	0	255	0
17.6149998	6.91146231	0.975437462	0	255	0
17.6266251	6.92037487	0.871124983	0	255	0
17.6382484	6.92037487	0.871124983	0	255	0
17.6382484	6.91591835	0.871124983	0	255	0
17.6149998	6.92037487	0.766812444	0	255	0
17.6149998	6.91591835	0.662499964	0	255	0
17.6382484	6.92037487	0.662499964	0	255	0
17.6149998	6.91591835	0.871124983	0	255	0
17.6266251	6.91591835	0.662499964	0	255	0
17.6266251	6.91146231	0.871124983	0	255	0
17.6149998	6.91146231	0.766812444	0	255	0
17.6382484	6.91146231	0.766812444	0	255	0
17.6266251	6.91146231	0.662499964	0	255	0
17.6382484	6.92037487	1.07974994	0	255	0
17.6382484	6.92037487	0.975437462	0	255	0
17.661499	6.92037487	0.975437462	0	255	0
17.6382484	6.91146231	0.975437462	0	255	0
17.661499	6.91146231	0.975437462	0	255	0
17.661499	6.91146231	1.07974994	0	255	0
17.6149998	6.90700626	0.871124983	0	255	0
17.6149998	6.91146231	0.662499964	0	255	0
17.6382484	6.90700626	0.662499964	0	255	0
17.6266251	6.90254974	0.871124983	0	255	0
17.6382484	6.90254974	0.766812444	0	255	0
17.6149998	6.90254974	0.766812444	0	255	0
17.6266251	6.90254974	0.662499964	0	255	0
17.661499	6.91146231	0.871124983	0	255	0
17.661499	6.91146231	0.662499964	0	255	0
17.6498737	6.90700626	0.662499964	0	255	0
17.661499	6.90254974	0.871124983	0	255	0
17.6382484	6.90254974	0.662499964	0	255	0
17.661499	6.92037487	0.766812444	0	255	0
17.6847496	6.92037487	0.766812444	0	255	0
17.6847496	6.92037487	0.662499964	0	255	0
17.661499	6.91146231	0.766812444	0	255	0
17.6847496	6.91146231	0.766812444	0	255	0
17.6847496	6.92037487	1.07974994	0	255	0
17.6847496	6.92037487	0.975437462	0	255	0
17.7080002	6.92037487	0.975437462	0	255	0
17.7080002	6.92037487	0.662499964	0	255	0
17.6847496	6.91146231	0.975437462	0	255	0
17.7080002	6.91146231	0.975437462	0	255	0
17.7080002	6.91146231	1.07974994	0	255	0
17.6847496	6.91146231	0.871124983	0	255	0
17.6731243	6.91146231	0.871124983	0	255	0
17.6847496	6.91146231	0.766812444	0	255	0
17.6731243	6.90700626	0.662499964	0	255	0
17.6847496	6.90700626	0.871124983	0	255	0
17.6847496	6.90700626	0.871124983	0	255	0
17.6963749	6.90700626	0.662499964	0	255	0
17.6963749	6.90700626	0.662499964	0	255	0
17.6963749	6.90254974	0.871124983	0	255	0
17.6847496	6.90700626	0.662499964	0	255	0
17.6963749	6.90254974	0.662499964	0	255	0
17.5917511	6.9382	0.140937477	0	255	0
17.5917511	6.9382	0.453874975	0	255	0
17.6149998	6.9382	0.453874975	0	255	0
17.6149998	6.9382	0.140937477	0	255	0
17.5917511	6.92928743	-0.172000006	0	255	0
17.6149998	6.92928743	0.453874975	0	255	0
17.6149998	6.92928743	0.140937477	0	255	0
17.5917511	6.92928743	0.140937477	0	255	0
17.5917511	6.9382	0.245249987	0	255	0
17.5917511	6.9382	0.349562466	0	255	0
17.6149998	6.9382	0.349562466	0	255	0
17.6149998	6.9382	-0.172000006	0	255	0
17.5917511	6.92928743	0.349562466	0	255	0
17.6149998	6.92928743	0.349562466	0	255	0
17.6149998	6.92928743	0.245249987	0	255	0
17.5685005	6.92037487	0.453874975	0	255	0
17.6033745	6.91591835	0.453874975	0	255	0
17.6149998	6.91591835	0.662499964	0	255	0
17.6033745	6.91146231	0.662499964	0	255	0
17.6149998	6.91146231	0.662499964	0	255	0
17.5917511	6.91146231	0.245249987	0	255	0
17.6149998	6.91591835	0.453874975	0	255	0
17.6149998	6.91146231	0.453874975	0	255	0
17.6033745	6.91146231	0.453874975	0	255	0
17.5917511	6.91591835	0.0366249979	0	255	0
17.5917511	6.91591835	0.140937492	0	255	0
17.6033745	6.91591835	0.140937492	0	255	0
17.5917511	6.91146231	-0.172000006	0	255	0
17.5917511	6.91146231	0.140937492	0	255	0
17.6033745	6.91146231	0.140937492	0	255	0
17.6033745	6.91146231	0.0366249979	0	255	0
17.5917511	6.91146231	0.0366249979	0	255	0
17.6033745	6.91146231	0.0366249979	0	255	0
17.6033745	6.91146231	0.140937492	0	255	0
17.6149998	6.91146231	0.140937492	0	255	0
17.6149998	6.91146231	0.0366249979	0	255	0
17.6033745	6.90700626	0.140937492	0	255	0
17.6149998	6.90700626	0.140937492	0	255	0
17.6149998	6.90700626	0.0366249979	0	255	0
17.5917511	6.90254974	0.245249987	0	255	0
17.6149998	6.9382	1.49699998	0	255	0
17.6149998	6.9382	0.766812444	0	255	0
17.661499	6.9382	0.766812444	0	255	0
17.661499	6.9382	0.662499964	0	255	0
17.6149998	6.92037487	0.766812444	0	255	0
17.661499	6.92037487	0.766812444	0	255	0
17.661499	6.9382	1.07974994	0	255	0
17.661499	6.9382	0.975437462	0	255	0
17.7080002	6.9382	0.975437462	0	255	0
17.7080002	6.9382	-0.172000006	0	255	0
17.661499	6.92037487	0.975437462	0	255	0
17.7080002	6.92037487	0.975437462	0	255	0
17.7080002	6.92037487	1.07974994	0	255	0
17.661499	6.92037487	0.871124983	0	255	0
17.6149998	6.92037487	0.766812444	0	255	0
17.661499	6.92037487	0.766812444	0	255	0
17.6149998	6.90254974	0.766812444	0	255	0
17.661499	6.90254974	0.766812444	0	255	0
17.661499	6.92037487	0.766812444	0	255	0
17.7080002	6.92037487	0.766812444	0	255	0
17.7080002	6.92037487	0.662499964	0	255	0
17.661499	6.90254974	0.766812444	0	255	0
17.7080002	6.90254974	0.766812444	0	255	0
17.7080002	6.90254974	1.49699998	0	255	0
17.5685005	6.88918114	0.140937477	0	255	0
17.5685005	6.88918114	0.245249972	0	255	0
17.5801258	6.88918114	0.036624983	0	255	0
17.5685005	6.88472462	0.140937477	0	255	0
17.5917511	6.88918114	0.245249972	0	255	0
17.5917511	6.88918114	0.140937477	0	255	0
17.5917511	6.88472462	-0.172000006	0	255	0
17.5917511	6.88472462	0.140937477	0	255	0
17.5917511	6.88918114	-0.0676875114	0	255	0
17.5917511	6.88918114	-0.172000006	0	255	0
17.6033745	6.88918114	0.036624983	0	255	0
17.5917511	6.88472462	-0.0676875114	0	255	0
17.6149998	6.88918114	-0.172000006	0	255	0
17.6149998	6.88918114	-0.0676875114	0	255	0
17.6149998	6.88472462	-0.172000006	0	255	0
17.6149998	6.88472462	-0.0676875114	0	255	0
17.6033745	6.88026857	-0.0676875114	0	255	0
17.6033745	6.88026857	0.036624983	0	255	0
17.6149998	6.88026857	-0.172000006	0	255	0
17.6149998	6.88026857	-0.0676875114	0	255	0
17.6033745	6.87581253	-0.172000006	0	255	0
17.6149998	6.87581253	-0.0676875114	0	255	0
17.6033745	6.87581253	-0.0676875114	0	255	0
17.5801258	6.87581253	0.140937477	0	255	0
17.5801258	6.87581253	0.245249972	0	255	0
17.5917511	6.87581253	0.140937477	0	255	0
17.5801258	6.86689997	0.245249972	0	255	0
17.5917511	6.86689997	-0.172000006	0	255	0
17.5917511	6.86689997	0.140937477	0	255	0
17.5801258	6.86689997	0.140937477	0	255	0
17.5917511	6.87581253	-0.0676875114	0	255	0
17.6149998	6.87581253	-0.0676875114	0	255	0
17.6033745	6.87135601	0.036624983	0	255	0
17.5917511	6.86689997	-0.0676875114	0	255	0
17.6149998	6.86689997	-0.0676875114	0	255	0
17.6266251	6.90254974	0.871124983	0	255	0
17.6266251	6.90254974	0.975437462	0	255	0
17.6382484	6.90254974	0.975437462	0	255	0
17.6266251	6.89363718	0.975437462	0	255	0
17.6382484	6.89363718	0.975437462	0	255	0
17.6266251	6.89363718	0.871124983	0	255	0
17.6382484	6.90254974	0.975437462	0	255	0
17.6498737	6.90254974	0.975437462	0	255	0
17.6498737	6.90254974	0.871124983	0	255	0
17.6382484	6.89363718	0.975437462	0	255	0
17.661499	6.89809322	0.975437462	0	255	0
17.661499	6.89809322	0.871124983	0	255	0
17.661499	6.89363718	0.975437462	0	255	0
17.6149998	6.90254974	0.766812444	0	255	0
17.6149998	6.90254974	0.871124983	0	255	0
17.6149998	6.89809322	0.871124983	0	255	0
17.6382484	6.90254974	0.766812444	0	255	0
17.6266251	6.89363718	0.871124983	0	255	0
17.6149998	6.89809322	0.662499964	0	255	0
17.6149998	6.89363718	0.766812444	0	255	0
17.6149998	6.89363718	0.662499964	0	255	0
17.6382484	6.89809322	0.662499964	0	255	0
17.6382484	6.90254974	1.07974994	0	255	0
17.6382484	6.90254974	0.975437462	0	255	0
17.661499	6.90254974	0.975437462	0	255	0
17.661499	6.90254974	0.662499964	0	255	0
17.6382484	6.89363718	0.975437462	0	255	0
17.661499	6.89363718	0.975437462	0	255	0
17.661499	6.89363718	1.07974994	0	255	0
17.6149998	6.89363718	0.766812444	0	255	0
17.6382484	6.89363718	0.766812444	0	255	0
17.6266251	6.88918114	0.871124983	0	255	0
17.6149998	6.88472462	0.766812444	0	255	0
17.6382484	6.88472462	0.766812444	0	255	0
17.6382484	6.89363718	0.975437462	0	255	0
17.661499	6.89363718	0.975437462	0	255	0
17.6382484	6.88918114	1.07974994	0	255	0
17.6498737	6.88918114	0.871124983	0	255	0
17.661499	6.88918114	1.07974994	0	255	0
17.6266251	6.89363718	0.766812444	0	255	0
17.6266251	6.89363718	0.871124983	0	255	0
17.6382484	6.89363718	0.766812444	0	255	0
17.6266251	6.88472462	0.871124983	0	255	0
17.6382484	6.88472462	0.766812444	0	255	0
17.6266251	6.88472462	0.766812444	0	255	0
17.6498737	6.89363718	0.871124983	0	255	0
17.6382484	6.89363718	0.766812444	0	255	0
17.661499	6.89363718	0.662499964	0	255	0
17.6382484	6.88918114	0.871124983	0	255	0
17.6498737	6.88918114	0.662499964	0	255	0
17.6382484	6.88472462	0.662499964	0	255	0
17.661499	6.90254974	1.49699998	0	255	0
17.661499	6.90254974	1.18406248	0	255	0
17.7080002	6.90254974	1.18406248	0	255	0
17.7080002	6.90254974	0.662499964	0	255	0
17.661499	6.88472462	1.18406248	0	255	0
17.7080002	6.88472462	1.18406248	0	255	0
17.7080002	6.88472462	1.49699998	0	255	0
17.6266251	6.88026857	0.766812444	0	255	0
17.6266251	6.88026857	0.871124983	0	255	0
17.6382484	6.88026857	0.662499964	0	255	0
17.6382484	6.88026857	0.766812444	0	255	0
17.6266251	6.87581253	0.662499964	0	255	0
17.6382484	6.87581253	0.766812444	0	255	0
17.6266251	6.87581253	0.766812444	0	255	0
17.6382484	6.88026857	0.766812444	0	255	0
17.6382484	6.88026857	0.662499964	0	255	0
17.6498737	6.88026857	0.871124983	0	255	0
17.6382484	6.87581253	0.766812444	0	255	0
17.661499	6.88026857	0.662499964	0	255	0
17.661499	6.88026857	0.766812444	0	255	0
17.661499	6.87581253	0.766812444	0	255	0
17.6149998	6.87581253	0.975437462	0	255	0
17.6149998	6.87581253	0.662499964	0	255	0
17.6382484	6.87581253	0.975437462	0	255	0
17.6266251	6.87135601	0.871124983	0	255	0
17.6149998	6.86689997	0.975437462	0	255	0
17.6382484	6.86689997	0.662499964	0	255	0
17.6382484	6.86689997	0.975437462	0	255	0
17.6382484	6.87581253	0.766812444	0	255	0
17.661499	6.87581253	0.766812444	0	255	0
17.661499	6.87135601	0.662499964	0	255	0
17.661499	6.87135601	0.766812444	0	255	0
17.6498737	6.87135601	0.871124983	0	255	0
17.6498737	6.86689997	0.662499964	0	255	0
17.6498737	6.86689997	0.766812444	0	255	0
17.6382484	6.86689997	0.766812444	0	255	0
17.661499	6.87581253	1.07974994	0	255	0
17.661499	6.87581253	1.18406248	0	255	0
17.661499	6.87135601	1.07974994	0	255	0
17.6847496	6.87581253	1.18406248	0	255	0
17.661499	6.86689997	1.49699998	0	255	0
17.6847496	6.87135601	1.18406248	0	255	0
17.6847496	6.87135601	1.07974994	0	255	0
17.661499	6.87135601	1.2883749	0	255	0
17.6731243	6.87135601	1.07974994	0	255	0
17.6731243	6.87135601	1.07974994	0	255	0
17.6731243	6.86689997	1.2883749	0	255	0
17.6731243	6.86689997	1.18406248	0	255	0
17.661499	6.86689997	1.18406248	0	255	0
17.6149998	6.88472462	0.975437462	0	255	0
17.6382484	6.88472462	0.975437462	0	255	0
17.6266251	6.88026857	0.871124983	0	255	0
17.6149998	6.87581253	0.975437462	0	255	0
17.6382484	6.88026857	0.871124983	0	255	0
17.6266251	6.87581253	0.871124983	0	255	0
17.6382484	6.88472462	0.871124983	0	255	0
17.661499	6.88472462	0.871124983	0	255	0
17.6498737	6.88026857	0.871124983	0	255	0
17.6266251	6.88472462	0.662499964	0	255	0
17.6266251	6.88472462	0.766812444	0	255	0
17.6382484	6.88472462	0.766812444	0	255	0
17.6382484	6.88472462	0.662499964	0	255	0
17.6382484	6.88026857	0.662499964	0	255	0
17.6266251	6.88026857	0.662499964	0	255	0
17.6382484	6.88026857	0.871124983	0	255	0
17.6266251	6.87581253	0.871124983	0	255	0
17.6382484	6.87581253	0.766812444	0	255	0
17.6266251	6.87581253	0.766812444	0	255	0
17.6382484	6.88472462	1.07974994	0	255	0
17.6382484	6.88472462	0.975437462	0	255	0
17.661499	6.88472462	0.975437462	0	255	0
17.6382484	6.87581253	0.975437462	0	255	0
17.661499	6.87581253	0.975437462	0	255	0
17.661499	6.87581253	1.07974994	0	255	0
17.6149998	6.87581253	0.766812444	0	255	0
17.6382484	6.87581253	0.766812444	0	255	0
17.6266251	6.87135601	0.871124983	0	255	0
17.6149998	6.86689997	0.766812444	0	255	0
17.6382484	6.86689997	0.766812444	0	255	0
17.661499	6.87135601	1.07974994	0	255	0
17.6498737	6.87135601	0.871124983	0	255	0
17.6498737	6.86689997	1.07974994	0	255	0
17.661499	6.86689997	0.975437462	0	255	0
17.6149998	6.87581253	0.766812444	0	255	0
17.6266251	6.87581253	0.662499964	0	255	0
17.6266251	6.87135601	0.662499964	0	255	0
17.6149998	6.87135601	0.662499964	0	255	0
17.6149998	6.86689997	0.662499964	0	255	0
17.661499	6.87581253	0.662499964	0	255	0
17.6498737	6.87135601	0.662499964	0	255	0
17.6731243	6.88026857	0.871124983	0	255	0
17.6963749	6.88472462	1.07974994	0	255	0
17.6847496	6.88026857	1.07974994	0	255	0
17.6963749	6.88026857	0.871124983	0	255	0
17.6963749	6.88472462	0.871124983	0	255	0
17.6847496	6.88026857	0.871124983	0	255	0
17.6847496	6.88472462	0.662499964	0	255	0
17.6731243	6.88026857	0.662499964	0	255	0
17.661499	6.86689997	1.07974994	0	255	0
17.6847496	6.88472462	1.07974994	0	255	0
17.6847496	6.88472462	0.975437462	0	255	0
17.7080002	6.88472462	0.975437462	0	255	0
17.7080002	6.88472462	0.662499964	0	255	0
17.6847496	6.87581253	0.975437462	0	255	0
17.7080002	6.87581253	0.975437462	0	255	0
17.7080002	6.87581253	1.07974994	0	255	0
17.661499	6.87581253	0.766812444	0	255	0
17.6731243	6.87581253	0.662499964	0	255	0
17.6731243	6.87581253	0.766812444	0	255	0
17.661499	6.87135601	0.662499964	0	255	0
17.6731243	6.87135601	0.871124983	0	255	0
17.6731243	6.87135601	0.766812444	0	255	0
17.661499	6.87135601	0.766812444	0	255	0
17.6731243	6.87581253	0.871124983	0	255	0
17.661499	6.87135601	0.871124983	0	255	0
17.6731243	6.87135601	0.662499964	0	255	0
17.6731243	6.87581253	0.662499964	0	255	0
17.661499	6.86689997	0.766812444	0	255	0
17.6731243	6.86689997	0.766812444	0	255	0
17.6731243	6.86689997	0.662499964	0	255	0
17.6033745	6.89809322	0.558187485	0	255	0
17.6033745	6.89809322	0.453874975	0	255	0
17.6149998	6.89809322	0.662499964	0	255	0
17.6149998	6.89809322	0.558187485	0	255	0
17.6033745	6.89363718	0.662499964	0	255	0
17.6149998	6.89363718	0.662499964	0	255	0
17.6149998	6.89363718	0.558187485	0	255	0
17.6033745	6.89363718	0.558187485	0	255	0
17.5917511	6.88918114	0.453874975	0	255	0
17.5917511	6.88918114	0.558187485	0	255	0
17.5917511	6.88472462	0.558187485	0	255	0
17.6149998	6.88918114	0.558187485	0	255	0
17.6149998	6.88918114	0.453874975	0	255	0
17.6149998	6.88472462	0.558187485	0	255	0
17.5685005	6.88472462	0.453874975	0	255	0
17.5801258	6.88918114	0.349562466	0	255	0
17.5917511	6.88918114	0.349562466	0	255	0
17.5917511	6.88918114	0.245249987	0	255	0
17.5801258	6.88472462	0.349562466	0	255	0
17.5917511	6.88472462	0.349562466	0	255	0
17.5801258	6.88472462	0.245249987	0	255	0
17.6033745	6.88918114	0.245249987	0	255	0
17.6149998	6.88918114	0.453874975	0	255	0
17.6149998	6.88918114	0.349562466	0	255	0
17.6033745	6.88472462	0.453874975	0	255	0
17.6149998	6.88472462	0.349562466	0	255	0
17.5917511	6.88918114	0.245249987	0	255	0
17.5917511	6.88918114	0.349562466	0	255	0
17.5917511	6.88472462	0.349562466	0	255	0
17.6033745	6.88472462	0.245249987	0	255	0
17.5219994	6.87135601	0.140937477	0	255	0
17.5219994	6.87135601	0.245249987	0	255	0
17.5336246	6.87135601	0.036624983	0	255	0
17.5336246	6.87135601	0.140937477	0	255	0
17.5336246	6.87135601	0.036624983	0	255	0
17.5336246	6.86689997	0.245249987	0	255	0
17.5336246	6.86689997	0.140937477	0	255	0
17.5219994	6.86689997	0.140937477	0	255	0
17.5801258	6.87135601	0.349562466	0	255	0
17.5801258	6.87135601	0.453874975	0	255	0
17.5917511	6.87135601	0.245249987	0	255	0
17.5917511	6.87135601	0.349562466	0	255	0
17.5801258	6.86689997	0.245249987	0	255	0
17.5917511	6.86689997	0.349562466	0	255	0
17.5801258	6.86689997	0.349562466	0	255	0
17.6033745	6.87135601	0.558187485	0	255	0
17.6149998	6.87135601	0.558187485	0	255	0
17.6149998	6.87135601	0.453874975	0	255	0
17.6033745	6.86689997	0.558187485	0	255	0
17.6149998	6.86689997	0.558187485	0	255	0
17.6033745	6.86689997	0.453874975	0	255	0
17.5801258	6.87135601	0.245249987	0	255	0
17.5917511	6.87135601	0.453874975	0	255	0
17.5801258	6.86689997	0.453874975	0	255	0
17.5917511	6.86689997	0.453874975	0	255	0
17.5685005	6.86689997	0.453874975	0	255	0
17.5917511	6.87135601	0.245249987	0	255	0
17.5917511	6.86689997	0.245249987	0	255	0
17.5801258	6.86689997	0.245249987	0	255	0
17.5917511	6.87135601	0.349562466	0	255	0
17.5917511	6.87135601	0.453874975	0	255	0
17.6033745	6.87135601	0.245249987	0	255	0
17.5917511	6.86689997	0.349562466	0	255	0
17.6149998	6.87135601	0.453874975	0	255	0
17.6149998	6.87135601	0.349562466	0	255	0
17.6149998	6.86689997	0.349562466	0	255	0
17.6266251	6.89809322	0.558187485	0	255	0
17.6266251	6.89809322	0.453874975	0	255	0
17.6382484	6.89809322	0.662499964	0	255	0
17.6382484	6.89809322	0.558187485	0	255	0
17.6266251	6.89363718	0.662499964	0	255	0
17.6382484	6.89363718	0.558187485	0	255	0
17.6266251	6.89363718	0.558187485	0	255	0
17.6382484	6.90254974	0.662499964	0	255	0
17.6382484	6.89809322	0.662499964	0	255	0
17.6382484	6.90254974	0.453874975	0	255	0
17.6382484	6.89809322	0.453874975	0	255	0
17.661499	6.90254974	0.453874975	0	255	0
17.661499	6.89809322	0.453874975	0	255	0
17.6498737	6.89363718	0.662499964	0	255	0
17.661499	6.89363718	0.558187485	0	255	0
17.6498737	6.89363718	0.558187485	0	255	0
17.6382484	6.90254974	0.662499964	0	255	0
17.6382484	6.90254974	0.558187485	0	255	0
17.661499	6.90254974	0.558187485	0	255	0
17.6382484	6.89363718	0.558187485	0	255	0
17.661499	6.89363718	0.558187485	0	255	0
17.661499	6.89363718	0.662499964	0	255	0
17.6382484	6.89363718	0.453874975	0	255	0
17.6498737	6.89363718	0.662499964	0	255	0
17.6498737	6.89363718	0.453874975	0	255	0
17.6382484	6.88918114	0.558187485	0	255	0
17.6382484	6.88918114	0.662499964	0	255	0
17.6498737	6.88918114	0.453874975	0	255	0
17.6382484	6.88472462	0.558187485	0	255	0
17.6498737	6.88472462	0.453874975	0	255	0
17.6266251	6.88918114	0.349562466	0	255	0
17.6266251	6.88918114	0.245249987	0	255	0
17.6382484	6.88918114	0.453874975	0	255	0
17.6382484	6.88918114	0.349562466	0	255	0
17.6266251	6.88472462	0.453874975	0	255	0
17.6382484	6.88472462	0.349562466	0	255	0
17.6266251	6.88472462	0.349562466	0	255	0
17.6498737	6.89363718	0.453874975	0	255	0
17.6149998	6.88472462	0.662499964	0	255	0
17.6382484	6.89363718	0.349562466	0	255	0
17.661499	6.89363718	0.245249987	0	255	0
17.6382484	6.88918114	0.453874975	0	255	0
17.6498737	6.88918114	0.245249987	0	255	0
17.6382484	6.88472462	0.245249987	0	255	0
17.6847496	6.90254974	0.453874975	0	255	0
17.6731243	6.89809322	0.453874975	0	255	0
17.6847496	6.90254974	0.558187485	0	255	0
17.6963749	6.90254974	0.662499964	0	255	0
17.6963749	6.90254974	0.558187485	0	255	0
17.6963749	6.89809322	0.453874975	0	255	0
17.6963749	6.89363718	0.662499964	0	255	0
17.6847496	6.89809322	0.453874975	0	255	0
17.6963749	6.89363718	0.453874975	0	255	0
17.6731243	6.90254974	0.453874975	0	255	0
17.6847496	6.90254974	0.349562466	0	255	0
17.6847496	6.90254974	0.245249987	0	255	0
17.6731243	6.89809322	0.245249987	0	255	0
17.6847496	6.89809322	0.453874975	0	255	0
17.6847496	6.90254974	0.140937477	0	255	0
17.6847496	6.90254974	0.453874975	0	255	0
17.7080002	6.90254974	0.453874975	0	255	0
17.7080002	6.90254974	0.140937477	0	255	0
17.6847496	6.89363718	-0.172000006	0	255	0
17.7080002	6.89363718	0.453874975	0	255	0
17.7080002	6.89363718	0.140937477	0	255	0
17.6847496	6.89363718	0.140937477	0	255	0
17.661499	6.89363718	0.349562466	0	255	0
17.6847496	6.89363718	0.349562466	0	255	0
17.6731243	6.88918114	0.453874975	0	255	0
17.661499	6.88472462	0.349562466	0	255	0
17.6847496	6.88472462	0.349562466	0	255	0
17.6847496	6.89363718	0.558187485	0	255	0
17.6963749	6.89363718	0.662499964	0	255	0
17.6963749	6.89363718	0.558187485	0	255	0
17.6847496	6.88918114	0.662499964	0	255	0
17.6963749	6.88918114	0.453874975	0	255	0
17.6847496	6.88918114	0.453874975	0	255	0
17.6847496	6.88472462	0.558187485	0	255	0
17.6963749	6.88472462	0.558187485	0	255	0
17.6963749	6.88472462	0.453874975	0	255	0
17.6731243	6.88918114	0.245249987	0	255	0
17.6847496	6.89363718	0.349562466	0	255	0
17.6963749	6.89363718	0.349562466	0	255	0
17.6963749	6.89363718	0.245249987	0	255	0
17.6847496	6.88918114	0.453874975	0	255	0
17.6963749	6.88918114	0.245249987	0	255	0
17.6963749	6.88918114	0.245249987	0	255	0
17.6963749	6.88472462	0.453874975	0	255	0
17.6963749	6.88472462	0.245249987	0	255	0
17.6149998	6.90254974	0.140937492	0	255	0
17.6149998	6.90254974	0.245249987	0	255	0
17.6149998	6.89809322	0.245249987	0	255	0
17.6149998	6.89809322	0.140937492	0	255	0
17.6382484	6.89809322	0.245249987	0	255	0
17.6266251	6.90254974	0.0366249979	0	255	0
17.6382484	6.89809322	0.0366249979	0	255	0
17.6149998	6.89363718	0.245249987	0	255	0
17.661499	6.90254974	0.0366249979	0	255	0
17.6498737	6.89809322	0.0366249979	0	255	0
17.661499	6.89363718	0.0366249979	0	255	0
17.6266251	6.89809322	-0.067687504	0	255	0
17.6266251	6.89809322	-0.172000006	0	255	0
17.6382484	6.89809322	0.0366249979	0	255	0
17.6382484	6.89809322	-0.067687504	0	255	0
17.6266251	6.89363718	0.0366249979	0	255	0
17.6382484	6.89363718	-0.067687504	0	255	0
17.6266251	6.89363718	-0.067687504	0	255	0
17.6382484	6.90254974	0.245249987	0	255	0
17.6382484	6.90254974	0.140937492	0	255	0
17.661499	6.90254974	0.140937492	0	255	0
17.661499	6.90254974	-0.172000006	0	255	0
17.6382484	6.89363718	0.140937492	0	255	0
17.661499	6.89363718	0.140937492	0	255	0
17.661499	6.89363718	0.245249987	0	255	0
17.6498737	6.89363718	0.140937492	0	255	0
17.6498737	6.89363718	0.245249987	0	255	0
17.661499	6.89363718	0.140937492	0	255	0
17.6382484	6.88918114	0.140937492	0	255	0
17.6382484	6.88918114	0.245249987	0	255	0
17.6498737	6.88918114	0.0366249979	0	255	0
17.6382484	6.88472462	0.140937492	0	255	0
17.661499	6.88472462	0.140937492	0	255	0
17.661499	6.90254974	0.662499964	0	255	0
17.661499	6.90254974	0.349562466	0	255	0
17.7080002	6.90254974	0.349562466	0	255	0
17.7080002	6.90254974	-0.172000006	0	255	0
17.661499	6.88472462	0.349562466	0	255	0
17.7080002	6.88472462	0.349562466	0	255	0
17.7080002	6.88472462	0.662499964	0	255	0
17.6266251	6.88472462	-0.0676875114	0	255	0
17.6266251	6.88472462	-0.172000006	0	255	0
17.6382484	6.88472462	-0.0676875114	0	255	0
17.6266251	6.87581253	-0.172000006	0	255	0
17.6382484	6.87581253	-0.0676875114	0	255	0
17.6266251	6.87581253	-0.0676875114	0	255	0
17.6382484	6.88472462	-0.0676875114	0	255	0
17.661499	6.88472462	-0.0676875114	0	255	0
17.6498737	6.88026857	0.036624983	0	255	0
17.6382484	6.87581253	-0.0676875114	0	255	0
17.661499	6.87581253	-0.0676875114	0	255	0
17.6149998	6.87581253	0.140937477	0	255	0
17.6149998	6.87581253	-0.172000006	0	255	0
17.6382484	6.87581253	0.140937477	0	255	0
17.6266251	6.87135601	0.036624983	0	255	0
17.6149998	6.86689997	0.140937477	0	255	0
17.6382484	6.86689997	-0.172000006	0	255	0
17.6382484	6.86689997	0.140937477	0	255	0
17.6382484	6.87581253	-0.0676875114	0	255	0
17.661499	6.87581253	-0.0676875114	0	255	0
17.6498737	6.87135601	0.036624983	0	255	0
17.6382484	6.86689997	-0.0676875114	0	255	0
17.661499	6.86689997	-0.0676875114	0	255	0
17.6731243	6.88026857	0.453874975	0	255	0
17.6963749	6.88472462	0.662499964	0	255	0
17.6963749	6.88472462	0.453874975	0	255	0
17.6847496	6.88026857	0.453874975	0	255	0
17.6963749	6.88026857	0.453874975	0	255	0
17.6963749	6.87581253	0.662499964	0	255	0
17.6963749	6.87581253	0.558187485	0	255	0
17.6847496	6.87581253	0.558187485	0	255	0
17.6847496	6.88472462	0.245249987	0	255	0
17.6731243	6.88026857	0.245249987	0	255	0
17.6847496	6.88472462	0.662499964	0	255	0
17.6847496	6.88472462	0.558187485	0	255	0
17.7080002	6.88472462	0.558187485	0	255	0
17.7080002	6.88472462	0.245249987	0	255	0
17.6847496	6.87581253	0.558187485	0	255	0
17.7080002	6.87581253	0.558187485	0	255	0
17.7080002	6.87581253	0.662499964	0	255	0
17.661499	6.87581253	0.349562466	0	255	0
17.6847496	6.87581253	0.349562466	0	255	0
17.6847496	6.87135601	0.245249987	0	255	0
17.6847496	6.87135601	0.349562466	0	255	0
17.6731243	6.87135601	0.453874975	0	255	0
17.6731243	6.86689997	0.245249987	0	255	0
17.6731243	6.86689997	0.349562466	0	255	0
17.661499	6.86689997	0.349562466	0	255	0
17.6963749	6.87581253	0.662499964	0	255	0
17.6847496	6.87135601	0.662499964	0	255	0
17.6963749	6.87135601	0.453874975	0	255	0
17.6963749	6.87581253	0.453874975	0	255	0
17.6847496	6.86689997	0.662499964	0	255	0
17.6847496	6.87135601	0.453874975	0	255	0
17.6731243	6.87581253	0.453874975	0	255	0
17.661499	6.87135601	0.453874975	0	255	0
17.6731243	6.87135601	0.245249987	0	255	0
17.6731243	6.87581253	0.245249987	0	255	0
17.661499	6.86689997	0.453874975	0	255	0
17.661499	6.87135601	0.245249987	0	255	0
17.6382484	6.88472462	0.140937492	0	255	0
17.6382484	6.88472462	0.245249987	0	255	0
17.6382484	6.88026857	0.245249987	0	255	0
17.6382484	6.88026857	0.140937492	0	255	0
17.661499	6.88472462	0.140937492	0	255	0
17.661499	6.88026857	0.245249987	0	255	0
17.661499	6.88026857	0.140937492	0	255	0
17.661499	6.88472462	0.140937492	0	255	0
17.6731243	6.88472462	0.245249987	0	255	0
17.6731243	6.88472462	0.140937492	0	255	0
17.661499	6.88026857	0.245249987	0	255	0
17.6731243	6.88026857	0.0366249979	0	255	0
17.6731243	6.88026857	0.140937492	0	255	0
17.661499	6.88026857	0.140937492	0	255	0
