-4.14256239	6.96490002	0.0818750039	0	255	0
-4.14256239	6.96490002	0.115937501	0	255	0
-4.1321249	6.96490002	0.115937501	0	255	0
-4.14256239	6.95612526	0.115937501	0	255	0
-4.1321249	6.95612526	0.115937501	0	255	0
-4.14256239	6.95612526	0.0818750039	0	255	0
-4.1321249	6.96490002	0.115937501	0	255	0
-4.11124992	6.96490002	0.115937501	0	255	0
-4.11124992	6.96490002	0.0818750039	0	255	0
-4.1321249	6.95612526	0.115937501	0	255	0
-4.11124992	6.95612526	0.115937501	0	255	0
-4.15299988	6.96490002	0.0818750039	0	255	0
-4.1321249	6.96490002	0.0137500018	0	255	0
-4.14256239	6.96051264	0.0137500018	0	255	0
-4.15299988	6.95612526	0.0137500018	0	255	0
-4.1321249	6.96490002	0.150000006	0	255	0
-4.1321249	6.96490002	0.115937501	0	255	0
-4.11124992	6.96490002	0.115937501	0	255	0
-4.11124992	6.96490002	0.0137500018	0	255	0
-4.1321249	6.95612526	0.115937501	0	255	0
-4.11124992	6.95612526	0.115937501	0	255	0
-4.11124992	6.95612526	0.150000006	0	255	0
-4.12168741	6.95612526	0.0818750039	0	255	0
-4.12168741	6.95612526	0.115937501	0	255	0
-4.11124992	6.95612526	0.115937501	0	255	0
-4.12168741	6.9517374	0.115937501	0	255	0
-4.11124992	6.9517374	0.115937501	0	255	0
-4.11124992	6.9517374	0.0818750039	0	255	0
-4.1321249	6.94735003	0.150000006	0	255	0
-4.14256239	6.95612526	0.0818750039	0	255	0
-4.14256239	6.9517374	0.0137500018	0	255	0
-4.1321249	6.9517374	0.0818750039	0	255	0
-4.14256239	6.95612526	0.0137500018	0	255	0
-4.1321249	6.9517374	0.0137500018	0	255	0
-4.15299988	6.94735003	0.0818750039	0	255	0
-4.11124992	6.95612526	0.0478125028	0	255	0
-4.12168741	6.95612526	0.0137500018	0	255	0
-4.12168741	6.9517374	0.0137500018	0	255	0
-4.11124992	6.94735003	0.0818750039	0	255	0
-4.1321249	6.94735003	0.0137500018	0	255	0
-4.11124992	6.9517374	0.0137500018	0	255	0
-4.11124992	6.95612526	0.0478125028	0	255	0
-4.11124992	6.95612526	0.0818750039	0	255	0
-4.10081244	6.95612526	0.0818750039	0	255	0
-4.10081244	6.95612526	0.0478125028	0	255	0
-4.10081244	6.9517374	0.0137500018	0	255	0
-4.09037495	6.9517374	0.0818750039	0	255	0
-4.09037495	6.9517374	0.0478125028	0	255	0
-4.09037495	6.94735003	0.0818750039	0	255	0
-4.09037495	6.94735003	0.0478125028	0	255	0
-4.11124992	6.9517374	0.0137500018	0	255	0
-4.11124992	6.94735003	0.0818750039	0	255	0
-4.10081244	6.94735003	0.0137500018	0	255	0
-4.1321249	6.96490002	0.0137500018	0	255	0
-4.14256239	6.96051264	-0.0543750003	0	255	0
-4.1321249	6.96490002	-0.0203124993	0	255	0
-4.12168741	6.96490002	-0.0203124993	0	255	0
-4.12168741	6.96490002	-0.0543750003	0	255	0
-4.1321249	6.96051264	0.0137500018	0	255	0
-4.12168741	6.96051264	-0.0543750003	0	255	0
-4.12168741	6.96051264	-0.0543750003	0	255	0
-4.12168741	6.95612526	0.0137500018	0	255	0
-4.12168741	6.95612526	-0.0543750003	0	255	0
-4.1321249	6.96490002	-0.122500002	0	255	0
-4.14256239	6.96051264	-0.122500002	0	255	0
-4.15299988	6.95612526	-0.122500002	0	255	0
-4.1321249	6.96490002	0.0137500018	0	255	0
-4.1321249	6.96490002	-0.0203124993	0	255	0
-4.11124992	6.96490002	-0.0203124993	0	255	0
-4.11124992	6.96490002	-0.122500002	0	255	0
-4.1321249	6.95612526	-0.0203124993	0	255	0
-4.11124992	6.95612526	-0.0203124993	0	255	0
-4.11124992	6.95612526	0.0137500018	0	255	0
-4.14256239	6.95612526	-0.0884374976	0	255	0
-4.14256239	6.95612526	-0.122500002	0	255	0
-4.1321249	6.95612526	-0.0884374976	0	255	0
-4.14256239	6.9517374	-0.0543750003	0	255	0
-4.1321249	6.9517374	-0.122500002	0	255	0
-4.1321249	6.9517374	-0.0884374976	0	255	0
-4.14256239	6.9517374	-0.0884374976	0	255	0
-4.11124992	6.95612526	0.0137500018	0	255	0
-4.12168741	6.9517374	-0.0543750003	0	255	0
-4.14256239	6.95612526	-0.0543750003	0	255	0
-4.14256239	6.9517374	-0.122500002	0	255	0
-4.1321249	6.9517374	-0.0543750003	0	255	0
-4.14256239	6.95612526	-0.122500002	0	255	0
-4.1321249	6.9517374	-0.122500002	0	255	0
-4.15299988	6.94735003	-0.0543750003	0	255	0
-4.11124992	6.95612526	-0.0884374976	0	255	0
-4.12168741	6.95612526	-0.122500002	0	255	0
-4.12168741	6.9517374	-0.122500002	0	255	0
-4.1321249	6.94735003	-0.122500002	0	255	0
-4.11124992	6.9517374	-0.122500002	0	255	0
-4.11124992	6.95612526	0.0137500018	0	255	0
-4.11124992	6.95612526	0.0478125028	0	255	0
-4.09037495	6.95612526	0.0478125028	0	255	0
-4.11124992	6.94735003	0.0818750039	0	255	0
-4.11124992	6.94735003	0.0478125028	0	255	0
-4.09037495	6.94735003	0.0478125028	0	255	0
-4.09037495	6.94735003	0.0137500018	0	255	0
-4.1321249	6.94735003	-0.0884374976	0	255	0
-4.1321249	6.94735003	-0.122500002	0	255	0
-4.11124992	6.94735003	-0.122500002	0	255	0
-4.11124992	6.94735003	-0.0884374976	0	255	0
-4.12168741	6.94296265	-0.0543750003	0	255	0
-4.1321249	6.93857479	-0.0884374976	0	255	0
-4.11124992	6.93857479	-0.0884374976	0	255	0
-4.12168741	6.93857479	-0.0884374976	0	255	0
-4.12168741	6.93857479	-0.122500002	0	255	0
-4.11124992	6.93857479	-0.0884374976	0	255	0
-4.1321249	6.93418741	-0.0884374976	0	255	0
-4.1321249	6.93418741	-0.122500002	0	255	0
-4.12168741	6.93418741	-0.0543750003	0	255	0
-4.1321249	6.92980003	-0.0884374976	0	255	0
-4.11124992	6.92980003	0.150000006	0	255	0
-4.11124992	6.92980003	-0.0884374976	0	255	0
-4.09037495	6.94296265	0.0818750039	0	255	0
-4.09037495	6.94296265	0.115937501	0	255	0
-4.07993746	6.94296265	0.115937501	0	255	0
-4.09037495	6.93857479	0.115937501	0	255	0
-4.07993746	6.93857479	0.115937501	0	255	0
-4.07993746	6.93857479	0.0818750039	0	255	0
-4.10081244	6.94735003	0.0818750039	0	255	0
-4.09037495	6.94735003	0.0818750039	0	255	0
-4.09037495	6.94735003	0.0478125028	0	255	0
-4.11124992	6.94735003	0.0478125028	0	255	0
-4.10081244	6.94735003	0.0137500018	0	255	0
-4.11124992	6.94296265	0.0818750039	0	255	0
-4.10081244	6.94296265	0.0137500018	0	255	0
-4.09037495	6.93857479	0.0478125028	0	255	0
-4.10081244	6.93857479	0.0137500018	0	255	0
-4.09037495	6.94735003	0.150000006	0	255	0
-4.09037495	6.94735003	0.115937501	0	255	0
-4.06949997	6.94735003	0.115937501	0	255	0
-4.06949997	6.94735003	0.0137500018	0	255	0
-4.09037495	6.93857479	0.115937501	0	255	0
-4.06949997	6.93857479	0.115937501	0	255	0
-4.06949997	6.93857479	0.150000006	0	255	0
-4.11124992	6.93857479	0.0478125028	0	255	0
-4.11124992	6.93857479	0.150000006	0	255	0
-4.09037495	6.93857479	0.0478125028	0	255	0
-4.10081244	6.93418741	0.0818750039	0	255	0
-4.11124992	6.92980003	0.0478125028	0	255	0
-4.09037495	6.92980003	0.0478125028	0	255	0
-4.09037495	6.93418741	0.0818750039	0	255	0
-4.09037495	6.93418741	0.115937501	0	255	0
-4.07993746	6.93418741	0.115937501	0	255	0
-4.09037495	6.92980003	0.115937501	0	255	0
-4.07993746	6.92980003	0.115937501	0	255	0
-4.07993746	6.92980003	0.0818750039	0	255	0
-4.09037495	6.93857479	0.0478125028	0	255	0
-4.10081244	6.93857479	0.0137500018	0	255	0
-4.10081244	6.93418741	0.0137500018	0	255	0
-4.09037495	6.92980003	0.0478125028	0	255	0
-4.10081244	6.92980003	0.0137500018	0	255	0
-4.09037495	6.93857479	0.0478125028	0	255	0
-4.07993746	6.93857479	0.0818750039	0	255	0
-4.07993746	6.93857479	0.0478125028	0	255	0
-4.09037495	6.93418741	0.0818750039	0	255	0
-4.07993746	6.93418741	0.0137500018	0	255	0
-4.07993746	6.93418741	0.0478125028	0	255	0
-4.09037495	6.93418741	0.0478125028	0	255	0
-4.1321249	6.94735003	0.0137500018	0	255	0
-4.1321249	6.94735003	-0.0543750003	0	255	0
-4.1321249	6.94296265	-0.0543750003	0	255	0
-4.11124992	6.94735003	-0.0543750003	0	255	0
-4.12168741	6.94296265	-0.0543750003	0	255	0
-4.1321249	6.93857479	-0.0203124993	0	255	0
-4.12168741	6.93857479	-0.0543750003	0	255	0
-4.1321249	6.94735003	0.0137500018	0	255	0
-4.1321249	6.94735003	-0.0203124993	0	255	0
-4.11124992	6.94735003	-0.0203124993	0	255	0
-4.1321249	6.93857479	-0.0203124993	0	255	0
-4.11124992	6.93857479	-0.0203124993	0	255	0
-4.11124992	6.93857479	0.0137500018	0	255	0
-4.1321249	6.93857479	-0.0543750003	0	255	0
-4.12168741	6.93857479	0.0137500018	0	255	0
-4.12168741	6.93857479	-0.0543750003	0	255	0
-4.1321249	6.93418741	0.0137500018	0	255	0
-4.12168741	6.93418741	-0.0543750003	0	255	0
-4.1321249	6.93418741	-0.0543750003	0	255	0
-4.12168741	6.93857479	-0.0543750003	0	255	0
-4.12168741	6.93857479	-0.122500002	0	255	0
-4.11124992	6.93857479	-0.122500002	0	255	0
-4.1321249	6.93418741	-0.0543750003	0	255	0
-4.12168741	6.93418741	-0.122500002	0	255	0
-4.1321249	6.93418741	-0.122500002	0	255	0
-4.1321249	6.92980003	-0.122500002	0	255	0
-4.10081244	6.94735003	0.0137500018	0	255	0
-4.10081244	6.94735003	-0.0543750003	0	255	0
-4.10081244	6.94296265	-0.0543750003	0	255	0
-4.10081244	6.93857479	0.0137500018	0	255	0
-4.10081244	6.93857479	-0.0543750003	0	255	0
-4.10081244	6.94735003	-0.0543750003	0	255	0
-4.10081244	6.94735003	-0.122500002	0	255	0
-4.10081244	6.94296265	-0.122500002	0	255	0
-4.10081244	6.93857479	-0.0543750003	0	255	0
-4.10081244	6.93857479	-0.122500002	0	255	0
-4.11124992	6.93857479	-0.0884374976	0	255	0
-4.10081244	6.93857479	-0.122500002	0	255	0
-4.10081244	6.93857479	-0.0884374976	0	255	0
-4.10081244	6.93418741	-0.0543750003	0	255	0
-4.10081244	6.92980003	-0.122500002	0	255	0
-4.10081244	6.92980003	-0.0884374976	0	255	0
-4.11124992	6.92980003	-0.0884374976	0	255	0
-4.10081244	6.93857479	-0.0543750003	0	255	0
-4.10081244	6.93857479	-0.122500002	0	255	0
-4.10081244	6.93418741	-0.122500002	0	255	0
-4.10081244	6.92980003	-0.0543750003	0	255	0
-4.10081244	6.92980003	-0.122500002	0	255	0
-4.05906248	6.96490002	0.115937501	0	255	0
-4.05906248	6.96490002	0.150000006	0	255	0
-4.04862499	6.96490002	0.115937501	0	255	0
-4.05906248	6.96051264	0.0818750039	0	255	0
-4.04862499	6.96051264	0.150000006	0	255	0
-4.04862499	6.96051264	0.115937501	0	255	0
-4.05906248	6.96051264	0.115937501	0	255	0
-4.04862499	6.96051264	0.150000006	0	255	0
-4.02775002	6.96490002	0.150000006	0	255	0
-4.02775002	6.96051264	0.150000006	0	255	0
-4.04862499	6.96490002	0.0818750039	0	255	0
-4.04862499	6.96051264	0.0818750039	0	255	0
-4.02775002	6.96490002	0.0818750039	0	255	0
-4.02775002	6.96051264	0.0818750039	0	255	0
-4.04862499	6.96490002	0.150000006	0	255	0
-4.04862499	6.96490002	0.115937501	0	255	0
-4.02775002	6.96490002	0.115937501	0	255	0
-4.02775002	6.96490002	0.0137500018	0	255	0
-4.04862499	6.95612526	0.115937501	0	255	0
-4.02775002	6.95612526	0.115937501	0	255	0
-4.02775002	6.95612526	0.150000006	0	255	0
-4.04862499	6.95612526	0.0818750039	0	255	0
-4.0381875	6.95612526	0.0818750039	0	255	0
-4.0381875	6.95612526	0.115937501	0	255	0
-4.02775002	6.95612526	0.115937501	0	255	0
-4.02775002	6.95612526	0.0818750039	0	255	0
-4.0381875	6.9517374	0.115937501	0	255	0
-4.02775002	6.9517374	0.115937501	0	255	0
-4.02775002	6.9517374	0.0818750039	0	255	0
-4.04862499	6.94735003	0.150000006	0	255	0
-4.02775002	6.95612526	0.0478125028	0	255	0
-4.02775002	6.95612526	0.150000006	0	255	0
-4.01731253	6.95612526	0.0137500018	0	255	0
-4.01731253	6.95612526	0.0478125028	0	255	0
-4.02775002	6.9517374	0.0137500018	0	255	0
-4.01731253	6.9517374	0.0818750039	0	255	0
-4.01731253	6.9517374	0.0478125028	0	255	0
-4.02775002	6.9517374	0.0478125028	0	255	0
-4.02775002	6.95612526	0.0478125028	0	255	0
-4.02775002	6.95612526	0.0818750039	0	255	0
-4.01731253	6.95612526	0.0818750039	0	255	0
-4.01731253	6.95612526	0.0478125028	0	255	0
-4.02775002	6.9517374	0.0818750039	0	255	0
-4.01731253	6.9517374	0.0137500018	0	255	0
-4.01731253	6.9517374	0.0478125028	0	255	0
-4.02775002	6.9517374	0.0478125028	0	255	0
-4.01731253	6.94735003	0.150000006	0	255	0
-4.00687504	6.94735003	0.150000006	0	255	0
-4.01731253	6.94735003	0.0818750039	0	255	0
-4.00687504	6.94296265	0.0818750039	0	255	0
-4.02775002	6.93857479	0.150000006	0	255	0
-4.01731253	6.93857479	0.150000006	0	255	0
-4.00687504	6.93857479	0.115937501	0	255	0
-4.01731253	6.93857479	0.115937501	0	255	0
-4.01731253	6.94735003	0.0818750039	0	255	0
-4.01731253	6.94296265	0.0137500018	0	255	0
-4.00687504	6.94296265	0.0818750039	0	255	0
-4.01731253	6.94735003	0.0137500018	0	255	0
-4.00687504	6.94735003	0.0137500018	0	255	0
-4.00687504	6.94296265	0.0137500018	0	255	0
-4.02775002	6.93857479	0.0818750039	0	255	0
-4.00687504	6.94735003	0.150000006	0	255	0
-4.00687504	6.94735003	0.115937501	0	255	0
-3.98600006	6.94735003	0.115937501	0	255	0
-3.98600006	6.94735003	0.0137500018	0	255	0
-4.00687504	6.93857479	0.115937501	0	255	0
-3.98600006	6.93857479	0.115937501	0	255	0
-3.98600006	6.93857479	0.150000006	0	255	0
-4.01731253	6.93857479	0.0478125028	0	255	0
-4.01731253	6.93857479	0.0137500018	0	255	0
-4.00687504	6.93857479	0.0478125028	0	255	0
-4.02775002	6.93418741	0.0478125028	0	255	0
-4.02775002	6.93418741	0.0137500018	0	255	0
-4.01731253	6.93418741	0.0818750039	0	255	0
-4.02775002	6.92980003	0.0478125028	0	255	0
-4.00687504	6.92980003	0.0478125028	0	255	0
-4.00687504	6.93857479	0.115937501	0	255	0
-3.99643755	6.93857479	0.115937501	0	255	0
-3.99643755	6.93857479	0.0818750039	0	255	0
-4.00687504	6.93418741	0.115937501	0	255	0
-3.99643755	6.93418741	0.115937501	0	255	0
-4.00687504	6.93418741	0.0818750039	0	255	0
-4.01731253	6.93857479	0.0478125028	0	255	0
-4.01731253	6.93857479	0.0818750039	0	255	0
-4.00687504	6.93857479	0.0478125028	0	255	0
-4.01731253	6.93418741	0.0137500018	0	255	0
-4.00687504	6.93418741	0.0818750039	0	255	0
-4.00687504	6.93418741	0.0478125028	0	255	0
-4.01731253	6.93418741	0.0478125028	0	255	0
-4.1321249	6.96490002	-0.122500002	0	255	0
-4.14256239	6.96051264	-0.190625012	0	255	0
-4.1321249	6.96051264	-0.122500002	0	255	0
-4.12168741	6.96051264	-0.190625012	0	255	0
-4.12168741	6.96051264	-0.190625012	0	255	0
-4.12168741	6.95612526	-0.122500002	0	255	0
-4.1321249	6.96051264	-0.190625012	0	255	0
-4.12168741	6.95612526	-0.190625012	0	255	0
-4.1321249	6.96490002	-0.258750021	0	255	0
-4.14256239	6.96051264	-0.258750021	0	255	0
-4.15299988	6.95612526	-0.258750021	0	255	0
-4.1321249	6.96490002	-0.122500002	0	255	0
-4.1321249	6.96490002	-0.156562507	0	255	0
-4.11124992	6.96490002	-0.156562507	0	255	0
-4.11124992	6.96490002	-0.258750021	0	255	0
-4.1321249	6.95612526	-0.156562507	0	255	0
-4.11124992	6.95612526	-0.156562507	0	255	0
-4.11124992	6.95612526	-0.122500002	0	255	0
-4.14256239	6.95612526	-0.224687517	0	255	0
-4.14256239	6.95612526	-0.258750021	0	255	0
-4.1321249	6.95612526	-0.224687517	0	255	0
-4.14256239	6.9517374	-0.190625012	0	255	0
-4.1321249	6.9517374	-0.258750021	0	255	0
-4.1321249	6.9517374	-0.224687517	0	255	0
-4.14256239	6.9517374	-0.224687517	0	255	0
-4.12168741	6.95612526	-0.122500002	0	255	0
-4.12168741	6.95612526	-0.190625012	0	255	0
-4.12168741	6.9517374	-0.190625012	0	255	0
-4.11124992	6.9517374	-0.122500002	0	255	0
-4.11124992	6.9517374	-0.190625012	0	255	0
-4.14256239	6.95612526	-0.190625012	0	255	0
-4.14256239	6.9517374	-0.258750021	0	255	0
-4.1321249	6.9517374	-0.190625012	0	255	0
-4.14256239	6.95612526	-0.258750021	0	255	0
-4.1321249	6.9517374	-0.258750021	0	255	0
-4.15299988	6.94735003	-0.190625012	0	255	0
-4.12168741	6.95612526	-0.190625012	0	255	0
-4.12168741	6.95612526	-0.258750021	0	255	0
-4.12168741	6.9517374	-0.258750021	0	255	0
-4.11124992	6.9517374	-0.190625012	0	255	0
-4.1321249	6.94735003	-0.258750021	0	255	0
-4.11124992	6.9517374	-0.258750021	0	255	0
-4.11124992	6.9517374	-0.224687517	0	255	0
-4.11124992	6.9517374	-0.258750021	0	255	0
-4.10081244	6.9517374	-0.190625012	0	255	0
-4.10081244	6.9517374	-0.224687517	0	255	0
-4.10081244	6.9517374	-0.190625012	0	255	0
-4.10081244	6.94735003	-0.258750021	0	255	0
-4.10081244	6.94735003	-0.224687517	0	255	0
-4.11124992	6.94735003	-0.224687517	0	255	0
-4.15299988	6.96490002	-0.292812526	0	255	0
-4.15299988	6.96051264	-0.258750021	0	255	0
-4.15299988	6.96051264	-0.292812526	0	255	0
-4.1321249	6.96490002	-0.292812526	0	255	0
-4.1321249	6.96051264	-0.258750021	0	255	0
-4.1321249	6.96051264	-0.292812526	0	255	0
-4.1321249	6.96490002	-0.292812526	0	255	0
-4.12168741	6.96490002	-0.258750021	0	255	0
-4.1321249	6.96051264	-0.258750021	0	255	0
-4.12168741	6.96051264	-0.326875031	0	255	0
-4.1321249	6.96051264	-0.292812526	0	255	0
-4.12168741	6.96490002	-0.326875031	0	255	0
-4.11124992	6.96490002	-0.292812526	0	255	0
-4.11124992	6.96490002	-0.326875031	0	255	0
-4.11124992	6.96051264	-0.292812526	0	255	0
-4.11124992	6.96051264	-0.326875031	0	255	0
-4.1321249	6.95612526	-0.395000011	0	255	0
-4.1321249	6.9517374	-0.292812526	0	255	0
-4.1321249	6.9517374	-0.258750021	0	255	0
-4.12168741	6.9517374	-0.326875031	0	255	0
-4.1321249	6.94735003	-0.292812526	0	255	0
-4.11124992	6.9517374	-0.258750021	0	255	0
-4.1321249	6.94735003	-0.258750021	0	255	0
-4.11124992	6.9517374	-0.326875031	0	255	0
-4.11124992	6.94735003	-0.326875031	0	255	0
-4.12168741	6.94735003	-0.326875031	0	255	0
-4.1321249	6.94735003	-0.360937536	0	255	0
-4.1321249	6.94735003	-0.395000011	0	255	0
-4.11124992	6.94735003	-0.360937536	0	255	0
-4.12168741	6.94296265	-0.326875031	0	255	0
-4.1321249	6.93857479	-0.360937536	0	255	0
-4.11124992	6.93857479	-0.360937536	0	255	0
-4.12168741	6.93857479	-0.360937536	0	255	0
-4.12168741	6.93857479	-0.395000011	0	255	0
-4.11124992	6.93857479	-0.360937536	0	255	0
-4.1321249	6.93418741	-0.360937536	0	255	0
-4.1321249	6.93418741	-0.395000011	0	255	0
-4.12168741	6.93418741	-0.326875031	0	255	0
-4.1321249	6.92980003	-0.360937536	0	255	0
-4.11124992	6.92980003	-0.122500002	0	255	0
-4.11124992	6.92980003	-0.360937536	0	255	0
-4.10081244	6.94735003	-0.122500002	0	255	0
-4.10081244	6.94735003	-0.190625012	0	255	0
-4.10081244	6.94296265	-0.190625012	0	255	0
-4.10081244	6.93857479	-0.122500002	0	255	0
-4.10081244	6.93857479	-0.190625012	0	255	0
-4.10081244	6.94735003	-0.190625012	0	255	0
-4.10081244	6.94735003	-0.258750021	0	255	0
-4.10081244	6.94296265	-0.258750021	0	255	0
-4.10081244	6.93857479	-0.190625012	0	255	0
-4.10081244	6.93857479	-0.258750021	0	255	0
-4.11124992	6.93857479	-0.224687517	0	255	0
-4.10081244	6.93857479	-0.258750021	0	255	0
-4.10081244	6.93857479	-0.224687517	0	255	0
-4.10081244	6.93418741	-0.190625012	0	255	0
-4.10081244	6.92980003	-0.258750021	0	255	0
-4.10081244	6.92980003	-0.224687517	0	255	0
-4.11124992	6.92980003	-0.224687517	0	255	0
-4.10081244	6.93857479	-0.190625012	0	255	0
-4.10081244	6.93857479	-0.258750021	0	255	0
-4.10081244	6.93418741	-0.258750021	0	255	0
-4.10081244	6.92980003	-0.190625012	0	255	0
-4.10081244	6.92980003	-0.258750021	0	255	0
-4.11124992	6.92980003	-0.258750021	0	255	0
-4.1321249	6.94735003	-0.292812526	0	255	0
-4.1321249	6.94735003	-0.258750021	0	255	0
-4.11124992	6.94735003	-0.292812526	0	255	0
-4.12168741	6.94296265	-0.326875031	0	255	0
-4.1321249	6.93857479	-0.292812526	0	255	0
-4.11124992	6.93857479	-0.292812526	0	255	0
-4.12168741	6.93857479	-0.292812526	0	255	0
-4.12168741	6.93857479	-0.258750021	0	255	0
-4.11124992	6.93857479	-0.292812526	0	255	0
-4.12168741	6.93418741	-0.326875031	0	255	0
-4.11124992	6.93418741	-0.258750021	0	255	0
-4.11124992	6.93418741	-0.292812526	0	255	0
-4.12168741	6.93418741	-0.292812526	0	255	0
-4.11124992	6.94296265	-0.258750021	0	255	0
-4.09037495	6.94735003	-0.258750021	0	255	0
-4.09037495	6.94296265	-0.258750021	0	255	0
-4.11124992	6.94735003	-0.326875031	0	255	0
-4.11124992	6.94296265	-0.326875031	0	255	0
-4.09037495	6.94735003	-0.326875031	0	255	0
-4.09037495	6.94296265	-0.326875031	0	255	0
-4.07993746	6.93857479	-0.326875031	0	255	0
-4.07993746	6.93857479	-0.292812526	0	255	0
-4.06949997	6.93857479	-0.292812526	0	255	0
-4.06949997	6.93857479	-0.326875031	0	255	0
-4.06949997	6.93418741	-0.326875031	0	255	0
-4.09037495	6.92980003	-0.258750021	0	255	0
-4.07993746	6.93418741	-0.326875031	0	255	0
-4.06949997	6.93418741	-0.258750021	0	255	0
-4.07993746	6.92980003	-0.258750021	0	255	0
-4.06949997	6.92980003	-0.258750021	0	255	0
-4.06949997	6.92980003	-0.292812526	0	255	0
-4.07993746	6.92980003	-0.292812526	0	255	0
-4.1321249	6.92980003	-0.360937536	0	255	0
-4.1321249	6.92980003	-0.395000011	0	255	0
-4.1321249	6.92541218	-0.395000011	0	255	0
-4.1321249	6.92541218	-0.360937536	0	255	0
-4.11124992	6.92980003	-0.360937536	0	255	0
-4.12168741	6.9210248	-0.395000011	0	255	0
-4.11124992	6.9210248	-0.395000011	0	255	0
-4.11124992	6.9210248	-0.360937536	0	255	0
-4.12168741	6.9210248	-0.360937536	0	255	0
-4.11124992	6.92980003	-0.360937536	0	255	0
-4.09037495	6.92980003	-0.360937536	0	255	0
-4.10081244	6.92541218	-0.326875031	0	255	0
-4.11124992	6.9210248	-0.360937536	0	255	0
-4.09037495	6.9210248	-0.360937536	0	255	0
-4.09037495	6.92980003	-0.360937536	0	255	0
-4.07993746	6.92980003	-0.395000011	0	255	0
-4.07993746	6.92980003	-0.360937536	0	255	0
-4.07993746	6.92541218	-0.326875031	0	255	0
-4.07993746	6.9210248	-0.395000011	0	255	0
-4.07993746	6.9210248	-0.360937536	0	255	0
-4.09037495	6.9210248	-0.360937536	0	255	0
-4.11124992	6.9210248	-0.292812526	0	255	0
-4.11124992	6.9210248	-0.395000011	0	255	0
-4.09037495	6.9210248	-0.292812526	0	255	0
-4.10081244	6.91663742	-0.326875031	0	255	0
-4.11124992	6.91224957	-0.292812526	0	255	0
-4.09037495	6.91224957	-0.395000011	0	255	0
-4.09037495	6.91224957	-0.292812526	0	255	0
-4.09037495	6.9210248	-0.360937536	0	255	0
-4.06949997	6.9210248	-0.395000011	0	255	0
-4.06949997	6.9210248	-0.360937536	0	255	0
-4.07993746	6.91663742	-0.326875031	0	255	0
-4.09037495	6.91224957	-0.360937536	0	255	0
-4.06949997	6.91224957	-0.360937536	0	255	0
-4.11124992	6.91224957	-0.360937536	0	255	0
-4.11124992	6.91224957	-0.122500002	0	255	0
-4.09037495	6.91224957	-0.360937536	0	255	0
-4.10081244	6.90786219	-0.326875031	0	255	0
-4.11124992	6.90347481	-0.360937536	0	255	0
-4.09037495	6.90347481	-0.360937536	0	255	0
-4.09037495	6.91224957	-0.360937536	0	255	0
-4.06949997	6.91224957	-0.360937536	0	255	0
-4.07993746	6.90786219	-0.326875031	0	255	0
-4.09037495	6.90347481	-0.360937536	0	255	0
-4.06949997	6.90347481	-0.360937536	0	255	0
-4.11124992	6.90347481	-0.292812526	0	255	0
-4.11124992	6.90347481	-0.395000011	0	255	0
-4.09037495	6.90347481	-0.292812526	0	255	0
-4.10081244	6.89908695	-0.326875031	0	255	0
-4.11124992	6.89469957	-0.292812526	0	255	0
-4.09037495	6.89469957	-0.395000011	0	255	0
-4.09037495	6.89469957	-0.292812526	0	255	0
-4.09037495	6.90347481	-0.360937536	0	255	0
-4.06949997	6.90347481	-0.360937536	0	255	0
-4.07993746	6.89908695	-0.326875031	0	255	0
-4.09037495	6.89469957	-0.360937536	0	255	0
-4.06949997	6.89469957	0.150000006	0	255	0
-4.06949997	6.89469957	-0.360937536	0	255	0
-4.06949997	6.9210248	0.0137500018	0	255	0
-4.06949997	6.9210248	0.0478125028	0	255	0
-4.05906248	6.9210248	0.0478125028	0	255	0
-4.05906248	6.9210248	0.0137500018	0	255	0
-4.06949997	6.91224957	0.0818750039	0	255	0
-4.06949997	6.91663742	0.0137500018	0	255	0
-4.06949997	6.91663742	0.0818750039	0	255	0
-4.05906248	6.91663742	0.0137500018	0	255	0
-4.05906248	6.91663742	0.0137500018	0	255	0
-4.05906248	6.91224957	0.0818750039	0	255	0
-4.05906248	6.91224957	0.0478125028	0	255	0
-4.06949997	6.91224957	0.0478125028	0	255	0
-4.00687504	6.92541218	0.0818750039	0	255	0
-4.00687504	6.92541218	0.115937501	0	255	0
-3.99643755	6.92541218	0.115937501	0	255	0
-4.00687504	6.9210248	0.0137500018	0	255	0
-4.00687504	6.9210248	0.115937501	0	255	0
-3.99643755	6.9210248	0.115937501	0	255	0
-3.99643755	6.9210248	0.0818750039	0	255	0
-4.00687504	6.92980003	-0.0203124955	0	255	0
-4.00687504	6.92980003	0.0818750039	0	255	0
-3.98600006	6.92980003	0.0818750039	0	255	0
-3.98600006	6.92980003	-0.0203124955	0	255	0
-4.00687504	6.9210248	-0.122500002	0	255	0
-3.98600006	6.9210248	0.0818750039	0	255	0
-3.98600006	6.9210248	-0.0203124955	0	255	0
-4.00687504	6.9210248	-0.0203124955	0	255	0
-4.00687504	6.9210248	0.115937501	0	255	0
-3.98600006	6.9210248	0.115937501	0	255	0
-4.00687504	6.91224957	0.115937501	0	255	0
-3.98600006	6.91224957	0.115937501	0	255	0
-3.98600006	6.91224957	0.0818750039	0	255	0
-3.99643755	6.9210248	0.0818750039	0	255	0
-3.99643755	6.91663742	0.0137500018	0	255	0
-3.98600006	6.91663742	0.0818750039	0	255	0
-3.99643755	6.9210248	0.0137500018	0	255	0
-3.98600006	6.9210248	0.0137500018	0	255	0
-3.98600006	6.91663742	0.0137500018	0	255	0
-4.05906248	6.89908695	-0.0203124993	0	255	0
-4.05906248	6.89908695	-0.0543750003	0	255	0
-4.04862499	6.89908695	0.0137500018	0	255	0
-4.04862499	6.89908695	-0.0203124993	0	255	0
-4.05906248	6.89469957	0.0137500018	0	255	0
-4.04862499	6.89469957	-0.122500002	0	255	0
-4.04862499	6.89469957	-0.0203124993	0	255	0
-4.05906248	6.89469957	-0.0203124993	0	255	0
-4.04862499	6.89908695	-0.0884374976	0	255	0
-4.04862499	6.89908695	-0.122500002	0	255	0
-4.0381875	6.89908695	-0.0543750003	0	255	0
-4.0381875	6.89908695	-0.0884374976	0	255	0
-4.0381875	6.89908695	-0.0543750003	0	255	0
-4.0381875	6.89469957	-0.122500002	0	255	0
-4.0381875	6.89469957	-0.0884374976	0	255	0
-4.04862499	6.89469957	-0.0884374976	0	255	0
-3.99643755	6.91224957	0.150000006	0	255	0
-3.98600006	6.91224957	0.150000006	0	255	0
-3.99643755	6.90786219	0.0818750039	0	255	0
-3.98600006	6.90786219	0.150000006	0	255	0
-4.00687504	6.91224957	0.0818750039	0	255	0
-4.00687504	6.91224957	0.115937501	0	255	0
-4.00687504	6.90786219	0.115937501	0	255	0
-4.00687504	6.90786219	0.0818750039	0	255	0
-3.98600006	6.91224957	0.0818750039	0	255	0
-3.99643755	6.90347481	0.115937501	0	255	0
-3.98600006	6.90347481	0.115937501	0	255	0
-3.99643755	6.90347481	0.0818750039	0	255	0
-4.00687504	6.91224957	0.150000006	0	255	0
-4.00687504	6.91224957	0.115937501	0	255	0
-3.98600006	6.91224957	0.115937501	0	255	0
-3.98600006	6.91224957	0.0137500018	0	255	0
-4.00687504	6.90347481	0.115937501	0	255	0
-3.98600006	6.90347481	0.115937501	0	255	0
-3.98600006	6.90347481	0.150000006	0	255	0
-4.00687504	6.90347481	0.115937501	0	255	0
-3.98600006	6.90347481	0.115937501	0	255	0
-4.00687504	6.89469957	0.115937501	0	255	0
-3.98600006	6.89469957	0.115937501	0	255	0
-4.01731253	6.90347481	0.0478125028	0	255	0
-4.01731253	6.90347481	0.0818750039	0	255	0
-4.00687504	6.90347481	0.0478125028	0	255	0
-4.01731253	6.89908695	0.0137500018	0	255	0
-4.00687504	6.89908695	0.0818750039	0	255	0
-4.00687504	6.89908695	0.0478125028	0	255	0
-4.01731253	6.89908695	0.0478125028	0	255	0
-3.99643755	6.89908695	0.0137500018	0	255	0
-3.98600006	6.89908695	0.0818750039	0	255	0
-3.99643755	6.89469957	0.0818750039	0	255	0
-4.00687504	6.89908695	0.0137500018	0	255	0
-4.00687504	6.89908695	0.0478125028	0	255	0
-4.00687504	6.89469957	0.0478125028	0	255	0
-4.00687504	6.89469957	0.0137500018	0	255	0
-3.98600006	6.89908695	0.0137500018	0	255	0
-4.05906248	6.89908695	-0.0884374976	0	255	0
-4.05906248	6.89908695	-0.0543750003	0	255	0
-4.04862499	6.89908695	-0.122500002	0	255	0
-4.04862499	6.89908695	-0.0884374976	0	255	0
-4.05906248	6.89469957	-0.122500002	0	255	0
-4.04862499	6.89469957	-0.0884374976	0	255	0
-4.05906248	6.89469957	-0.0884374976	0	255	0
-4.04862499	6.89908695	0.0137500018	0	255	0
-4.0381875	6.89908695	-0.0543750003	0	255	0
-4.0381875	6.89908695	-0.0543750003	0	255	0
-4.0381875	6.89469957	0.0137500018	0	255	0
-4.04862499	6.89908695	-0.0543750003	0	255	0
-4.0381875	6.89469957	-0.0543750003	0	255	0
-4.05906248	6.89908695	-0.122500002	0	255	0
-4.04862499	6.89908695	-0.0543750003	0	255	0
-4.05906248	6.89469957	-0.0543750003	0	255	0
-4.06949997	6.89469957	-0.0543750003	0	255	0
-4.04862499	6.89908695	-0.122500002	0	255	0
-4.05906248	6.89469957	-0.122500002	0	255	0
-4.04862499	6.89908695	-0.0543750003	0	255	0
-4.0381875	6.89908695	-0.122500002	0	255	0
-4.0381875	6.89908695	-0.122500002	0	255	0
-4.0381875	6.89469957	-0.0543750003	0	255	0
-4.04862499	6.89908695	-0.122500002	0	255	0
-4.0381875	6.89469957	-0.122500002	0	255	0
-3.99643755	6.89908695	-0.0203124993	0	255	0
-3.99643755	6.89908695	-0.0543750003	0	255	0
-3.98600006	6.89908695	0.0137500018	0	255	0
-3.98600006	6.89908695	-0.0203124993	0	255	0
-3.99643755	6.89469957	0.0137500018	0	255	0
-3.98600006	6.89469957	-0.0203124993	0	255	0
-3.99643755	6.89469957	-0.0203124993	0	255	0
-4.12168741	6.92980003	-0.122500002	0	255	0
-4.12168741	6.92541218	-0.190625012	0	255	0
-4.11124992	6.92541218	-0.122500002	0	255	0
-4.12168741	6.92980003	-0.190625012	0	255	0
-4.11124992	6.92980003	-0.190625012	0	255	0
-4.12168741	6.9210248	-0.156562507	0	255	0
-4.11124992	6.9210248	-0.156562507	0	255	0
-4.11124992	6.9210248	-0.190625012	0	255	0
-4.12168741	6.9210248	-0.190625012	0	255	0
-4.1321249	6.92980003	-0.122500002	0	255	0
-4.1321249	6.92980003	-0.156562507	0	255	0
-4.11124992	6.92980003	-0.156562507	0	255	0
-4.1321249	6.9210248	-0.156562507	0	255	0
-4.11124992	6.9210248	-0.156562507	0	255	0
-4.11124992	6.9210248	-0.122500002	0	255	0
-4.1321249	6.9210248	-0.190625012	0	255	0
-4.10081244	6.92980003	-0.122500002	0	255	0
-4.10081244	6.92980003	-0.190625012	0	255	0
-4.10081244	6.92541218	-0.190625012	0	255	0
-4.09037495	6.92541218	-0.122500002	0	255	0
-4.09037495	6.92541218	-0.190625012	0	255	0
-4.10081244	6.92980003	-0.190625012	0	255	0
-4.10081244	6.92980003	-0.258750021	0	255	0
-4.10081244	6.92541218	-0.258750021	0	255	0
-4.09037495	6.92541218	-0.190625012	0	255	0
-4.09037495	6.92541218	-0.258750021	0	255	0
-4.11124992	6.9210248	-0.224687517	0	255	0
-4.09037495	6.9210248	-0.224687517	0	255	0
-4.10081244	6.91663742	-0.190625012	0	255	0
-4.11124992	6.91224957	-0.224687517	0	255	0
-4.09037495	6.91224957	-0.224687517	0	255	0
-4.07993746	6.9210248	-0.122500002	0	255	0
-4.07993746	6.9210248	-0.190625012	0	255	0
-4.09037495	6.91663742	-0.190625012	0	255	0
-4.07993746	6.91663742	-0.190625012	0	255	0
-4.07993746	6.91224957	-0.122500002	0	255	0
-4.07993746	6.91224957	-0.156562507	0	255	0
-4.09037495	6.91224957	-0.156562507	0	255	0
-4.10081244	6.91663742	-0.258750021	0	255	0
-4.09037495	6.91224957	-0.190625012	0	255	0
-4.09037495	6.91224957	-0.258750021	0	255	0
-4.12168741	6.92980003	-0.292812526	0	255	0
-4.12168741	6.92980003	-0.258750021	0	255	0
-4.11124992	6.92980003	-0.292812526	0	255	0
-4.12168741	6.9210248	-0.258750021	0	255	0
-4.11124992	6.9210248	-0.258750021	0	255	0
-4.11124992	6.9210248	-0.292812526	0	255	0
-4.12168741	6.9210248	-0.292812526	0	255	0
-4.11124992	6.92980003	-0.122500002	0	255	0
-4.11124992	6.92980003	-0.224687517	0	255	0
-4.09037495	6.92980003	-0.224687517	0	255	0
-4.09037495	6.92980003	-0.258750021	0	255	0
-4.11124992	6.91224957	-0.224687517	0	255	0
-4.06949997	6.9210248	-0.224687517	0	255	0
-4.06949997	6.9210248	-0.258750021	0	255	0
-4.06949997	6.91224957	-0.224687517	0	255	0
-4.06949997	6.91224957	-0.122500002	0	255	0
-4.10081244	6.91224957	-0.122500002	0	255	0
-4.11124992	6.91224957	-0.156562507	0	255	0
-4.11124992	6.90786219	-0.122500002	0	255	0
-4.10081244	6.90786219	-0.190625012	0	255	0
-4.07993746	6.91224957	-0.122500002	0	255	0
-4.07993746	6.91224957	-0.190625012	0	255	0
-4.07993746	6.90786219	-0.190625012	0	255	0
-4.07993746	6.90347481	-0.122500002	0	255	0
-4.07993746	6.90347481	-0.190625012	0	255	0
-4.11124992	6.91224957	-0.224687517	0	255	0
-4.10081244	6.91224957	-0.258750021	0	255	0
-4.09037495	6.91224957	-0.258750021	0	255	0
-4.10081244	6.90786219	-0.258750021	0	255	0
-4.11124992	6.90347481	-0.224687517	0	255	0
-4.10081244	6.90347481	-0.258750021	0	255	0
-4.09037495	6.91224957	-0.122500002	0	255	0
-4.09037495	6.91224957	-0.156562507	0	255	0
-4.06949997	6.91224957	-0.156562507	0	255	0
-4.06949997	6.91224957	-0.258750021	0	255	0
-4.09037495	6.90347481	-0.156562507	0	255	0
-4.06949997	6.90347481	-0.156562507	0	255	0
-4.06949997	6.90347481	-0.122500002	0	255	0
-4.11124992	6.90347481	-0.224687517	0	255	0
-4.09037495	6.90347481	-0.224687517	0	255	0
-4.10081244	6.89908695	-0.190625012	0	255	0
-4.11124992	6.89469957	-0.224687517	0	255	0
-4.09037495	6.89469957	-0.224687517	0	255	0
-4.07993746	6.90347481	-0.122500002	0	255	0
-4.07993746	6.90347481	-0.190625012	0	255	0
-4.09037495	6.89908695	-0.190625012	0	255	0
-4.07993746	6.89908695	-0.190625012	0	255	0
-4.09037495	6.89469957	-0.156562507	0	255	0
-4.06949997	6.89908695	-0.122500002	0	255	0
-4.06949997	6.89908695	-0.156562507	0	255	0
-4.06949997	6.89469957	-0.156562507	0	255	0
-4.11124992	6.90347481	-0.258750021	0	255	0
-4.10081244	6.89908695	-0.258750021	0	255	0
-4.11124992	6.89469957	-0.258750021	0	255	0
-4.07993746	6.90347481	-0.190625012	0	255	0
-4.09037495	6.89908695	-0.190625012	0	255	0
-4.07993746	6.89908695	-0.258750021	0	255	0
-4.07993746	6.90347481	-0.258750021	0	255	0
-4.09037495	6.89469957	-0.224687517	0	255	0
-4.07993746	6.89469957	-0.224687517	0	255	0
-4.07993746	6.89469957	-0.258750021	0	255	0
-4.11124992	6.91224957	-0.292812526	0	255	0
-4.10081244	6.91224957	-0.326875031	0	255	0
-4.09037495	6.91224957	-0.326875031	0	255	0
-4.10081244	6.90786219	-0.326875031	0	255	0
-4.11124992	6.90347481	-0.292812526	0	255	0
-4.10081244	6.90347481	-0.326875031	0	255	0
-4.09037495	6.91224957	-0.292812526	0	255	0
-4.07993746	6.91224957	-0.258750021	0	255	0
-4.07993746	6.91224957	-0.292812526	0	255	0
-4.07993746	6.90786219	-0.326875031	0	255	0
-4.07993746	6.90347481	-0.258750021	0	255	0
-4.09037495	6.90786219	-0.326875031	0	255	0
-4.07993746	6.90347481	-0.326875031	0	255	0
-4.11124992	6.90347481	-0.360937536	0	255	0
-4.09037495	6.90347481	-0.360937536	0	255	0
-4.10081244	6.89908695	-0.326875031	0	255	0
-4.11124992	6.89469957	-0.360937536	0	255	0
-4.09037495	6.89469957	-0.360937536	0	255	0
-4.07993746	6.90347481	-0.258750021	0	255	0
-4.07993746	6.90347481	-0.326875031	0	255	0
-4.07993746	6.89908695	-0.326875031	0	255	0
-4.07993746	6.89469957	-0.258750021	0	255	0
-4.07993746	6.89469957	-0.326875031	0	255	0
-4.09037495	6.89469957	-0.326875031	0	255	0
-4.06949997	6.9210248	-0.360937536	0	255	0
-4.06949997	6.9210248	-0.258750021	0	255	0
-4.05906248	6.9210248	-0.395000011	0	255	0
-4.05906248	6.9210248	-0.360937536	0	255	0
-4.06949997	6.91663742	-0.395000011	0	255	0
-4.06949997	6.91663742	-0.360937536	0	255	0
-4.04862499	6.91663742	-0.395000011	0	255	0
-4.04862499	6.91663742	-0.360937536	0	255	0
-4.05906248	6.91224957	-0.395000011	0	255	0
-4.04862499	6.91224957	-0.258750021	0	255	0
-4.04862499	6.91224957	-0.360937536	0	255	0
-4.05906248	6.91224957	-0.360937536	0	255	0
-4.06949997	6.89908695	-0.292812526	0	255	0
-4.06949997	6.89908695	-0.258750021	0	255	0
-4.05906248	6.89908695	-0.326875031	0	255	0
-4.06949997	6.89469957	-0.292812526	0	255	0
-4.04862499	6.89908695	-0.258750021	0	255	0
-4.04862499	6.89908695	-0.292812526	0	255	0
-4.04862499	6.89469957	-0.395000011	0	255	0
-4.04862499	6.89469957	-0.292812526	0	255	0
-4.04862499	6.89908695	-0.360937536	0	255	0
-4.04862499	6.89908695	-0.395000011	0	255	0
-4.0381875	6.89908695	-0.326875031	0	255	0
-4.0381875	6.89908695	-0.360937536	0	255	0
-4.0381875	6.89908695	-0.326875031	0	255	0
-4.0381875	6.89469957	-0.395000011	0	255	0
-4.0381875	6.89469957	-0.360937536	0	255	0
-4.04862499	6.89469957	-0.360937536	0	255	0
-4.04862499	6.90786219	-0.326875031	0	255	0
-4.04862499	6.90786219	-0.292812526	0	255	0
-4.0381875	6.90786219	-0.292812526	0	255	0
-4.04862499	6.90347481	-0.395000011	0	255	0
-4.04862499	6.90347481	-0.292812526	0	255	0
-4.0381875	6.90347481	-0.292812526	0	255	0
-4.0381875	6.90347481	-0.326875031	0	255	0
-4.06949997	6.91224957	-0.395000011	0	255	0
-4.06949997	6.91224957	-0.360937536	0	255	0
-4.05906248	6.91224957	-0.360937536	0	255	0
-4.05906248	6.91224957	-0.395000011	0	255	0
-4.06949997	6.90786219	-0.360937536	0	255	0
-4.05906248	6.90786219	-0.360937536	0	255	0
-4.06949997	6.90347481	-0.326875031	0	255	0
-4.06949997	6.90786219	-0.395000011	0	255	0
-4.04862499	6.91224957	-0.258750021	0	255	0
-4.04862499	6.91224957	-0.292812526	0	255	0
-4.02775002	6.91224957	-0.292812526	0	255	0
-4.04862499	6.90347481	-0.292812526	0	255	0
-4.02775002	6.90347481	-0.292812526	0	255	0
-4.02775002	6.90347481	-0.258750021	0	255	0
-4.05906248	6.89908695	-0.360937536	0	255	0
-4.05906248	6.89908695	-0.326875031	0	255	0
-4.04862499	6.89908695	-0.395000011	0	255	0
-4.04862499	6.89908695	-0.360937536	0	255	0
-4.05906248	6.89469957	-0.395000011	0	255	0
-4.04862499	6.89469957	-0.360937536	0	255	0
-4.05906248	6.89469957	-0.360937536	0	255	0
-4.04862499	6.89908695	-0.258750021	0	255	0
-4.0381875	6.89908695	-0.326875031	0	255	0
-4.0381875	6.89908695	-0.326875031	0	255	0
-4.0381875	6.89469957	-0.258750021	0	255	0
-4.04862499	6.89908695	-0.326875031	0	255	0
-4.0381875	6.89469957	-0.326875031	0	255	0
-4.05906248	6.89908695	-0.360937536	0	255	0
-4.05906248	6.89908695	-0.395000011	0	255	0
-4.04862499	6.89908695	-0.326875031	0	255	0
-4.04862499	6.89908695	-0.360937536	0	255	0
-4.05906248	6.89469957	-0.326875031	0	255	0
-4.04862499	6.89469957	-0.360937536	0	255	0
-4.05906248	6.89469957	-0.360937536	0	255	0
-4.04862499	6.89908695	-0.326875031	0	255	0
-4.0381875	6.89908695	-0.395000011	0	255	0
-4.0381875	6.89908695	-0.395000011	0	255	0
-4.0381875	6.89469957	-0.326875031	0	255	0
-4.04862499	6.89908695	-0.395000011	0	255	0
-4.0381875	6.89469957	-0.395000011	0	255	0
-4.04862499	6.89469957	-0.395000011	0	255	0
