-6.92525005	6.65999985	0.381999999	0	255	0
-6.92525005	6.65999985	0.361000001	0	255	0
-6.89050007	6.65999985	0.361000001	0	255	0
-6.89050007	6.65999985	0.298000008	0	255	0
-6.92525005	6.65670013	0.361000001	0	255	0
-6.89050007	6.65670013	0.361000001	0	255	0
-6.89050007	6.65670013	0.381999999	0	255	0
-6.92525005	6.65670013	0.340000004	0	255	0
-6.96000004	6.65670013	0.298000008	0	255	0
-6.96000004	6.65670013	0.319000006	0	255	0
-6.92525005	6.65670013	0.319000006	0	255	0
-6.96000004	6.65339994	0.381999999	0	255	0
-6.96000004	6.65339994	0.319000006	0	255	0
-6.96000004	6.65339994	0.298000008	0	255	0
-6.92525005	6.65339994	0.319000006	0	255	0
-6.92525005	6.65339994	0.298000008	0	255	0
-6.87312508	6.65999985	0.340000004	0	255	0
-6.87312508	6.65999985	0.361000001	0	255	0
-6.85575008	6.65999985	0.361000001	0	255	0
-6.87312508	6.65670013	0.361000001	0	255	0
-6.85575008	6.65670013	0.361000001	0	255	0
-6.87312508	6.65670013	0.340000004	0	255	0
-6.83837509	6.65999985	0.381999999	0	255	0
-6.83837509	6.65834999	0.340000004	0	255	0
-6.8210001	6.65834999	0.381999999	0	255	0
-6.85575008	6.65999985	0.361000001	0	255	0
-6.8210001	6.65834999	0.340000004	0	255	0
-6.85575008	6.65670013	0.361000001	0	255	0
-6.83837509	6.65670013	0.361000001	0	255	0
-6.83837509	6.65670013	0.340000004	0	255	0
-6.87312508	6.65999985	0.319000006	0	255	0
-6.87312508	6.65999985	0.340000004	0	255	0
-6.85575008	6.65999985	0.319000006	0	255	0
-6.89050007	6.65834999	0.319000006	0	255	0
-6.89050007	6.65834999	0.340000004	0	255	0
-6.87312508	6.65834999	0.298000008	0	255	0
-6.89050007	6.65670013	0.319000006	0	255	0
-6.89050007	6.65670013	0.340000004	0	255	0
-6.85575008	6.65834999	0.298000008	0	255	0
-6.89050007	6.65339994	0.214000002	0	255	0
-6.87312508	6.65670013	0.298000008	0	255	0
-6.85575008	6.65999985	0.27700001	0	255	0
-6.85575008	6.65999985	0.340000004	0	255	0
-6.8210001	6.65999985	0.27700001	0	255	0
-6.85575008	6.65670013	0.214000002	0	255	0
-6.8210001	6.65670013	0.340000004	0	255	0
-6.8210001	6.65670013	0.27700001	0	255	0
-6.85575008	6.65670013	0.27700001	0	255	0
-6.92525005	6.65999985	0.298000008	0	255	0
-6.92525005	6.65999985	0.27700001	0	255	0
-6.89050007	6.65999985	0.27700001	0	255	0
-6.89050007	6.65999985	0.214000002	0	255	0
-6.92525005	6.65670013	0.27700001	0	255	0
-6.89050007	6.65670013	0.27700001	0	255	0
-6.89050007	6.65670013	0.298000008	0	255	0
-6.92525005	6.65670013	0.256000012	0	255	0
-6.94262505	6.65670013	0.235000014	0	255	0
-6.94262505	6.65670013	0.214000002	0	255	0
-6.92525005	6.65670013	0.214000002	0	255	0
-6.92525005	6.65670013	0.235000014	0	255	0
-6.96000004	6.65505028	0.235000014	0	255	0
-6.96000004	6.65505028	0.214000002	0	255	0
-6.94262505	6.65505028	0.256000012	0	255	0
-6.96000004	6.65339994	0.235000014	0	255	0
-6.92525005	6.65339994	0.298000008	0	255	0
-6.92525005	6.65339994	0.235000014	0	255	0
-6.89050007	6.65999985	0.381999999	0	255	0
-6.89050007	6.65999985	0.319000006	0	255	0
-6.8210001	6.65999985	0.319000006	0	255	0
-6.8210001	6.65999985	0.214000002	0	255	0
-6.89050007	6.65339994	0.319000006	0	255	0
-6.89050007	6.65339994	0.298000008	0	255	0
-6.8210001	6.65339994	0.319000006	0	255	0
-6.8210001	6.65339994	0.381999999	0	255	0
-6.80362511	6.65999985	0.381999999	0	255	0
-6.8210001	6.65834999	0.381999999	0	255	0
-6.80362511	6.65834999	0.340000004	0	255	0
-6.8210001	6.65999985	0.340000004	0	255	0
-6.80362511	6.65999985	0.340000004	0	255	0
-6.8210001	6.65670013	0.381999999	0	255	0
-6.8210001	6.65834999	0.340000004	0	255	0
-6.73412514	6.65670013	0.319000006	0	255	0
-6.73412514	6.65670013	0.298000008	0	255	0
-6.71675014	6.65670013	0.319000006	0	255	0
-6.73412514	6.65505028	0.340000004	0	255	0
-6.71675014	6.65505028	0.298000008	0	255	0
-6.71675014	6.65505028	0.319000006	0	255	0
-6.73412514	6.65505028	0.319000006	0	255	0
-6.69937515	6.65670013	0.381999999	0	255	0
-6.71675014	6.65505028	0.381999999	0	255	0
-6.69937515	6.65505028	0.340000004	0	255	0
-6.69937515	6.65670013	0.340000004	0	255	0
-6.71675014	6.65339994	0.381999999	0	255	0
-6.71675014	6.65505028	0.340000004	0	255	0
-6.69937515	6.65670013	0.340000004	0	255	0
-6.71675014	6.65505028	0.340000004	0	255	0
-6.69937515	6.65505028	0.298000008	0	255	0
-6.75150013	6.65339994	0.214000002	0	255	0
-6.69937515	6.65670013	0.298000008	0	255	0
-6.71675014	6.65339994	0.340000004	0	255	0
-6.71675014	6.65505028	0.298000008	0	255	0
-6.76887512	6.65505028	0.235000014	0	255	0
-6.76887512	6.65505028	0.214000002	0	255	0
-6.75150013	6.65505028	0.256000012	0	255	0
-6.75150013	6.65505028	0.235000014	0	255	0
-6.76887512	6.65339994	0.256000012	0	255	0
-6.75150013	6.65339994	0.256000012	0	255	0
-6.75150013	6.65339994	0.235000014	0	255	0
-6.76887512	6.65339994	0.235000014	0	255	0
-6.75150013	6.65999985	0.298000008	0	255	0
-6.68200016	6.65999985	0.298000008	0	255	0
-6.75150013	6.65999985	0.172000006	0	255	0
-6.68200016	6.65999985	0.172000006	0	255	0
-6.71675014	6.65670013	0.172000006	0	255	0
-6.68200016	6.65339994	0.298000008	0	255	0
-6.75150013	6.65339994	0.172000006	0	255	0
-6.68200016	6.65339994	0.172000006	0	255	0
-6.80362511	6.6484499	0.27700001	0	255	0
-6.80362511	6.6484499	0.256000012	0	255	0
-6.78625011	6.6484499	0.298000008	0	255	0
-6.78625011	6.6484499	0.27700001	0	255	0
-6.80362511	6.64680004	0.298000008	0	255	0
-6.78625011	6.64680004	0.214000002	0	255	0
-6.78625011	6.64680004	0.27700001	0	255	0
-6.80362511	6.64680004	0.27700001	0	255	0
-6.76887512	6.65009975	0.235000014	0	255	0
-6.76887512	6.65009975	0.214000002	0	255	0
-6.75150013	6.65009975	0.214000002	0	255	0
-6.75150013	6.65009975	0.235000014	0	255	0
-6.78625011	6.6484499	0.235000014	0	255	0
-6.78625011	6.6484499	0.214000002	0	255	0
-6.76887512	6.6484499	0.256000012	0	255	0
-6.78625011	6.64680004	0.235000014	0	255	0
-6.75150013	6.64680004	0.381999999	0	255	0
-6.75150013	6.64680004	0.235000014	0	255	0
-6.78625011	6.65339994	0.298000008	0	255	0
-6.78625011	6.65339994	0.27700001	0	255	0
-6.75150013	6.65339994	0.27700001	0	255	0
-6.78625011	6.65009975	0.27700001	0	255	0
-6.75150013	6.65009975	0.27700001	0	255	0
-6.75150013	6.65009975	0.298000008	0	255	0
-6.76887512	6.65009975	0.27700001	0	255	0
-6.76887512	6.65009975	0.298000008	0	255	0
-6.75150013	6.65009975	0.298000008	0	255	0
-6.75150013	6.65009975	0.27700001	0	255	0
-6.76887512	6.6484499	0.256000012	0	255	0
-6.75150013	6.6484499	0.298000008	0	255	0
-6.75150013	6.6484499	0.27700001	0	255	0
-6.76887512	6.6484499	0.27700001	0	255	0
-6.75150013	6.65009975	0.256000012	0	255	0
-6.75150013	6.6484499	0.256000012	0	255	0
-6.8210001	6.64680004	0.298000008	0	255	0
-6.75150013	6.65009975	0.214000002	0	255	0
-6.76887512	6.6484499	0.214000002	0	255	0
-6.76887512	6.64680004	0.256000012	0	255	0
-6.78625011	6.64680004	0.214000002	0	255	0
-6.75150013	6.64680004	0.235000014	0	255	0
-6.75150013	6.64680004	0.214000002	0	255	0
-6.73412514	6.65339994	0.298000008	0	255	0
-6.71675014	6.65339994	0.298000008	0	255	0
-6.73412514	6.65174961	0.256000012	0	255	0
-6.71675014	6.65174961	0.298000008	0	255	0
-6.75150013	6.65339994	0.27700001	0	255	0
-6.75150013	6.65174961	0.27700001	0	255	0
-6.75150013	6.65174961	0.256000012	0	255	0
-6.71675014	6.65174961	0.256000012	0	255	0
-6.71675014	6.65174961	0.256000012	0	255	0
-6.71675014	6.65339994	0.214000002	0	255	0
-6.71675014	6.65174961	0.214000002	0	255	0
-6.73412514	6.65174961	0.214000002	0	255	0
-6.73412514	6.65009975	0.256000012	0	255	0
-6.73412514	6.65009975	0.214000002	0	255	0
-6.75150013	6.65009975	0.214000002	0	255	0
-6.75150013	6.65009975	0.235000014	0	255	0
-6.73412514	6.65009975	0.214000002	0	255	0
-6.73412514	6.65009975	0.235000014	0	255	0
-6.75150013	6.6484499	0.214000002	0	255	0
-6.73412514	6.6484499	0.256000012	0	255	0
-6.73412514	6.6484499	0.235000014	0	255	0
-6.75150013	6.6484499	0.235000014	0	255	0
-6.90787506	6.65834999	0.192999989	0	255	0
-6.90787506	6.65834999	0.171999991	0	255	0
-6.89050007	6.65834999	0.214000002	0	255	0
-6.89050007	6.65834999	0.192999989	0	255	0
-6.90787506	6.65670013	0.214000002	0	255	0
-6.89050007	6.65670013	0.214000002	0	255	0
-6.89050007	6.65670013	0.192999989	0	255	0
-6.90787506	6.65670013	0.192999989	0	255	0
-6.8210001	6.65339994	0.256000012	0	255	0
-6.78625011	6.65670013	0.235000014	0	255	0
-6.75150013	6.65670013	0.235000014	0	255	0
-6.75150013	6.65670013	0.214000002	0	255	0
-6.78625011	6.65339994	0.235000014	0	255	0
-6.75150013	6.65339994	0.235000014	0	255	0
-6.78625011	6.65339994	0.214000002	0	255	0
-6.75150013	6.65999985	0.298000008	0	255	0
-6.75150013	6.65999985	0.27700001	0	255	0
-6.68200016	6.65999985	0.27700001	0	255	0
-6.68200016	6.65999985	0.0460000001	0	255	0
-6.75150013	6.65339994	0.27700001	0	255	0
-6.68200016	6.65339994	0.27700001	0	255	0
-6.68200016	6.65339994	0.298000008	0	255	0
-6.75150013	6.65339994	0.256000012	0	255	0
-6.78625011	6.65339994	0.214000002	0	255	0
-6.78625011	6.65339994	0.235000014	0	255	0
-6.75150013	6.65339994	0.235000014	0	255	0
-6.8210001	6.65009975	0.214000002	0	255	0
-6.8210001	6.65009975	0.235000014	0	255	0
-6.8210001	6.64680004	0.235000014	0	255	0
-6.8210001	6.64680004	0.214000002	0	255	0
-6.75150013	6.64680004	0.235000014	0	255	0
-6.75150013	6.65339994	0.235000014	0	255	0
-6.68200016	6.65339994	0.235000014	0	255	0
-6.68200016	6.65339994	0.214000002	0	255	0
-6.68200016	6.65009975	0.235000014	0	255	0
-6.68200016	6.65009975	0.214000002	0	255	0
-6.75150013	6.64680004	0.235000014	0	255	0
-6.71675014	6.64680004	0.235000014	0	255	0
-6.71675014	6.64680004	0.214000002	0	255	0
-6.83837509	6.64184952	0.0670000017	0	255	0
-6.83837509	6.64184952	0.0879999995	0	255	0
-6.8210001	6.64184952	0.0460000001	0	255	0
-6.8210001	6.64184952	0.0670000017	0	255	0
-6.83837509	6.64019966	0.0460000001	0	255	0
-6.8210001	6.64019966	0.0670000017	0	255	0
-6.83837509	6.64019966	0.0670000017	0	255	0
-6.83837509	6.64019966	0.0670000017	0	255	0
-6.83837509	6.64019966	0.0460000001	0	255	0
-6.8210001	6.64019966	0.0670000017	0	255	0
-6.83837509	6.63689995	0.0460000001	0	255	0
-6.8210001	6.63689995	0.0460000001	0	255	0
-6.8210001	6.63689995	0.0670000017	0	255	0
-6.83837509	6.63689995	0.0670000017	0	255	0
-6.76887512	6.64680004	0.27700001	0	255	0
-6.76887512	6.64680004	0.298000008	0	255	0
-6.75150013	6.64680004	0.298000008	0	255	0
-6.75150013	6.64680004	0.27700001	0	255	0
-6.76887512	6.64515018	0.256000012	0	255	0
-6.75150013	6.64515018	0.298000008	0	255	0
-6.75150013	6.64515018	0.27700001	0	255	0
-6.76887512	6.64515018	0.27700001	0	255	0
-6.80362511	6.64680004	0.214000002	0	255	0
-6.80362511	6.64680004	0.235000014	0	255	0
-6.78625011	6.64680004	0.235000014	0	255	0
-6.78625011	6.64680004	0.214000002	0	255	0
-6.80362511	6.64515018	0.214000002	0	255	0
-6.78625011	6.64515018	0.256000012	0	255	0
-6.80362511	6.64349985	0.256000012	0	255	0
-6.80362511	6.64349985	0.214000002	0	255	0
-6.78625011	6.64680004	0.298000008	0	255	0
-6.78625011	6.64680004	0.27700001	0	255	0
-6.75150013	6.64680004	0.27700001	0	255	0
-6.75150013	6.64680004	0.214000002	0	255	0
-6.78625011	6.64349985	0.27700001	0	255	0
-6.75150013	6.64349985	0.27700001	0	255	0
-6.75150013	6.64349985	0.298000008	0	255	0
-6.8210001	6.64349985	0.235000014	0	255	0
-6.8210001	6.64349985	0.298000008	0	255	0
-6.80362511	6.64349985	0.214000002	0	255	0
-6.80362511	6.64349985	0.235000014	0	255	0
-6.8210001	6.64184952	0.214000002	0	255	0
-6.80362511	6.64184952	0.256000012	0	255	0
-6.80362511	6.64184952	0.235000014	0	255	0
-6.8210001	6.64184952	0.235000014	0	255	0
-6.78625011	6.64184952	0.256000012	0	255	0
-6.78625011	6.64184952	0.27700001	0	255	0
-6.76887512	6.64184952	0.27700001	0	255	0
-6.78625011	6.64019966	0.298000008	0	255	0
-6.78625011	6.64019966	0.27700001	0	255	0
-6.76887512	6.64019966	0.27700001	0	255	0
-6.76887512	6.64019966	0.256000012	0	255	0
-6.80362511	6.64349985	0.256000012	0	255	0
-6.80362511	6.64349985	0.214000002	0	255	0
-6.8210001	6.64184952	0.256000012	0	255	0
-6.80362511	6.64184952	0.214000002	0	255	0
-6.8210001	6.64184952	0.214000002	0	255	0
-6.78625011	6.64349985	0.235000014	0	255	0
-6.76887512	6.64349985	0.235000014	0	255	0
-6.76887512	6.64349985	0.214000002	0	255	0
-6.78625011	6.64019966	0.235000014	0	255	0
-6.76887512	6.64019966	0.235000014	0	255	0
-6.76887512	6.64019966	0.214000002	0	255	0
-6.80362511	6.63689995	0.27700001	0	255	0
-6.80362511	6.63689995	0.298000008	0	255	0
-6.78625011	6.63689995	0.298000008	0	255	0
-6.78625011	6.63689995	0.27700001	0	255	0
-6.80362511	6.63525009	0.256000012	0	255	0
-6.78625011	6.63525009	0.298000008	0	255	0
-6.78625011	6.63525009	0.27700001	0	255	0
-6.80362511	6.63525009	0.27700001	0	255	0
-6.8210001	6.64019966	0.256000012	0	255	0
-6.80362511	6.64019966	0.256000012	0	255	0
-6.8210001	6.6385498	0.256000012	0	255	0
-6.80362511	6.6385498	0.214000002	0	255	0
-6.78625011	6.64019966	0.235000014	0	255	0
-6.78625011	6.64019966	0.214000002	0	255	0
-6.8210001	6.63689995	0.235000014	0	255	0
-6.78625011	6.63689995	0.235000014	0	255	0
-6.78625011	6.64019966	0.298000008	0	255	0
-6.78625011	6.64019966	0.27700001	0	255	0
-6.75150013	6.64019966	0.27700001	0	255	0
-6.8210001	6.63359976	0.381999999	0	255	0
-6.78625011	6.63689995	0.27700001	0	255	0
-6.75150013	6.63689995	0.27700001	0	255	0
-6.75150013	6.63689995	0.298000008	0	255	0
-6.78625011	6.63689995	0.256000012	0	255	0
-6.80362511	6.63689995	0.235000014	0	255	0
-6.80362511	6.63689995	0.214000002	0	255	0
-6.78625011	6.63689995	0.214000002	0	255	0
-6.78625011	6.63689995	0.235000014	0	255	0
-6.80362511	6.63525009	0.256000012	0	255	0
-6.78625011	6.63525009	0.214000002	0	255	0
-6.78625011	6.63525009	0.235000014	0	255	0
-6.80362511	6.63525009	0.235000014	0	255	0
-6.8210001	6.63689995	0.235000014	0	255	0
-6.78625011	6.63689995	0.235000014	0	255	0
-6.8210001	6.63359976	0.235000014	0	255	0
-6.78625011	6.63359976	0.235000014	0	255	0
-6.78625011	6.63359976	0.214000002	0	255	0
-6.78625011	6.63689995	0.235000014	0	255	0
-6.76887512	6.63689995	0.235000014	0	255	0
-6.76887512	6.63689995	0.214000002	0	255	0
-6.78625011	6.63525009	0.235000014	0	255	0
-6.76887512	6.63525009	0.235000014	0	255	0
-6.78625011	6.63359976	0.256000012	0	255	0
-6.78625011	6.63525009	0.214000002	0	255	0
-6.83837509	6.63525009	0.108999997	0	255	0
-6.83837509	6.63525009	0.0879999995	0	255	0
-6.8210001	6.63525009	0.129999995	0	255	0
-6.8210001	6.63525009	0.108999997	0	255	0
-6.83837509	6.63359976	0.129999995	0	255	0
-6.8210001	6.63359976	0.129999995	0	255	0
-6.8210001	6.63359976	0.108999997	0	255	0
-6.83837509	6.63359976	0.108999997	0	255	0
-6.83837509	6.63525009	0.0670000017	0	255	0
-6.83837509	6.63525009	0.0460000001	0	255	0
-6.8210001	6.63525009	0.0879999995	0	255	0
-6.8210001	6.63525009	0.0670000017	0	255	0
-6.83837509	6.63359976	0.0879999995	0	255	0
-6.8210001	6.63359976	0.0879999995	0	255	0
-6.8210001	6.63359976	0.0670000017	0	255	0
-6.83837509	6.63359976	0.0670000017	0	255	0
-6.80362511	6.64515018	0.171999991	0	255	0
-6.78625011	6.64515018	0.214000002	0	255	0
-6.80362511	6.64349985	0.214000002	0	255	0
-6.8210001	6.64349985	0.214000002	0	255	0
-6.78625011	6.64515018	0.171999991	0	255	0
-6.80362511	6.64349985	0.171999991	0	255	0
-6.78625011	6.64680004	0.214000002	0	255	0
-6.75150013	6.64680004	0.214000002	0	255	0
-6.75150013	6.64515018	0.214000002	0	255	0
-6.78625011	6.64680004	0.171999991	0	255	0
-6.75150013	6.64680004	0.171999991	0	255	0
-6.76887512	6.64515018	0.171999991	0	255	0
-6.76887512	6.64349985	0.214000002	0	255	0
-6.75150013	6.64349985	0.192999989	0	255	0
-6.75150013	6.64349985	0.171999991	0	255	0
-6.80362511	6.64515018	0.129999995	0	255	0
-6.78625011	6.64515018	0.171999991	0	255	0
-6.80362511	6.64349985	0.171999991	0	255	0
-6.8210001	6.64349985	0.171999991	0	255	0
-6.78625011	6.64515018	0.129999995	0	255	0
-6.80362511	6.64349985	0.129999995	0	255	0
-6.78625011	6.64680004	0.214000002	0	255	0
-6.78625011	6.64680004	0.192999989	0	255	0
-6.75150013	6.64680004	0.192999989	0	255	0
-6.78625011	6.64349985	0.192999989	0	255	0
-6.75150013	6.64349985	0.192999989	0	255	0
-6.75150013	6.64349985	0.214000002	0	255	0
-6.80362511	6.64349985	0.150999993	0	255	0
-6.80362511	6.64349985	0.129999995	0	255	0
-6.78625011	6.64349985	0.150999993	0	255	0
-6.8210001	6.64184952	0.150999993	0	255	0
-6.8210001	6.64184952	0.129999995	0	255	0
-6.80362511	6.64184952	0.171999991	0	255	0
-6.8210001	6.64019966	0.150999993	0	255	0
-6.78625011	6.64019966	0.150999993	0	255	0
-6.76887512	6.64349985	0.214000002	0	255	0
-6.76887512	6.64349985	0.171999991	0	255	0
-6.78625011	6.64184952	0.171999991	0	255	0
-6.76887512	6.64184952	0.171999991	0	255	0
-6.76887512	6.64019966	0.214000002	0	255	0
-6.76887512	6.64019966	0.192999989	0	255	0
-6.78625011	6.64019966	0.192999989	0	255	0
-6.80362511	6.64349985	0.171999991	0	255	0
-6.80362511	6.64349985	0.129999995	0	255	0
-6.80362511	6.64019966	0.171999991	0	255	0
-6.80362511	6.64019966	0.129999995	0	255	0
-6.76887512	6.64349985	0.171999991	0	255	0
-6.76887512	6.64349985	0.129999995	0	255	0
-6.76887512	6.64184952	0.129999995	0	255	0
-6.76887512	6.64019966	0.171999991	0	255	0
-6.76887512	6.64019966	0.129999995	0	255	0
-6.78625011	6.64680004	0.108999997	0	255	0
-6.78625011	6.64680004	0.129999995	0	255	0
-6.78625011	6.64515018	0.129999995	0	255	0
-6.78625011	6.64515018	0.108999997	0	255	0
-6.75150013	6.64680004	0.108999997	0	255	0
-6.76887512	6.64349985	0.129999995	0	255	0
-6.75150013	6.64349985	0.108999997	0	255	0
-6.76887512	6.64349985	0.108999997	0	255	0
-6.8210001	6.64349985	0.0670000017	0	255	0
-6.8210001	6.64349985	0.129999995	0	255	0
-6.78625011	6.64349985	0.0460000001	0	255	0
-6.78625011	6.64349985	0.0670000017	0	255	0
-6.80362511	6.64184952	0.0879999995	0	255	0
-6.8210001	6.64019966	0.0670000017	0	255	0
-6.78625011	6.64019966	0.0670000017	0	255	0
-6.76887512	6.64349985	0.108999997	0	255	0
-6.76887512	6.64349985	0.129999995	0	255	0
-6.75150013	6.64349985	0.108999997	0	255	0
-6.76887512	6.64184952	0.0879999995	0	255	0
-6.75150013	6.64184952	0.129999995	0	255	0
-6.75150013	6.64184952	0.108999997	0	255	0
-6.78625011	6.64184952	0.0879999995	0	255	0
-6.78625011	6.64184952	0.108999997	0	255	0
-6.78625011	6.64019966	0.108999997	0	255	0
-6.76887512	6.64019966	0.108999997	0	255	0
-6.76887512	6.64019966	0.0879999995	0	255	0
-6.78625011	6.64349985	0.0670000017	0	255	0
-6.78625011	6.64349985	0.0879999995	0	255	0
-6.76887512	6.64349985	0.0879999995	0	255	0
-6.78625011	6.64184952	0.0879999995	0	255	0
-6.78625011	6.64184952	0.0670000017	0	255	0
-6.76887512	6.64349985	0.0460000001	0	255	0
-6.75150013	6.64349985	0.0670000017	0	255	0
-6.75150013	6.64349985	0.0460000001	0	255	0
-6.75150013	6.64184952	0.0460000001	0	255	0
-6.75150013	6.64184952	0.0879999995	0	255	0
-6.76887512	6.64019966	0.0879999995	0	255	0
-6.75150013	6.64019966	0.0879999995	0	255	0
-6.75150013	6.64019966	0.0670000017	0	255	0
-6.76887512	6.64019966	0.0670000017	0	255	0
-6.75150013	6.64680004	0.214000002	0	255	0
-6.75150013	6.64680004	0.150999993	0	255	0
-6.71675014	6.64680004	0.150999993	0	255	0
-6.71675014	6.64680004	0.129999995	0	255	0
-6.75150013	6.64349985	0.150999993	0	255	0
-6.71675014	6.64349985	0.150999993	0	255	0
-6.75150013	6.64019966	0.171999991	0	255	0
-6.75150013	6.64349985	0.129999995	0	255	0
-6.8210001	6.64019966	0.0670000017	0	255	0
-6.78625011	6.64019966	0.0670000017	0	255	0
-6.80362511	6.6385498	0.0879999995	0	255	0
-6.8210001	6.63689995	0.0670000017	0	255	0
-6.78625011	6.63689995	0.0670000017	0	255	0
-6.78625011	6.64019966	0.0670000017	0	255	0
-6.76887512	6.64019966	0.0460000001	0	255	0
-6.76887512	6.64019966	0.0670000017	0	255	0
-6.76887512	6.6385498	0.0879999995	0	255	0
-6.76887512	6.63689995	0.0460000001	0	255	0
-6.76887512	6.63689995	0.0670000017	0	255	0
-6.78625011	6.63689995	0.0670000017	0	255	0
-6.8210001	6.63689995	0.108999997	0	255	0
-6.8210001	6.63689995	0.0460000001	0	255	0
-6.78625011	6.63689995	0.108999997	0	255	0
-6.80362511	6.63525009	0.0879999995	0	255	0
-6.8210001	6.63359976	0.108999997	0	255	0
-6.78625011	6.63359976	0.0460000001	0	255	0
-6.78625011	6.63359976	0.108999997	0	255	0
-6.8210001	6.64019966	0.108999997	0	255	0
-6.8210001	6.64019966	0.129999995	0	255	0
-6.78625011	6.64019966	0.129999995	0	255	0
-6.78625011	6.64019966	0.108999997	0	255	0
-6.80362511	6.6385498	0.0879999995	0	255	0
-6.8210001	6.63689995	0.108999997	0	255	0
-6.78625011	6.63689995	0.108999997	0	255	0
-6.78625011	6.64019966	0.0879999995	0	255	0
-6.78625011	6.64019966	0.108999997	0	255	0
-6.78625011	6.6385498	0.108999997	0	255	0
-6.78625011	6.6385498	0.0879999995	0	255	0
-6.75150013	6.64019966	0.108999997	0	255	0
-6.75150013	6.64019966	0.0879999995	0	255	0
-6.75150013	6.6385498	0.108999997	0	255	0
-6.75150013	6.6385498	0.0879999995	0	255	0
-6.78625011	6.64019966	0.129999995	0	255	0
-6.78625011	6.64019966	0.108999997	0	255	0
-6.75150013	6.64019966	0.108999997	0	255	0
-6.78625011	6.63689995	0.108999997	0	255	0
-6.75150013	6.63689995	0.108999997	0	255	0
-6.75150013	6.63689995	0.129999995	0	255	0
-6.8210001	6.63689995	0.0670000017	0	255	0
-6.8210001	6.63689995	0.129999995	0	255	0
-6.78625011	6.63689995	0.0670000017	0	255	0
-6.78625011	6.63525009	0.0460000001	0	255	0
-6.78625011	6.63525009	0.0670000017	0	255	0
-6.80362511	6.63525009	0.0879999995	0	255	0
-6.80362511	6.63359976	0.0460000001	0	255	0
-6.80362511	6.63359976	0.0670000017	0	255	0
-6.8210001	6.63359976	0.0670000017	0	255	0
-6.76887512	6.63689995	0.129999995	0	255	0
-6.78625011	6.63525009	0.129999995	0	255	0
-6.76887512	6.63525009	0.0879999995	0	255	0
-6.78625011	6.63525009	0.0879999995	0	255	0
-6.75150013	6.63689995	0.108999997	0	255	0
-6.75150013	6.63689995	0.0879999995	0	255	0
-6.75150013	6.63525009	0.108999997	0	255	0
-6.75150013	6.63525009	0.0879999995	0	255	0
-6.80362511	6.63689995	0.0670000017	0	255	0
-6.80362511	6.63689995	0.0879999995	0	255	0
-6.78625011	6.63689995	0.0670000017	0	255	0
-6.80362511	6.63525009	0.0460000001	0	255	0
-6.78625011	6.63525009	0.0879999995	0	255	0
-6.78625011	6.63525009	0.0670000017	0	255	0
-6.80362511	6.63525009	0.0670000017	0	255	0
