-14.4626884	7.0250001	2.00187492	0	255	0
-14.4626884	7.0250001	2.1789999	0	255	0
-14.4483757	7.0250001	2.00187492	0	255	0
-14.4626884	7.02317524	1.82474995	0	255	0
-14.4483757	7.02317524	2.1789999	0	255	0
-14.4483757	7.02317524	2.00187492	0	255	0
-14.4626884	7.02317524	2.00187492	0	255	0
-14.4483757	7.02317524	2.1789999	0	255	0
-14.4483757	7.0250001	1.82474995	0	255	0
-14.4483757	7.02317524	1.82474995	0	255	0
-14.4197502	7.0250001	1.82474995	0	255	0
-14.434063	7.02134991	2.1789999	0	255	0
-14.434063	7.02134991	1.82474995	0	255	0
-14.4483757	7.0250001	2.1789999	0	255	0
-14.4483757	7.0250001	2.00187492	0	255	0
-14.4197502	7.0250001	2.00187492	0	255	0
-14.4483757	7.02134991	2.00187492	0	255	0
-14.4197502	7.02134991	2.00187492	0	255	0
-14.4197502	7.02134991	2.1789999	0	255	0
-14.4483757	7.02134991	1.82474995	0	255	0
-14.4483757	7.02134991	2.00187492	0	255	0
-14.4483757	7.01952505	2.1789999	0	255	0
-14.4483757	7.01952505	2.00187492	0	255	0
-14.4197502	7.01952505	2.1789999	0	255	0
-14.434063	7.02134991	1.82474995	0	255	0
-14.4197502	7.01952505	1.82474995	0	255	0
-14.4483757	7.0177002	2.1789999	0	255	0
-14.434063	7.02134991	1.82474995	0	255	0
-14.434063	7.01952505	1.47049999	0	255	0
-14.4197502	7.01952505	1.82474995	0	255	0
-14.434063	7.02134991	1.47049999	0	255	0
-14.4197502	7.02134991	1.47049999	0	255	0
-14.4197502	7.01952505	1.47049999	0	255	0
-14.4483757	7.0177002	1.82474995	0	255	0
-14.3911247	7.0250001	2.1789999	0	255	0
-14.4054375	7.02317524	1.82474995	0	255	0
-14.3911247	7.02317524	2.00187492	0	255	0
-14.3911247	7.02317524	2.1789999	0	255	0
-14.376812	7.02317524	1.82474995	0	255	0
-14.376812	7.02317524	2.00187492	0	255	0
-14.376812	7.02317524	1.82474995	0	255	0
-14.376812	7.02134991	2.1789999	0	255	0
-14.376812	7.02134991	2.00187492	0	255	0
-14.3911247	7.02134991	2.00187492	0	255	0
-14.3911247	7.0250001	1.47049999	0	255	0
-14.4054375	7.02317524	1.47049999	0	255	0
-14.4197502	7.02134991	1.64762497	0	255	0
-14.3911247	7.02134991	1.64762497	0	255	0
-14.4054375	7.01952505	1.82474995	0	255	0
-14.4197502	7.0177002	1.64762497	0	255	0
-14.3911247	7.0177002	1.64762497	0	255	0
-14.376812	7.02134991	2.1789999	0	255	0
-14.376812	7.02134991	1.82474995	0	255	0
-14.376812	7.01952505	1.82474995	0	255	0
-14.3625002	7.01952505	2.1789999	0	255	0
-14.3625002	7.01952505	1.82474995	0	255	0
-14.4197502	7.01952505	1.82474995	0	255	0
-14.4054375	7.0177002	1.82474995	0	255	0
-14.4197502	7.0177002	1.64762497	0	255	0
-14.376812	7.02134991	1.82474995	0	255	0
-14.376812	7.02134991	1.47049999	0	255	0
-14.376812	7.01952505	1.47049999	0	255	0
-14.3625002	7.01952505	1.82474995	0	255	0
-14.3625002	7.01952505	1.47049999	0	255	0
-14.4483757	7.0250001	1.47049999	0	255	0
-14.4483757	7.02317524	1.47049999	0	255	0
-14.4483757	7.02317524	1.11625004	0	255	0
-14.4197502	7.0250001	1.11625004	0	255	0
-14.434063	7.02134991	1.47049999	0	255	0
-14.434063	7.02134991	1.11625004	0	255	0
-14.4626884	7.0250001	1.11625004	0	255	0
-14.4626884	7.02317524	0.761999965	0	255	0
-14.4483757	7.02317524	1.11625004	0	255	0
-14.4626884	7.0250001	0.761999965	0	255	0
-14.4483757	7.0250001	0.761999965	0	255	0
-14.4483757	7.02317524	0.761999965	0	255	0
-14.4770002	7.02134991	1.11625004	0	255	0
-14.4483757	7.0250001	1.47049999	0	255	0
-14.4483757	7.0250001	1.29337502	0	255	0
-14.4197502	7.0250001	1.29337502	0	255	0
-14.4197502	7.0250001	0.761999965	0	255	0
-14.4483757	7.02134991	1.29337502	0	255	0
-14.4197502	7.02134991	1.29337502	0	255	0
-14.4197502	7.02134991	1.47049999	0	255	0
-14.4483757	7.02134991	1.11625004	0	255	0
-14.434063	7.02134991	1.47049999	0	255	0
-14.434063	7.01952505	1.11625004	0	255	0
-14.4197502	7.01952505	1.47049999	0	255	0
-14.434063	7.02134991	1.11625004	0	255	0
-14.4197502	7.01952505	1.11625004	0	255	0
-14.4483757	7.0177002	1.47049999	0	255	0
-14.434063	7.02134991	1.11625004	0	255	0
-14.434063	7.01952505	0.761999965	0	255	0
-14.4197502	7.01952505	1.11625004	0	255	0
-14.434063	7.02134991	0.761999965	0	255	0
-14.4197502	7.02134991	0.761999965	0	255	0
-14.4197502	7.01952505	0.761999965	0	255	0
-14.4483757	7.0177002	1.11625004	0	255	0
-14.4197502	7.0250001	2.1789999	0	255	0
-14.4197502	7.0250001	1.64762497	0	255	0
-14.3625002	7.0250001	1.64762497	0	255	0
-14.3625002	7.0250001	0.761999965	0	255	0
-14.4197502	7.0177002	1.64762497	0	255	0
-14.3625002	7.0177002	1.64762497	0	255	0
-14.3625002	7.0177002	2.1789999	0	255	0
-14.3911247	7.0177002	2.1789999	0	255	0
-14.3911247	7.01587486	2.1789999	0	255	0
-14.3911247	7.0177002	1.82474995	0	255	0
-14.3625002	7.0177002	1.82474995	0	255	0
-14.376812	7.01405001	2.1789999	0	255	0
-14.3625002	7.01405001	2.1789999	0	255	0
-14.3911247	7.01405001	2.00187492	0	255	0
-14.3625002	7.01405001	1.82474995	0	255	0
-14.3911247	7.0177002	2.1789999	0	255	0
-14.3911247	7.0177002	2.00187492	0	255	0
-14.3625002	7.0177002	2.00187492	0	255	0
-14.3911247	7.01405001	2.00187492	0	255	0
-14.3625002	7.01405001	2.00187492	0	255	0
-14.3625002	7.01405001	2.1789999	0	255	0
-14.4054375	7.0177002	1.11625004	0	255	0
-14.4054375	7.0177002	1.29337502	0	255	0
-14.3911247	7.0177002	1.29337502	0	255	0
-14.4054375	7.01587486	1.29337502	0	255	0
-14.3911247	7.01587486	1.29337502	0	255	0
-14.3911247	7.01587486	1.11625004	0	255	0
-14.4197502	7.01405001	1.47049999	0	255	0
-14.3911247	7.0177002	1.47049999	0	255	0
-14.3911247	7.01587486	1.47049999	0	255	0
-14.3911247	7.01587486	1.11625004	0	255	0
-14.3625002	7.0177002	1.11625004	0	255	0
-14.376812	7.01405001	1.47049999	0	255	0
-14.3625002	7.01405001	1.47049999	0	255	0
-14.3625002	7.01405001	1.11625004	0	255	0
-14.376812	7.01405001	1.11625004	0	255	0
-14.3911247	7.0177002	1.47049999	0	255	0
-14.3911247	7.0177002	1.29337502	0	255	0
-14.3625002	7.0177002	1.29337502	0	255	0
-14.3625002	7.0177002	0.761999965	0	255	0
-14.3911247	7.01405001	1.29337502	0	255	0
-14.3625002	7.01405001	1.29337502	0	255	0
-14.3625002	7.01405001	1.47049999	0	255	0
-14.3911247	7.01405001	1.11625004	0	255	0
-14.3625002	7.01952505	1.64762497	0	255	0
-14.3625002	7.01952505	1.47049999	0	255	0
-14.3481884	7.01952505	1.82474995	0	255	0
-14.3481884	7.01952505	1.64762497	0	255	0
-14.3481884	7.01952505	1.82474995	0	255	0
-14.3481884	7.0177002	1.47049999	0	255	0
-14.3481884	7.0177002	1.64762497	0	255	0
-14.3625002	7.0177002	1.64762497	0	255	0
-14.3338757	7.01952505	2.00187492	0	255	0
-14.3338757	7.01952505	2.1789999	0	255	0
-14.3195629	7.01952505	1.82474995	0	255	0
-14.3195629	7.01952505	2.00187492	0	255	0
-14.3195629	7.01952505	1.82474995	0	255	0
-14.3195629	7.0177002	2.1789999	0	255	0
-14.3195629	7.0177002	2.00187492	0	255	0
-14.3338757	7.0177002	2.00187492	0	255	0
-14.3625002	7.01952505	1.64762497	0	255	0
-14.3625002	7.01952505	1.82474995	0	255	0
-14.3481884	7.01952505	1.47049999	0	255	0
-14.3481884	7.01952505	1.64762497	0	255	0
-14.3481884	7.01952505	1.47049999	0	255	0
-14.3481884	7.0177002	1.82474995	0	255	0
-14.3481884	7.0177002	1.64762497	0	255	0
-14.3625002	7.0177002	1.64762497	0	255	0
-14.3625002	7.01952505	0.939125001	0	255	0
-14.3625002	7.01952505	0.761999965	0	255	0
-14.3481884	7.01952505	1.11625004	0	255	0
-14.3481884	7.01952505	0.939125001	0	255	0
-14.3481884	7.01952505	1.11625004	0	255	0
-14.3481884	7.0177002	0.761999965	0	255	0
-14.3481884	7.0177002	0.939125001	0	255	0
-14.3625002	7.0177002	0.939125001	0	255	0
-14.3625002	7.01952505	1.11625004	0	255	0
-14.3481884	7.01952505	0.761999965	0	255	0
-14.3481884	7.01952505	0.761999965	0	255	0
-14.3481884	7.0177002	1.11625004	0	255	0
-14.3625002	7.01952505	0.761999965	0	255	0
-14.3338757	7.01952505	0.939125001	0	255	0
-14.3338757	7.01952505	0.761999965	0	255	0
-14.3338757	7.0177002	0.939125001	0	255	0
-14.3338757	7.0177002	0.761999965	0	255	0
-14.3625002	7.0177002	0.939125001	0	255	0
-14.3625002	7.0177002	2.1789999	0	255	0
-14.3338757	7.0177002	0.761999965	0	255	0
-14.3338757	7.0177002	0.939125001	0	255	0
-14.3481884	7.01587486	1.11625004	0	255	0
-14.3625002	7.01405001	0.939125001	0	255	0
-14.3338757	7.01405001	0.939125001	0	255	0
-14.3338757	7.01587486	0.939125001	0	255	0
-14.3338757	7.01587486	0.761999965	0	255	0
-14.3195629	7.01587486	1.11625004	0	255	0
-14.3338757	7.01405001	0.939125001	0	255	0
-14.3052502	7.01587486	0.761999965	0	255	0
-14.3052502	7.01587486	0.939125001	0	255	0
-14.3052502	7.01405001	0.939125001	0	255	0
-14.3625002	7.01405001	1.29337502	0	255	0
-14.3625002	7.01405001	0.761999965	0	255	0
-14.3625002	7.01222515	1.47049999	0	255	0
-14.3625002	7.01222515	1.29337502	0	255	0
-14.3338757	7.01405001	1.29337502	0	255	0
-14.3481884	7.01039982	1.47049999	0	255	0
-14.3338757	7.01039982	0.761999965	0	255	0
-14.3338757	7.01039982	1.29337502	0	255	0
-14.3481884	7.01039982	1.29337502	0	255	0
-14.3338757	7.01405001	0.939125001	0	255	0
-14.3052502	7.01405001	0.939125001	0	255	0
-14.3195629	7.01222515	1.11625004	0	255	0
-14.3338757	7.01039982	0.939125001	0	255	0
-14.3052502	7.01039982	2.1789999	0	255	0
-14.3052502	7.01039982	0.939125001	0	255	0
-14.3052502	7.01222515	1.64762497	0	255	0
-14.3052502	7.01222515	1.47049999	0	255	0
-14.2909374	7.01222515	1.82474995	0	255	0
-14.2909374	7.01222515	1.64762497	0	255	0
-14.2909374	7.01222515	1.82474995	0	255	0
-14.2909374	7.01039982	1.47049999	0	255	0
-14.2909374	7.01039982	1.64762497	0	255	0
-14.3052502	7.01039982	1.64762497	0	255	0
-14.3052502	7.01222515	1.64762497	0	255	0
-14.3052502	7.01222515	1.82474995	0	255	0
-14.2909374	7.01222515	1.47049999	0	255	0
-14.2909374	7.01222515	1.64762497	0	255	0
-14.2909374	7.01222515	1.47049999	0	255	0
-14.2909374	7.01039982	1.82474995	0	255	0
-14.2909374	7.01039982	1.64762497	0	255	0
-14.3052502	7.01039982	1.64762497	0	255	0
-14.3625002	7.0177002	1.47049999	0	255	0
-14.3481884	7.0177002	1.47049999	0	255	0
-14.3338757	7.0177002	1.29337502	0	255	0
-14.3481884	7.01587486	1.11625004	0	255	0
-14.3338757	7.01587486	1.47049999	0	255	0
-14.3338757	7.01587486	1.47049999	0	255	0
-14.3195629	7.01587486	1.11625004	0	255	0
-14.3195629	7.01587486	1.11625004	0	255	0
-14.3195629	7.01405001	1.47049999	0	255	0
-14.3338757	7.01587486	1.11625004	0	255	0
-14.3195629	7.01405001	1.11625004	0	255	0
-14.3338757	7.0177002	0.761999965	0	255	0
-14.3481884	7.01587486	0.761999965	0	255	0
-14.3338757	7.0177002	1.47049999	0	255	0
-14.3338757	7.0177002	1.29337502	0	255	0
-14.3052502	7.0177002	1.29337502	0	255	0
-14.3625002	7.01039982	-0.654999971	0	255	0
-14.3338757	7.01405001	1.29337502	0	255	0
-14.3052502	7.01405001	1.29337502	0	255	0
-14.3052502	7.01405001	1.47049999	0	255	0
-14.3625002	7.01405001	0.939125001	0	255	0
-14.3625002	7.01222515	0.761999965	0	255	0
-14.3625002	7.01222515	0.939125001	0	255	0
-14.3338757	7.01405001	0.939125001	0	255	0
-14.3481884	7.01039982	0.761999965	0	255	0
-14.3338757	7.01039982	0.939125001	0	255	0
-14.3481884	7.01039982	0.939125001	0	255	0
-14.3052502	7.01405001	1.47049999	0	255	0
-14.3195629	7.01222515	1.11625004	0	255	0
-14.3052502	7.01039982	1.47049999	0	255	0
-14.3625002	7.01222515	1.11625004	0	255	0
-14.3625002	7.01222515	0.761999965	0	255	0
-14.3481884	7.01039982	1.11625004	0	255	0
-14.3481884	7.01039982	0.761999965	0	255	0
-14.3052502	7.01405001	0.761999965	0	255	0
-14.3195629	7.01222515	0.761999965	0	255	0
-14.3052502	7.01222515	0.939125001	0	255	0
-14.3052502	7.01222515	0.761999965	0	255	0
-14.2909374	7.01222515	1.11625004	0	255	0
-14.2909374	7.01222515	0.939125001	0	255	0
-14.2909374	7.01222515	1.11625004	0	255	0
-14.2909374	7.01039982	0.761999965	0	255	0
-14.2909374	7.01039982	0.939125001	0	255	0
-14.3052502	7.01039982	0.939125001	0	255	0
-14.3052502	7.01222515	1.11625004	0	255	0
-14.2909374	7.01222515	0.761999965	0	255	0
-14.2909374	7.01222515	0.761999965	0	255	0
-14.2909374	7.01039982	1.11625004	0	255	0
-14.3052502	7.01222515	0.761999965	0	255	0
-14.3052502	7.01039982	1.11625004	0	255	0
-14.2909374	7.01039982	0.761999965	0	255	0
-14.4483757	7.0250001	0.761999965	0	255	0
-14.4483757	7.02317524	0.761999965	0	255	0
-14.4483757	7.0250001	0.407749981	0	255	0
-14.4483757	7.02317524	0.407749981	0	255	0
-14.4197502	7.0250001	0.407749981	0	255	0
-14.4197502	7.02317524	0.407749981	0	255	0
-14.434063	7.02134991	0.761999965	0	255	0
-14.4197502	7.02134991	0.584874988	0	255	0
-14.434063	7.02134991	0.584874988	0	255	0
-14.4626884	7.0250001	0.0534999967	0	255	0
-14.4626884	7.0250001	0.230624989	0	255	0
-14.4483757	7.0250001	0.230624989	0	255	0
-14.4483757	7.0250001	0.0534999967	0	255	0
-14.4626884	7.02317524	0.230624989	0	255	0
-14.4483757	7.02317524	0.230624989	0	255	0
-14.4483757	7.02317524	0.0534999967	0	255	0
-14.4770002	7.02134991	0.407749981	0	255	0
-14.4483757	7.0250001	0.761999965	0	255	0
-14.4483757	7.0250001	0.584874988	0	255	0
-14.4197502	7.0250001	0.584874988	0	255	0
-14.4483757	7.02134991	0.584874988	0	255	0
-14.4197502	7.02134991	0.584874988	0	255	0
-14.4197502	7.02134991	0.761999965	0	255	0
-14.4483757	7.02134991	0.407749981	0	255	0
-14.434063	7.02134991	0.761999965	0	255	0
-14.434063	7.01952505	0.407749981	0	255	0
-14.4197502	7.01952505	0.761999965	0	255	0
-14.434063	7.02134991	0.407749981	0	255	0
-14.4197502	7.01952505	0.407749981	0	255	0
-14.4483757	7.0177002	0.761999965	0	255	0
-14.434063	7.02134991	0.407749981	0	255	0
-14.434063	7.01952505	0.0534999967	0	255	0
-14.4197502	7.01952505	0.407749981	0	255	0
-14.434063	7.02134991	0.0534999967	0	255	0
-14.4197502	7.02134991	0.0534999967	0	255	0
-14.4197502	7.01952505	0.0534999967	0	255	0
-14.4483757	7.0177002	0.407749981	0	255	0
-14.4054375	7.02317524	0.407749981	0	255	0
-14.3911247	7.0250001	0.584874988	0	255	0
-14.376812	7.0250001	0.761999965	0	255	0
-14.376812	7.0250001	0.584874988	0	255	0
-14.376812	7.02317524	0.407749981	0	255	0
-14.3625002	7.02317524	0.761999965	0	255	0
-14.3911247	7.02317524	0.407749981	0	255	0
-14.3625002	7.02317524	0.407749981	0	255	0
-14.3911247	7.0250001	0.0534999967	0	255	0
-14.4054375	7.02317524	0.0534999967	0	255	0
-14.3911247	7.0250001	-0.12362501	0	255	0
-14.3911247	7.0250001	0.407749981	0	255	0
-14.3625002	7.0250001	0.407749981	0	255	0
-14.3625002	7.0250001	-0.12362501	0	255	0
-14.3911247	7.02134991	-0.654999971	0	255	0
-14.3625002	7.02134991	0.407749981	0	255	0
-14.3625002	7.02134991	-0.12362501	0	255	0
-14.3911247	7.02134991	-0.12362501	0	255	0
-14.4197502	7.02134991	0.230624989	0	255	0
-14.4197502	7.01952505	0.0534999967	0	255	0
-14.4197502	7.01952505	0.230624989	0	255	0
-14.3911247	7.02134991	0.230624989	0	255	0
-14.4054375	7.0177002	0.0534999967	0	255	0
-14.3911247	7.0177002	0.230624989	0	255	0
-14.4054375	7.0177002	0.230624989	0	255	0
-14.376812	7.01952505	0.407749981	0	255	0
-14.4197502	7.01952505	0.0534999967	0	255	0
-14.4054375	7.01952505	0.0534999967	0	255	0
-14.4197502	7.0177002	0.230624989	0	255	0
-14.4054375	7.0177002	0.0534999967	0	255	0
-14.376812	7.02134991	0.407749981	0	255	0
-14.376812	7.02134991	0.0534999967	0	255	0
-14.376812	7.01952505	0.0534999967	0	255	0
-14.3625002	7.01952505	0.407749981	0	255	0
-14.3625002	7.01952505	0.0534999967	0	255	0
-14.4626884	7.0250001	-0.300749987	0	255	0
-14.4626884	7.0250001	-0.123624995	0	255	0
-14.4483757	7.0250001	-0.123624995	0	255	0
-14.4626884	7.02317524	-0.123624995	0	255	0
-14.4483757	7.02317524	-0.123624995	0	255	0
-14.4483757	7.02317524	-0.300749987	0	255	0
-14.4770002	7.02134991	0.0534999967	0	255	0
-14.4483757	7.0250001	0.0534999967	0	255	0
-14.4483757	7.02317524	0.0534999967	0	255	0
-14.4197502	7.0250001	-0.300749987	0	255	0
-14.434063	7.02134991	0.0534999967	0	255	0
-14.4483757	7.02134991	-0.123624995	0	255	0
-14.4770002	7.0250001	-0.300749987	0	255	0
-14.4770002	7.0250001	-0.654999971	0	255	0
-14.4483757	7.0250001	-0.654999971	0	255	0
-14.4626884	7.02317524	-0.654999971	0	255	0
-14.4770002	7.02134991	-0.654999971	0	255	0
-14.4483757	7.0250001	0.0534999967	0	255	0
-14.4483757	7.0250001	-0.123624995	0	255	0
-14.4197502	7.0250001	-0.123624995	0	255	0
-14.4197502	7.0250001	-0.654999971	0	255	0
-14.4483757	7.02134991	-0.123624995	0	255	0
-14.4197502	7.02134991	-0.123624995	0	255	0
-14.4197502	7.02134991	0.0534999967	0	255	0
-14.434063	7.02134991	0.0534999967	0	255	0
-14.434063	7.01952505	-0.300749987	0	255	0
-14.4197502	7.01952505	0.0534999967	0	255	0
-14.434063	7.02134991	-0.300749987	0	255	0
-14.4197502	7.01952505	-0.300749987	0	255	0
-14.4483757	7.0177002	0.0534999967	0	255	0
-14.4197502	7.02134991	-0.654999971	0	255	0
-14.434063	7.01952505	-0.654999971	0	255	0
-14.4197502	7.0177002	-0.300749987	0	255	0
-14.4483757	7.0177002	-0.654999971	0	255	0
-14.4197502	7.0250001	0.761999965	0	255	0
-14.4197502	7.0250001	0.230624989	0	255	0
-14.3911247	7.0250001	0.230624989	0	255	0
-14.3911247	7.0250001	0.0534999967	0	255	0
-14.4197502	7.0177002	0.230624989	0	255	0
-14.4197502	7.0177002	0.0534999967	0	255	0
-14.3625002	7.02134991	0.230624989	0	255	0
-14.3625002	7.02134991	0.0534999967	0	255	0
-14.3625002	7.0177002	0.230624989	0	255	0
-14.3625002	7.0177002	0.761999965	0	255	0
-14.3911247	7.0177002	0.761999965	0	255	0
-14.3911247	7.01587486	0.761999965	0	255	0
-14.3625002	7.01587486	0.761999965	0	255	0
-14.3911247	7.0177002	0.407749981	0	255	0
-14.3911247	7.01587486	0.407749981	0	255	0
-14.3625002	7.0177002	0.407749981	0	255	0
-14.3625002	7.01587486	0.407749981	0	255	0
-14.3911247	7.0177002	0.761999965	0	255	0
-14.3911247	7.0177002	0.584874988	0	255	0
-14.3625002	7.0177002	0.584874988	0	255	0
-14.3911247	7.01405001	0.584874988	0	255	0
-14.3625002	7.01405001	0.584874988	0	255	0
-14.3625002	7.01405001	0.761999965	0	255	0
-14.3911247	7.01405001	0.407749981	0	255	0
-14.4483757	7.0177002	0.0534999967	0	255	0
-14.4483757	7.0177002	-0.123624995	0	255	0
-14.4197502	7.0177002	-0.123624995	0	255	0
-14.4483757	7.01405001	-0.123624995	0	255	0
-14.4197502	7.01405001	-0.123624995	0	255	0
-14.4197502	7.01405001	0.0534999967	0	255	0
-14.4483757	7.01405001	-0.300749987	0	255	0
-14.4054375	7.0177002	-0.300749987	0	255	0
-14.4054375	7.0177002	-0.123624995	0	255	0
-14.3911247	7.0177002	-0.123624995	0	255	0
-14.4054375	7.01587486	-0.123624995	0	255	0
-14.3911247	7.01587486	-0.123624995	0	255	0
-14.3911247	7.01587486	-0.300749987	0	255	0
-14.4197502	7.01405001	0.0534999967	0	255	0
-14.3911247	7.0177002	0.0534999967	0	255	0
-14.3911247	7.01587486	0.0534999967	0	255	0
-14.3625002	7.0177002	-0.300749987	0	255	0
-14.376812	7.01405001	0.0534999967	0	255	0
-14.3625002	7.01405001	0.0534999967	0	255	0
-14.3911247	7.01405001	-0.123624995	0	255	0
-14.4197502	7.0177002	-0.300749987	0	255	0
-14.4197502	7.01587486	-0.300749987	0	255	0
-14.3911247	7.0177002	-0.654999971	0	255	0
-14.4054375	7.01405001	-0.300749987	0	255	0
-14.4197502	7.01405001	-0.477874994	0	255	0
-14.4197502	7.01405001	-0.654999971	0	255	0
-14.3911247	7.0177002	0.0534999967	0	255	0
-14.3911247	7.0177002	-0.123624995	0	255	0
-14.3625002	7.0177002	-0.123624995	0	255	0
-14.3625002	7.0177002	-0.654999971	0	255	0
-14.3911247	7.01405001	-0.123624995	0	255	0
-14.3625002	7.01405001	-0.123624995	0	255	0
-14.3625002	7.01405001	0.0534999967	0	255	0
-14.4054375	7.01405001	-0.654999971	0	255	0
-14.4054375	7.01405001	-0.477874994	0	255	0
-14.3911247	7.01405001	-0.477874994	0	255	0
-14.4054375	7.01222515	-0.477874994	0	255	0
-14.3911247	7.01222515	-0.477874994	0	255	0
-14.3911247	7.01222515	-0.654999971	0	255	0
-14.4197502	7.01039982	-0.300749987	0	255	0
-14.3911247	7.01222515	-0.300749987	0	255	0
-14.3911247	7.01222515	-0.654999971	0	255	0
-14.3625002	7.01405001	-0.654999971	0	255	0
-14.376812	7.01039982	-0.300749987	0	255	0
-14.3625002	7.01039982	-0.300749987	0	255	0
-14.4770002	6.99580002	2.1789999	0	255	0
-14.376812	7.01039982	-0.654999971	0	255	0
-14.3625002	7.02134991	0.761999965	0	255	0
-14.3625002	7.02134991	0.939125001	0	255	0
-14.3625002	7.0177002	0.939125001	0	255	0
-14.3052502	7.02134991	0.939125001	0	255	0
-14.3052502	7.02134991	0.761999965	0	255	0
-14.3052502	7.0177002	0.939125001	0	255	0
-14.3625002	7.0177002	0.939125001	0	255	0
-14.3052502	7.0177002	0.939125001	0	255	0
-14.3625002	7.01039982	0.939125001	0	255	0
-14.3625002	7.01039982	0.761999965	0	255	0
-14.3052502	7.01039982	0.939125001	0	255	0
-14.3052502	7.01405001	0.761999965	0	255	0
-14.3052502	7.01405001	0.939125001	0	255	0
-14.2766247	7.01405001	0.939125001	0	255	0
-14.3052502	7.01039982	1.11625004	0	255	0
-14.3052502	7.01039982	0.939125001	0	255	0
-14.2766247	7.01039982	0.939125001	0	255	0
-14.2766247	7.01039982	0.761999965	0	255	0
-14.3481884	7.01039982	2.1789999	0	255	0
-14.3481884	7.00857496	1.82474995	0	255	0
-14.3338757	7.00857496	2.1789999	0	255	0
-14.3481884	7.01039982	1.82474995	0	255	0
-14.3338757	7.00857496	1.82474995	0	255	0
-14.3625002	7.00675011	2.1789999	0	255	0
-14.3052502	7.01039982	1.82474995	0	255	0
-14.3195629	7.00857496	1.82474995	0	255	0
-14.3481884	7.01039982	1.82474995	0	255	0
-14.3481884	7.00857496	1.47049999	0	255	0
-14.3338757	7.00857496	1.82474995	0	255	0
-14.3481884	7.01039982	1.47049999	0	255	0
-14.3338757	7.01039982	1.47049999	0	255	0
-14.3338757	7.00857496	1.47049999	0	255	0
-14.3625002	7.00675011	1.82474995	0	255	0
-14.3338757	7.01039982	2.1789999	0	255	0
-14.3338757	7.01039982	2.00187492	0	255	0
-14.3052502	7.01039982	2.00187492	0	255	0
-14.3338757	7.00675011	2.00187492	0	255	0
-14.3052502	7.00675011	2.00187492	0	255	0
-14.3052502	7.00675011	2.1789999	0	255	0
-14.3338757	7.00675011	2.00187492	0	255	0
-14.3195629	7.00675011	1.82474995	0	255	0
-14.3195629	7.00492477	1.82474995	0	255	0
-14.3338757	7.00309992	2.00187492	0	255	0
-14.3195629	7.00309992	1.82474995	0	255	0
-14.3195629	7.00675011	1.82474995	0	255	0
-14.3625002	7.00309992	2.1789999	0	255	0
-14.3338757	7.00675011	1.64762497	0	255	0
-14.3338757	7.00492477	1.64762497	0	255	0
-14.3338757	7.00492477	1.47049999	0	255	0
-14.3052502	7.00675011	1.47049999	0	255	0
-14.3195629	7.00309992	1.82474995	0	255	0
-14.3195629	7.00309992	1.47049999	0	255	0
-14.2766247	7.01039982	2.1789999	0	255	0
-14.2766247	7.01039982	2.00187492	0	255	0
-14.2909374	7.01039982	1.82474995	0	255	0
-14.2909374	7.00857496	1.82474995	0	255	0
-14.2766247	7.00857496	1.82474995	0	255	0
-14.2766247	7.00857496	2.00187492	0	255	0
-14.2766247	7.00857496	2.1789999	0	255	0
-14.2623119	7.00857496	1.82474995	0	255	0
-14.2623119	7.00857496	2.00187492	0	255	0
-14.2623119	7.00857496	1.82474995	0	255	0
-14.2623119	7.00675011	2.1789999	0	255	0
-14.2623119	7.00675011	2.00187492	0	255	0
-14.2766247	7.00675011	2.00187492	0	255	0
-14.2909374	7.01039982	1.82474995	0	255	0
-14.2909374	7.01039982	1.47049999	0	255	0
-14.2909374	7.00857496	1.47049999	0	255	0
-14.2909374	7.00675011	1.82474995	0	255	0
-14.2766247	7.00857496	1.64762497	0	255	0
-14.2766247	7.00857496	1.47049999	0	255	0
-14.2766247	7.00675011	1.64762497	0	255	0
-14.3052502	7.00675011	1.64762497	0	255	0
-14.2766247	7.00675011	1.64762497	0	255	0
-14.2909374	7.00492477	1.82474995	0	255	0
-14.3052502	7.00309992	1.64762497	0	255	0
-14.2766247	7.00309992	1.64762497	0	255	0
-14.2766247	7.00675011	2.00187492	0	255	0
-14.2623119	7.00675011	2.1789999	0	255	0
-14.2623119	7.00675011	2.00187492	0	255	0
-14.2623119	7.00492477	1.82474995	0	255	0
-14.2480001	7.00492477	2.1789999	0	255	0
-14.2480001	7.00492477	2.00187492	0	255	0
-14.2480001	7.00309992	2.00187492	0	255	0
-14.2766247	7.00492477	1.82474995	0	255	0
-14.2623119	7.00309992	1.82474995	0	255	0
-14.2909374	7.00492477	1.47049999	0	255	0
-14.2766247	7.00492477	1.82474995	0	255	0
-14.2623119	7.00492477	1.47049999	0	255	0
-14.2623119	7.00492477	1.47049999	0	255	0
-14.2623119	7.00309992	1.82474995	0	255	0
-14.2766247	7.00492477	1.47049999	0	255	0
-14.2623119	7.00309992	1.47049999	0	255	0
-14.3481884	7.01039982	1.47049999	0	255	0
-14.3481884	7.00857496	1.11625004	0	255	0
-14.3338757	7.00857496	1.47049999	0	255	0
-14.3481884	7.01039982	1.11625004	0	255	0
-14.3338757	7.00857496	1.11625004	0	255	0
-14.3625002	7.00675011	1.47049999	0	255	0
-14.3052502	7.01039982	1.11625004	0	255	0
-14.3195629	7.00857496	1.11625004	0	255	0
-14.3481884	7.01039982	0.939125001	0	255	0
-14.3481884	7.01039982	1.11625004	0	255	0
-14.3338757	7.01039982	0.939125001	0	255	0
-14.3481884	7.00857496	0.761999965	0	255	0
-14.3338757	7.00857496	1.11625004	0	255	0
-14.3338757	7.00857496	0.939125001	0	255	0
-14.3481884	7.00857496	0.939125001	0	255	0
-14.3338757	7.01039982	1.47049999	0	255	0
-14.3338757	7.01039982	1.29337502	0	255	0
-14.3052502	7.01039982	1.29337502	0	255	0
-14.3052502	7.01039982	0.761999965	0	255	0
-14.3338757	7.00675011	1.29337502	0	255	0
-14.3052502	7.00675011	1.29337502	0	255	0
-14.3052502	7.00675011	1.47049999	0	255	0
-14.3338757	7.00492477	1.47049999	0	255	0
-14.3052502	7.00492477	1.47049999	0	255	0
-14.3338757	7.00492477	1.11625004	0	255	0
-14.3195629	7.00309992	1.29337502	0	255	0
-14.3052502	7.00309992	1.29337502	0	255	0
-14.3052502	7.00309992	1.11625004	0	255	0
-14.3195629	7.00309992	1.11625004	0	255	0
-14.3195629	7.00675011	1.11625004	0	255	0
-14.3195629	7.00492477	0.761999965	0	255	0
-14.3052502	7.00492477	1.11625004	0	255	0
-14.3195629	7.00675011	0.761999965	0	255	0
-14.3052502	7.00675011	0.761999965	0	255	0
-14.3052502	7.00492477	0.761999965	0	255	0
-14.3338757	7.00309992	1.11625004	0	255	0
-14.3052502	7.01039982	2.1789999	0	255	0
-14.3052502	7.01039982	1.64762497	0	255	0
-14.2766247	7.01039982	1.64762497	0	255	0
-14.2766247	7.01039982	1.47049999	0	255	0
-14.3052502	7.00309992	1.64762497	0	255	0
-14.2480001	7.00675011	1.64762497	0	255	0
-14.2480001	7.00675011	1.47049999	0	255	0
-14.2480001	7.00309992	1.64762497	0	255	0
-14.2480001	7.00309992	2.1789999	0	255	0
-14.3481884	7.00127506	0.939125001	0	255	0
-14.3481884	7.00127506	1.11625004	0	255	0
-14.3338757	7.00127506	0.761999965	0	255	0
-14.3338757	7.00127506	0.939125001	0	255	0
-14.3481884	6.99944973	0.761999965	0	255	0
-14.3338757	6.99944973	1.47049999	0	255	0
-14.3338757	6.99944973	0.939125001	0	255	0
-14.3481884	6.99944973	0.939125001	0	255	0
-14.3195629	7.00309992	0.939125001	0	255	0
-14.3195629	7.00309992	0.761999965	0	255	0
-14.3052502	7.00309992	0.939125001	0	255	0
-14.3195629	6.99944973	0.761999965	0	255	0
-14.3052502	6.99944973	0.939125001	0	255	0
-14.3195629	6.99944973	0.939125001	0	255	0
-14.3481884	6.99762487	1.29337502	0	255	0
-14.3481884	6.99762487	1.11625004	0	255	0
-14.3338757	6.99762487	1.47049999	0	255	0
-14.3338757	6.99762487	1.29337502	0	255	0
-14.3481884	6.99580002	1.47049999	0	255	0
-14.3338757	6.99580002	0.761999965	0	255	0
-14.3338757	6.99580002	1.29337502	0	255	0
-14.3481884	6.99580002	1.29337502	0	255	0
-14.3195629	6.99944973	0.939125001	0	255	0
-14.3195629	6.99944973	0.761999965	0	255	0
-14.3052502	6.99944973	0.939125001	0	255	0
-14.3338757	6.99762487	0.939125001	0	255	0
-14.3338757	6.99762487	0.761999965	0	255	0
-14.3195629	6.99762487	1.11625004	0	255	0
-14.3338757	6.99580002	0.939125001	0	255	0
-14.3052502	6.99580002	0.939125001	0	255	0
-14.2909374	7.00127506	1.82474995	0	255	0
-14.2480001	7.00309992	2.00187492	0	255	0
-14.2480001	7.00127506	2.1789999	0	255	0
-14.2480001	7.00127506	2.00187492	0	255	0
-14.2623119	7.00309992	1.82474995	0	255	0
-14.2623119	7.00127506	1.82474995	0	255	0
-14.2623119	6.99944973	2.1789999	0	255	0
-14.2623119	6.99944973	1.82474995	0	255	0
-14.2766247	7.00309992	1.47049999	0	255	0
-14.2909374	7.00127506	1.47049999	0	255	0
-14.2766247	7.00309992	2.1789999	0	255	0
-14.2766247	7.00309992	2.00187492	0	255	0
-14.2480001	7.00309992	2.00187492	0	255	0
-14.2766247	6.99944973	2.00187492	0	255	0
-14.2480001	6.99944973	2.00187492	0	255	0
-14.2480001	6.99944973	2.1789999	0	255	0
-14.3052502	6.99944973	1.64762497	0	255	0
-14.2766247	6.99944973	1.64762497	0	255	0
-14.2909374	6.99762487	1.82474995	0	255	0
-14.3052502	6.99580002	1.64762497	0	255	0
-14.2766247	6.99580002	2.1789999	0	255	0
-14.2766247	6.99580002	1.64762497	0	255	0
-14.2766247	6.99944973	2.00187492	0	255	0
-14.2623119	6.99944973	2.1789999	0	255	0
-14.2623119	6.99944973	2.00187492	0	255	0
-14.2766247	6.99762487	2.1789999	0	255	0
-14.2623119	6.99762487	1.82474995	0	255	0
-14.2623119	6.99762487	2.00187492	0	255	0
-14.2766247	6.99762487	2.00187492	0	255	0
-14.2909374	6.99762487	1.47049999	0	255	0
-14.2623119	6.99944973	1.82474995	0	255	0
-14.2766247	6.99762487	1.82474995	0	255	0
-14.2623119	6.99762487	1.47049999	0	255	0
-14.2623119	6.99944973	1.47049999	0	255	0
-14.2766247	6.99580002	1.64762497	0	255	0
-14.2623119	6.99580002	1.64762497	0	255	0
-14.2623119	6.99580002	1.47049999	0	255	0
-14.3195629	7.00127506	1.11625004	0	255	0
-14.3052502	7.00127506	1.47049999	0	255	0
-14.3195629	6.99944973	1.47049999	0	255	0
-14.3338757	6.99944973	0.761999965	0	255	0
-14.3052502	7.00127506	1.11625004	0	255	0
-14.3195629	6.99944973	1.11625004	0	255	0
-14.3338757	7.00309992	1.47049999	0	255	0
-14.3338757	7.00309992	1.29337502	0	255	0
-14.3052502	7.00309992	1.29337502	0	255	0
-14.3338757	6.99944973	1.29337502	0	255	0
-14.3052502	6.99944973	1.29337502	0	255	0
-14.3052502	6.99944973	1.47049999	0	255	0
-14.3195629	6.99944973	1.47049999	0	255	0
-14.3338757	6.99944973	1.29337502	0	255	0
-14.3338757	6.99762487	1.47049999	0	255	0
-14.3195629	6.99762487	1.11625004	0	255	0
-14.3195629	6.99944973	1.11625004	0	255	0
-14.3195629	6.99944973	0.761999965	0	255	0
-14.3052502	6.99944973	0.761999965	0	255	0
-14.3338757	6.99762487	0.939125001	0	255	0
-14.3338757	6.99762487	1.11625004	0	255	0
-14.3195629	6.99762487	0.761999965	0	255	0
-14.3338757	6.99580002	0.939125001	0	255	0
-14.3195629	6.99580002	0.761999965	0	255	0
-14.2909374	7.00127506	1.11625004	0	255	0
-14.2480001	7.00309992	1.11625004	0	255	0
-14.2623119	7.00127506	1.11625004	0	255	0
-14.2480001	6.99944973	1.47049999	0	255	0
-14.2480001	6.99944973	1.11625004	0	255	0
-14.2766247	7.00309992	0.761999965	0	255	0
-14.2909374	7.00127506	0.761999965	0	255	0
-14.2766247	7.00309992	1.47049999	0	255	0
-14.2766247	7.00309992	1.29337502	0	255	0
-14.2480001	7.00309992	1.29337502	0	255	0
-14.2480001	7.00309992	0.761999965	0	255	0
-14.2766247	6.99944973	1.29337502	0	255	0
-14.2480001	6.99944973	1.29337502	0	255	0
-14.2480001	6.99944973	1.47049999	0	255	0
-14.3052502	6.99944973	0.939125001	0	255	0
-14.2766247	6.99944973	0.939125001	0	255	0
-14.2909374	6.99762487	1.11625004	0	255	0
-14.3052502	6.99580002	0.939125001	0	255	0
-14.2766247	6.99580002	0.939125001	0	255	0
-14.2623119	6.99944973	1.47049999	0	255	0
-14.2623119	6.99944973	1.11625004	0	255	0
-14.2623119	6.99762487	1.11625004	0	255	0
-14.2623119	6.99580002	1.47049999	0	255	0
-14.2623119	6.99580002	1.11625004	0	255	0
-14.2909374	6.99762487	0.761999965	0	255	0
-14.2623119	6.99944973	1.11625004	0	255	0
-14.2623119	6.99944973	0.761999965	0	255	0
-14.2623119	6.99762487	0.761999965	0	255	0
-14.2623119	6.99580002	1.11625004	0	255	0
-14.2480001	6.99762487	0.939125001	0	255	0
-14.2480001	6.99762487	0.761999965	0	255	0
-14.2480001	6.99580002	0.939125001	0	255	0
-14.2480001	6.99580002	0.761999965	0	255	0
-14.3338757	7.01039982	0.761999965	0	255	0
-14.3338757	7.01039982	0.407749981	0	255	0
-14.3052502	7.01039982	0.407749981	0	255	0
-14.3195629	7.00857496	0.407749981	0	255	0
-14.3338757	7.01039982	0.761999965	0	255	0
-14.3338757	7.01039982	0.584874988	0	255	0
-14.3052502	7.01039982	0.584874988	0	255	0
-14.3338757	7.00675011	0.584874988	0	255	0
-14.3052502	7.00675011	0.584874988	0	255	0
-14.3052502	7.00675011	0.761999965	0	255	0
-14.3195629	7.00675011	0.761999965	0	255	0
-14.3195629	7.00492477	0.407749981	0	255	0
-14.3052502	7.00492477	0.761999965	0	255	0
-14.3195629	7.00675011	0.407749981	0	255	0
-14.3052502	7.00492477	0.407749981	0	255	0
-14.3338757	7.00309992	0.761999965	0	255	0
-14.3338757	7.00675011	0.230624989	0	255	0
-14.3338757	7.00492477	0.407749981	0	255	0
-14.3338757	7.00492477	0.230624989	0	255	0
-14.3195629	7.00675011	0.0534999967	0	255	0
-14.3052502	7.00675011	0.0534999967	0	255	0
-14.3195629	7.00309992	0.407749981	0	255	0
-14.3052502	7.00309992	0.407749981	0	255	0
-14.3195629	7.00309992	0.0534999967	0	255	0
-14.2766247	7.01039982	0.761999965	0	255	0
-14.2909374	7.00857496	0.407749981	0	255	0
-14.2766247	7.01039982	0.0534999967	0	255	0
-14.2909374	7.00857496	0.0534999967	0	255	0
-14.3052502	7.00675011	0.230624989	0	255	0
-14.2766247	7.00675011	0.230624989	0	255	0
-14.2909374	7.00492477	0.407749981	0	255	0
-14.3052502	7.00309992	0.230624989	0	255	0
-14.2766247	7.00309992	0.230624989	0	255	0
-14.2623119	7.00675011	0.761999965	0	255	0
-14.2623119	7.00675011	0.407749981	0	255	0
-14.2623119	7.00492477	0.407749981	0	255	0
-14.2480001	7.00492477	0.761999965	0	255	0
-14.2480001	7.00492477	0.407749981	0	255	0
-14.2480001	7.00309992	0.407749981	0	255	0
-14.2909374	7.00492477	0.0534999967	0	255	0
-14.2766247	7.00675011	0.230624989	0	255	0
-14.2623119	7.00675011	0.230624989	0	255	0
-14.2623119	7.00675011	0.0534999967	0	255	0
-14.2766247	7.00492477	0.407749981	0	255	0
-14.2623119	7.00492477	0.0534999967	0	255	0
-14.2623119	7.00492477	0.0534999967	0	255	0
-14.2623119	7.00309992	0.407749981	0	255	0
-14.2623119	7.00309992	0.0534999967	0	255	0
-14.3338757	7.01039982	0.0534999967	0	255	0
-14.3052502	7.01039982	-0.300749987	0	255	0
-14.3195629	7.00857496	-0.300749987	0	255	0
-14.3625002	7.01039982	-0.300749987	0	255	0
-14.4770002	6.99580002	2.1789999	0	255	0
-14.3338757	7.01039982	-0.654999971	0	255	0
-14.3481884	7.00857496	-0.654999971	0	255	0
-14.3625002	7.00675011	-0.654999971	0	255	0
-14.3338757	7.01039982	0.0534999967	0	255	0
-14.3338757	7.01039982	-0.123624995	0	255	0
-14.3052502	7.01039982	-0.123624995	0	255	0
-14.3052502	7.01039982	-0.654999971	0	255	0
-14.3338757	7.00675011	-0.123624995	0	255	0
-14.3052502	7.00675011	-0.123624995	0	255	0
-14.3052502	7.00675011	0.0534999967	0	255	0
-14.3195629	7.00675011	0.0534999967	0	255	0
-14.3195629	7.00675011	-0.300749987	0	255	0
-14.3195629	7.00309992	0.0534999967	0	255	0
-14.3195629	7.00309992	-0.300749987	0	255	0
-14.3481884	7.00675011	-0.300749987	0	255	0
-14.3481884	7.00492477	-0.654999971	0	255	0
-14.3338757	7.00492477	-0.300749987	0	255	0
-14.3481884	7.00675011	-0.654999971	0	255	0
-14.3338757	7.00492477	-0.654999971	0	255	0
-14.3625002	7.00309992	-0.300749987	0	255	0
-14.3052502	7.00675011	-0.654999971	0	255	0
-14.3195629	7.00492477	-0.654999971	0	255	0
-14.3338757	7.00309992	-0.654999971	0	255	0
-14.3052502	7.01039982	0.761999965	0	255	0
-14.3052502	7.01039982	0.230624989	0	255	0
-14.2480001	7.01039982	0.230624989	0	255	0
-14.2480001	7.01039982	-0.654999971	0	255	0
-14.3052502	7.00309992	0.230624989	0	255	0
-14.2480001	7.00309992	0.230624989	0	255	0
-14.2480001	7.00309992	0.761999965	0	255	0
-14.3195629	7.00309992	-0.477874994	0	255	0
-14.3195629	7.00309992	-0.654999971	0	255	0
-14.3052502	7.00309992	-0.477874994	0	255	0
-14.3195629	6.99944973	-0.654999971	0	255	0
-14.3052502	6.99944973	-0.477874994	0	255	0
-14.3195629	6.99944973	-0.477874994	0	255	0
-14.3195629	6.99944973	-0.477874994	0	255	0
-14.3195629	6.99944973	-0.654999971	0	255	0
-14.3052502	6.99944973	-0.477874994	0	255	0
-14.3338757	6.99762487	-0.477874994	0	255	0
-14.3338757	6.99762487	-0.654999971	0	255	0
-14.3195629	6.99762487	-0.300749987	0	255	0
-14.3338757	6.99580002	-0.477874994	0	255	0
-14.3052502	6.99580002	-0.477874994	0	255	0
-14.2909374	7.00127506	0.407749981	0	255	0
-14.2480001	7.00309992	0.407749981	0	255	0
-14.2623119	7.00127506	0.407749981	0	255	0
-14.2480001	6.99944973	0.761999965	0	255	0
-14.2480001	6.99944973	0.407749981	0	255	0
-14.2766247	7.00309992	0.0534999967	0	255	0
-14.2909374	7.00127506	0.0534999967	0	255	0
-14.2766247	7.00309992	0.761999965	0	255	0
-14.2766247	7.00309992	0.584874988	0	255	0
-14.2480001	7.00309992	0.584874988	0	255	0
-14.2766247	6.99944973	0.584874988	0	255	0
-14.2480001	6.99944973	0.584874988	0	255	0
-14.2480001	6.99944973	0.761999965	0	255	0
-14.3052502	6.99944973	0.230624989	0	255	0
-14.2766247	6.99944973	0.230624989	0	255	0
-14.2909374	6.99762487	0.407749981	0	255	0
-14.3052502	6.99580002	0.230624989	0	255	0
-14.2766247	6.99580002	0.230624989	0	255	0
-14.2623119	6.99944973	0.761999965	0	255	0
-14.2623119	6.99944973	0.407749981	0	255	0
-14.2623119	6.99762487	0.407749981	0	255	0
-14.2623119	6.99580002	0.761999965	0	255	0
-14.2623119	6.99580002	0.407749981	0	255	0
-14.2909374	6.99762487	0.0534999967	0	255	0
-14.2623119	6.99944973	0.407749981	0	255	0
-14.2480001	6.99944973	0.230624989	0	255	0
-14.2480001	6.99944973	0.0534999967	0	255	0
-14.2480001	6.99762487	0.230624989	0	255	0
-14.2480001	6.99762487	0.0534999967	0	255	0
-14.2623119	6.99762487	0.0534999967	0	255	0
-14.2623119	6.99580002	0.407749981	0	255	0
-14.2623119	6.99580002	0.0534999967	0	255	0
-14.3338757	7.00309992	0.0534999967	0	255	0
-14.3338757	7.00309992	-0.123624995	0	255	0
-14.3052502	7.00309992	-0.123624995	0	255	0
-14.3338757	6.99944973	-0.123624995	0	255	0
-14.3052502	6.99944973	-0.123624995	0	255	0
-14.3052502	6.99944973	0.0534999967	0	255	0
-14.3195629	6.99944973	0.0534999967	0	255	0
-14.3052502	6.99944973	0.0534999967	0	255	0
-14.3195629	6.99944973	-0.300749987	0	255	0
-14.3338757	6.99762487	-0.123624995	0	255	0
-14.3338757	6.99762487	0.0534999967	0	255	0
-14.3195629	6.99762487	-0.300749987	0	255	0
-14.3338757	6.99580002	-0.123624995	0	255	0
-14.3195629	6.99580002	-0.300749987	0	255	0
-14.3481884	6.99944973	-0.300749987	0	255	0
-14.3481884	6.99944973	-0.654999971	0	255	0
-14.3481884	6.99580002	-0.300749987	0	255	0
-14.3481884	6.99580002	-0.654999971	0	255	0
-14.3052502	6.99944973	-0.654999971	0	255	0
-14.3195629	6.99762487	-0.654999971	0	255	0
-14.2909374	7.00127506	-0.300749987	0	255	0
-14.2480001	7.00309992	-0.300749987	0	255	0
-14.2623119	7.00127506	-0.300749987	0	255	0
-14.2480001	6.99944973	0.0534999967	0	255	0
-14.2766247	7.00309992	-0.654999971	0	255	0
-14.2909374	7.00127506	-0.654999971	0	255	0
-14.3052502	6.99944973	-0.654999971	0	255	0
-14.2766247	7.00309992	0.0534999967	0	255	0
-14.2766247	7.00309992	-0.123624995	0	255	0
-14.2480001	7.00309992	-0.123624995	0	255	0
-14.2480001	7.00309992	-0.654999971	0	255	0
-14.2766247	6.99944973	-0.123624995	0	255	0
-14.2480001	6.99944973	-0.123624995	0	255	0
-14.2480001	6.99944973	0.0534999967	0	255	0
-14.3052502	6.99944973	-0.477874994	0	255	0
-14.2766247	6.99944973	-0.477874994	0	255	0
-14.2909374	6.99762487	-0.300749987	0	255	0
-14.3052502	6.99580002	-0.477874994	0	255	0
-14.2766247	6.99580002	-0.477874994	0	255	0
-14.2623119	6.99944973	0.0534999967	0	255	0
-14.2480001	6.99944973	-0.123624995	0	255	0
-14.2623119	6.99762487	-0.300749987	0	255	0
-14.2480001	6.99762487	0.0534999967	0	255	0
-14.2480001	6.99580002	0.0534999967	0	255	0
-14.2480001	6.99580002	-0.300749987	0	255	0
-14.3052502	6.99944973	-0.477874994	0	255	0
-14.2766247	6.99944973	-0.477874994	0	255	0
-14.2909374	6.99762487	-0.654999971	0	255	0
-14.2766247	6.99580002	-0.477874994	0	255	0
-14.3052502	6.99762487	-0.654999971	0	255	0
-14.3052502	6.99580002	-0.300749987	0	255	0
-14.2909374	6.99580002	-0.654999971	0	255	0
