8.61456203	6.68745613	0.637374997	0	255	0
8.61456203	6.68745613	0.465999961	0	255	0
8.69849968	6.68745613	0.808749974	0	255	0
8.69849968	6.68745613	0.637374997	0	255	0
8.61456203	6.68715	0.808749974	0	255	0
8.69849968	6.68715	0.808749974	0	255	0
8.69849968	6.68715	0.637374997	0	255	0
8.61456203	6.68715	0.637374997	0	255	0
9.28606224	6.68959999	1.83700001	0	255	0
9.36999989	6.68959999	1.83700001	0	255	0
9.28606224	6.68959999	1.49425006	0	255	0
9.20212555	6.68929386	1.83700001	0	255	0
9.28606224	6.68929386	1.49425006	0	255	0
9.36999989	6.68898773	1.83700001	0	255	0
9.20212555	6.68929386	1.49425006	0	255	0
9.36999989	6.68898773	1.49425006	0	255	0
9.20212555	6.68959999	0.98012501	0	255	0
9.20212555	6.68959999	1.49425006	0	255	0
9.36999989	6.68959999	0.98012501	0	255	0
9.20212555	6.68898773	0.465999961	0	255	0
9.36999989	6.68898773	1.49425006	0	255	0
9.36999989	6.68898773	0.98012501	0	255	0
9.20212555	6.68898773	0.98012501	0	255	0
9.1181879	6.68898773	1.32287502	0	255	0
9.1181879	6.68898773	1.15149999	0	255	0
9.20212555	6.68898773	1.32287502	0	255	0
9.03425026	6.6886816	1.32287502	0	255	0
9.03425026	6.6886816	1.15149999	0	255	0
9.1181879	6.6886816	1.49425006	0	255	0
9.03425026	6.688375	1.32287502	0	255	0
9.20212555	6.688375	1.32287502	0	255	0
9.28606224	6.68898773	1.83700001	0	255	0
9.20212555	6.6886816	1.83700001	0	255	0
9.28606224	6.6886816	1.49425006	0	255	0
9.28606224	6.68898773	1.49425006	0	255	0
9.20212555	6.6886816	1.49425006	0	255	0
9.1181879	6.68898773	1.49425006	0	255	0
9.1181879	6.68898773	1.15149999	0	255	0
9.03425026	6.6886816	1.49425006	0	255	0
9.1181879	6.6886816	1.15149999	0	255	0
9.03425026	6.6886816	1.15149999	0	255	0
9.20212555	6.688375	1.15149999	0	255	0
9.28606224	6.68898773	1.49425006	0	255	0
9.20212555	6.6886816	1.49425006	0	255	0
9.28606224	6.6886816	1.15149999	0	255	0
9.28606224	6.68898773	1.15149999	0	255	0
9.20212555	6.6886816	1.15149999	0	255	0
9.20212555	6.68959999	1.15149999	0	255	0
9.36999989	6.68959999	1.15149999	0	255	0
9.20212555	6.68959999	0.123250008	0	255	0
9.36999989	6.68959999	0.123250008	0	255	0
9.03425026	6.68898773	1.15149999	0	255	0
9.20212555	6.68898773	0.123250008	0	255	0
9.36999989	6.688375	1.15149999	0	255	0
9.03425026	6.68898773	0.123250008	0	255	0
9.03425026	6.688375	0.123250008	0	255	0
9.36999989	6.688375	0.123250008	0	255	0
8.95031261	6.688375	0.637374997	0	255	0
8.95031261	6.688375	0.465999961	0	255	0
9.03425026	6.688375	0.637374997	0	255	0
8.86637497	6.68806839	0.637374997	0	255	0
8.86637497	6.68806839	0.465999961	0	255	0
8.95031261	6.68806839	0.808749974	0	255	0
8.86637497	6.68776226	0.637374997	0	255	0
9.03425026	6.68776226	0.465999961	0	255	0
9.03425026	6.68776226	0.637374997	0	255	0
8.78243732	6.68776226	0.98012495	0	255	0
8.78243732	6.68776226	1.15149999	0	255	0
8.86637497	6.68776226	0.98012495	0	255	0
8.69849968	6.68745613	0.98012495	0	255	0
8.69849968	6.68745613	1.15149999	0	255	0
8.78243732	6.68745613	0.808749974	0	255	0
8.69849968	6.68715	0.98012495	0	255	0
8.86637497	6.68715	0.465999961	0	255	0
8.86637497	6.68715	0.98012495	0	255	0
8.86637497	6.68776226	0.637374997	0	255	0
8.95031261	6.68776226	0.465999961	0	255	0
8.95031261	6.68776226	0.637374997	0	255	0
8.86637497	6.68745613	0.465999961	0	255	0
8.95031261	6.68745613	0.808749974	0	255	0
8.95031261	6.68745613	0.637374997	0	255	0
8.86637497	6.68745613	0.637374997	0	255	0
9.1181879	6.688375	1.83700001	0	255	0
9.03425026	6.68806839	1.83700001	0	255	0
9.1181879	6.68806839	1.49425006	0	255	0
9.1181879	6.688375	1.49425006	0	255	0
9.03425026	6.68776226	1.83700001	0	255	0
9.03425026	6.68806839	1.49425006	0	255	0
9.1181879	6.688375	1.49425006	0	255	0
9.03425026	6.68806839	1.49425006	0	255	0
9.1181879	6.68806839	1.15149999	0	255	0
9.1181879	6.688375	1.15149999	0	255	0
9.03425026	6.68776226	1.49425006	0	255	0
9.03425026	6.68806839	1.15149999	0	255	0
8.95031261	6.688375	1.15149999	0	255	0
8.95031261	6.688375	0.808749974	0	255	0
9.03425026	6.688375	0.808749974	0	255	0
8.86637497	6.68806839	1.15149999	0	255	0
8.95031261	6.68806839	0.808749974	0	255	0
9.03425026	6.68776226	1.15149999	0	255	0
8.86637497	6.68806839	0.808749974	0	255	0
9.03425026	6.68776226	0.808749974	0	255	0
8.86637497	6.688375	1.15149999	0	255	0
8.86637497	6.688375	0.98012495	0	255	0
9.03425026	6.688375	0.98012495	0	255	0
8.86637497	6.68776226	0.98012495	0	255	0
9.03425026	6.68776226	0.98012495	0	255	0
9.03425026	6.68776226	1.15149999	0	255	0
8.78243732	6.68776226	0.637374997	0	255	0
8.78243732	6.68776226	0.465999961	0	255	0
8.86637497	6.68776226	0.637374997	0	255	0
8.69849968	6.68745613	0.637374997	0	255	0
8.69849968	6.68745613	0.465999961	0	255	0
8.78243732	6.68745613	0.808749974	0	255	0
8.69849968	6.68715	0.637374997	0	255	0
8.86637497	6.68715	0.637374997	0	255	0
8.95031261	6.68776226	1.15149999	0	255	0
8.86637497	6.68745613	1.15149999	0	255	0
8.95031261	6.68745613	0.808749974	0	255	0
8.95031261	6.68776226	0.808749974	0	255	0
8.86637497	6.68745613	0.808749974	0	255	0
8.78243732	6.68776226	0.808749974	0	255	0
8.69849968	6.68776226	0.465999961	0	255	0
8.69849968	6.68776226	0.637374997	0	255	0
8.69849968	6.68745613	0.808749974	0	255	0
8.78243732	6.68745613	0.465999961	0	255	0
8.86637497	6.68715	0.465999961	0	255	0
8.95031261	6.68776226	0.808749974	0	255	0
8.86637497	6.68745613	0.808749974	0	255	0
8.95031261	6.68745613	0.465999961	0	255	0
8.95031261	6.68776226	0.465999961	0	255	0
8.86637497	6.68745613	0.465999961	0	255	0
9.1181879	6.688375	1.15149999	0	255	0
9.03425026	6.68806839	1.15149999	0	255	0
9.1181879	6.68806839	0.808749974	0	255	0
9.1181879	6.688375	0.808749974	0	255	0
9.03425026	6.68776226	1.15149999	0	255	0
9.03425026	6.68806839	0.808749974	0	255	0
9.1181879	6.688375	0.808749974	0	255	0
9.03425026	6.68806839	0.808749974	0	255	0
9.1181879	6.68806839	0.465999961	0	255	0
9.1181879	6.688375	0.465999961	0	255	0
9.03425026	6.68776226	0.808749974	0	255	0
9.03425026	6.68806839	0.465999961	0	255	0
8.61456203	6.68745613	0.123249978	0	255	0
8.69849968	6.68745613	0.465999961	0	255	0
8.61456203	6.68715	0.465999961	0	255	0
8.53062439	6.68715	0.465999961	0	255	0
8.69849968	6.68745613	0.123249978	0	255	0
8.69849968	6.68715	0.123249978	0	255	0
8.61456203	6.68715	0.123249978	0	255	0
8.61456203	6.68776226	-0.219500005	0	255	0
8.61456203	6.68776226	-0.0481250137	0	255	0
8.69849968	6.68776226	-0.0481250137	0	255	0
8.69849968	6.68776226	-0.219500005	0	255	0
8.61456203	6.68745613	-0.0481250137	0	255	0
8.69849968	6.68745613	-0.0481250137	0	255	0
8.69849968	6.68745613	-0.219500005	0	255	0
8.53062439	6.68715	0.123249978	0	255	0
8.61456203	6.68776226	-0.390875012	0	255	0
8.61456203	6.68776226	-0.219500005	0	255	0
8.69849968	6.68776226	-0.219500005	0	255	0
8.69849968	6.68776226	-0.390875012	0	255	0
8.61456203	6.68745613	-0.562250018	0	255	0
8.69849968	6.68745613	-0.219500005	0	255	0
8.69849968	6.68745613	-0.390875012	0	255	0
8.61456203	6.68745613	-0.390875012	0	255	0
8.69849968	6.68898773	0.465999961	0	255	0
8.69849968	6.68898773	0.637374997	0	255	0
8.86637497	6.68898773	0.637374997	0	255	0
8.69849968	6.688375	0.808749974	0	255	0
8.69849968	6.688375	0.637374997	0	255	0
8.86637497	6.688375	0.637374997	0	255	0
8.86637497	6.688375	0.465999961	0	255	0
8.69849968	6.688375	0.465999961	0	255	0
9.03425026	6.68959999	1.15149999	0	255	0
9.03425026	6.68959999	0.98012495	0	255	0
9.36999989	6.68959999	0.98012495	0	255	0
9.36999989	6.68959999	-0.904999971	0	255	0
9.03425026	6.688375	0.98012495	0	255	0
9.36999989	6.688375	0.98012495	0	255	0
9.36999989	6.688375	1.15149999	0	255	0
9.03425026	6.688375	0.808749974	0	255	0
8.86637497	6.688375	0.465999961	0	255	0
8.86637497	6.688375	0.637374997	0	255	0
9.03425026	6.688375	0.637374997	0	255	0
8.69849968	6.68776226	0.465999961	0	255	0
8.69849968	6.68776226	0.637374997	0	255	0
8.69849968	6.68715	0.637374997	0	255	0
9.03425026	6.68715	0.637374997	0	255	0
9.03425026	6.68715	0.465999961	0	255	0
9.03425026	6.688375	0.637374997	0	255	0
9.20212555	6.688375	0.637374997	0	255	0
9.20212555	6.688375	0.465999961	0	255	0
9.03425026	6.68776226	0.637374997	0	255	0
9.20212555	6.68776226	0.637374997	0	255	0
9.03425026	6.68715	0.808749974	0	255	0
9.03425026	6.68776226	0.465999961	0	255	0
8.61456203	6.68715	-0.733624995	0	255	0
8.61456203	6.68715	-0.904999971	0	255	0
8.69849968	6.68715	-0.733624995	0	255	0
8.53062439	6.68684387	-0.733624995	0	255	0
8.53062439	6.68684387	-0.904999971	0	255	0
8.61456203	6.68684387	-0.562250018	0	255	0
8.53062439	6.68653727	-0.733624995	0	255	0
8.69849968	6.68653727	-0.904999971	0	255	0
8.69849968	6.68653727	-0.733624995	0	255	0
8.4466877	6.68653727	-0.390875012	0	255	0
8.4466877	6.68653727	-0.219500005	0	255	0
8.53062439	6.68653727	-0.390875012	0	255	0
8.36275005	6.68623066	-0.390875012	0	255	0
8.36275005	6.68623066	-0.219500005	0	255	0
8.4466877	6.68623066	-0.562250018	0	255	0
8.36275005	6.68592453	-0.390875012	0	255	0
8.53062439	6.68592453	-0.904999971	0	255	0
8.53062439	6.68592453	-0.390875012	0	255	0
8.53062439	6.68653727	-0.733624995	0	255	0
8.61456203	6.68653727	-0.904999971	0	255	0
8.61456203	6.68653727	-0.733624995	0	255	0
8.53062439	6.68623066	-0.904999971	0	255	0
8.61456203	6.68623066	-0.562250018	0	255	0
8.61456203	6.68623066	-0.733624995	0	255	0
8.53062439	6.68623066	-0.733624995	0	255	0
8.27881241	6.68592453	0.294624984	0	255	0
8.27881241	6.68592453	0.465999961	0	255	0
8.36275005	6.68592453	0.294624984	0	255	0
8.19487572	6.6856184	0.294624984	0	255	0
8.19487572	6.6856184	0.465999961	0	255	0
8.27881241	6.6856184	0.123249978	0	255	0
8.19487572	6.68531227	0.294624984	0	255	0
8.36275005	6.68531227	0.465999961	0	255	0
8.36275005	6.68531227	0.294624984	0	255	0
8.11093807	6.68531227	-0.0481250137	0	255	0
8.11093807	6.68531227	-0.219500005	0	255	0
8.19487572	6.68531227	-0.0481250137	0	255	0
8.02700043	6.68500614	-0.0481250137	0	255	0
8.02700043	6.68500614	-0.219500005	0	255	0
8.11093807	6.68500614	0.123249978	0	255	0
8.02700043	6.68469954	-0.0481250137	0	255	0
8.19487572	6.68469954	0.465999961	0	255	0
8.19487572	6.68469954	-0.0481250137	0	255	0
8.19487572	6.68531227	0.294624984	0	255	0
8.27881241	6.68531227	0.465999961	0	255	0
8.27881241	6.68531227	0.294624984	0	255	0
8.19487572	6.68500614	0.465999961	0	255	0
8.27881241	6.68500614	0.123249978	0	255	0
8.27881241	6.68500614	0.294624984	0	255	0
8.19487572	6.68500614	0.294624984	0	255	0
8.36275005	6.68592453	-0.733624995	0	255	0
8.4466877	6.68592453	-0.904999971	0	255	0
8.4466877	6.68592453	-0.733624995	0	255	0
8.36275005	6.6856184	-0.904999971	0	255	0
8.4466877	6.6856184	-0.562250018	0	255	0
8.4466877	6.6856184	-0.733624995	0	255	0
8.36275005	6.6856184	-0.733624995	0	255	0
8.78243732	6.68715	1.83700001	0	255	0
8.69849968	6.68684387	1.83700001	0	255	0
8.78243732	6.68684387	1.49425006	0	255	0
8.78243732	6.68715	1.49425006	0	255	0
8.69849968	6.68653727	1.83700001	0	255	0
8.69849968	6.68684387	1.49425006	0	255	0
8.78243732	6.68715	1.49425006	0	255	0
8.69849968	6.68684387	1.49425006	0	255	0
8.78243732	6.68684387	1.15149999	0	255	0
8.78243732	6.68715	1.15149999	0	255	0
8.69849968	6.68653727	1.49425006	0	255	0
8.69849968	6.68684387	1.15149999	0	255	0
8.78243732	6.68715	1.15149999	0	255	0
8.69849968	6.68684387	1.15149999	0	255	0
8.78243732	6.68684387	0.808749974	0	255	0
8.78243732	6.68715	0.808749974	0	255	0
8.69849968	6.68653727	1.15149999	0	255	0
8.69849968	6.68684387	0.808749974	0	255	0
8.78243732	6.68715	0.808749974	0	255	0
8.69849968	6.68684387	0.808749974	0	255	0
8.78243732	6.68684387	0.465999961	0	255	0
8.78243732	6.68715	0.465999961	0	255	0
8.69849968	6.68653727	0.808749974	0	255	0
8.69849968	6.68684387	0.465999961	0	255	0
8.36275005	6.68653727	0.465999961	0	255	0
8.4466877	6.68684387	0.294624984	0	255	0
8.53062439	6.68684387	0.294624984	0	255	0
8.53062439	6.68684387	0.123249978	0	255	0
8.4466877	6.68653727	0.294624984	0	255	0
8.53062439	6.68653727	0.294624984	0	255	0
8.4466877	6.68653727	0.123249978	0	255	0
8.61456203	6.68715	0.465999961	0	255	0
8.69849968	6.68684387	0.465999961	0	255	0
8.53062439	6.68715	0.123249978	0	255	0
8.53062439	6.68715	0.294624984	0	255	0
8.53062439	6.68684387	0.465999961	0	255	0
8.61456203	6.68684387	0.123249978	0	255	0
8.61456203	6.68653727	0.465999961	0	255	0
8.69849968	6.68653727	0.294624984	0	255	0
8.69849968	6.68653727	0.123249978	0	255	0
8.36275005	6.68653727	0.123249978	0	255	0
8.4466877	6.68684387	-0.0481250137	0	255	0
8.53062439	6.68684387	-0.0481250137	0	255	0
8.53062439	6.68684387	-0.219500005	0	255	0
8.4466877	6.68653727	-0.0481250137	0	255	0
8.53062439	6.68653727	-0.0481250137	0	255	0
8.4466877	6.68653727	-0.219500005	0	255	0
8.53062439	6.68715	-0.390875012	0	255	0
8.53062439	6.68715	0.123249978	0	255	0
8.69849968	6.68715	-0.390875012	0	255	0
8.53062439	6.68653727	-0.904999971	0	255	0
8.69849968	6.68653727	0.123249978	0	255	0
8.69849968	6.68653727	-0.390875012	0	255	0
8.53062439	6.68653727	-0.390875012	0	255	0
8.4466877	6.68653727	-0.0481250137	0	255	0
8.4466877	6.68653727	-0.219500005	0	255	0
8.53062439	6.68653727	-0.0481250137	0	255	0
8.36275005	6.68623066	-0.0481250137	0	255	0
8.36275005	6.68623066	-0.219500005	0	255	0
8.4466877	6.68623066	0.123249978	0	255	0
8.36275005	6.68592453	-0.0481250137	0	255	0
8.53062439	6.68592453	-0.0481250137	0	255	0
8.61456203	6.68653727	0.465999961	0	255	0
8.53062439	6.68623066	0.465999961	0	255	0
8.61456203	6.68623066	0.123249978	0	255	0
8.61456203	6.68653727	0.123249978	0	255	0
8.53062439	6.68623066	0.123249978	0	255	0
8.4466877	6.68653727	0.123249978	0	255	0
8.4466877	6.68653727	-0.219500005	0	255	0
8.36275005	6.68623066	0.123249978	0	255	0
8.4466877	6.68623066	-0.219500005	0	255	0
8.36275005	6.68623066	-0.219500005	0	255	0
8.53062439	6.68592453	-0.219500005	0	255	0
8.61456203	6.68653727	0.123249978	0	255	0
8.53062439	6.68623066	0.123249978	0	255	0
8.61456203	6.68623066	-0.219500005	0	255	0
8.61456203	6.68653727	-0.219500005	0	255	0
8.53062439	6.68623066	-0.219500005	0	255	0
8.27881241	6.68653727	-0.733624995	0	255	0
8.27881241	6.68653727	-0.562250018	0	255	0
8.36275005	6.68653727	-0.562250018	0	255	0
8.36275005	6.68653727	-0.733624995	0	255	0
8.27881241	6.68623066	-0.904999971	0	255	0
8.36275005	6.68623066	-0.562250018	0	255	0
8.36275005	6.68623066	-0.733624995	0	255	0
8.27881241	6.68623066	-0.733624995	0	255	0
8.36275005	6.68715	0.465999961	0	255	0
8.36275005	6.68715	-0.0481250137	0	255	0
8.69849968	6.68715	-0.0481250137	0	255	0
8.02700043	6.68469954	1.83700001	0	255	0
8.36275005	6.68592453	-0.0481250137	0	255	0
8.69849968	6.68592453	-0.0481250137	0	255	0
8.69849968	6.68592453	0.465999961	0	255	0
8.27881241	6.68592453	-0.733624995	0	255	0
8.27881241	6.68592453	-0.904999971	0	255	0
8.36275005	6.68592453	-0.733624995	0	255	0
8.19487572	6.6856184	-0.733624995	0	255	0
8.19487572	6.6856184	-0.904999971	0	255	0
8.27881241	6.6856184	-0.562250018	0	255	0
8.19487572	6.68531227	-0.733624995	0	255	0
8.36275005	6.68531227	-0.904999971	0	255	0
8.36275005	6.68531227	-0.733624995	0	255	0
8.11093807	6.68531227	-0.390875012	0	255	0
8.11093807	6.68531227	-0.219500005	0	255	0
8.19487572	6.68531227	-0.390875012	0	255	0
8.11093807	6.68469954	-0.219500005	0	255	0
8.19487572	6.68469954	-0.904999971	0	255	0
8.19487572	6.68469954	-0.390875012	0	255	0
8.11093807	6.68469954	-0.390875012	0	255	0
8.19487572	6.68531227	-0.733624995	0	255	0
8.27881241	6.68531227	-0.904999971	0	255	0
8.27881241	6.68531227	-0.733624995	0	255	0
8.19487572	6.68500614	-0.904999971	0	255	0
8.27881241	6.68500614	-0.562250018	0	255	0
8.27881241	6.68500614	-0.733624995	0	255	0
8.19487572	6.68500614	-0.733624995	0	255	0
8.4466877	6.68592453	0.465999961	0	255	0
8.36275005	6.6856184	0.465999961	0	255	0
8.4466877	6.6856184	0.123249978	0	255	0
8.4466877	6.68592453	0.123249978	0	255	0
8.36275005	6.68531227	0.465999961	0	255	0
8.36275005	6.6856184	0.123249978	0	255	0
8.4466877	6.68592453	0.123249978	0	255	0
8.36275005	6.6856184	0.123249978	0	255	0
8.4466877	6.6856184	-0.219500005	0	255	0
8.4466877	6.68592453	-0.219500005	0	255	0
8.36275005	6.68531227	0.123249978	0	255	0
8.36275005	6.6856184	-0.219500005	0	255	0
8.11093807	6.6856184	-0.562250018	0	255	0
8.19487572	6.6856184	-0.219500005	0	255	0
8.11093807	6.68531227	-0.219500005	0	255	0
8.02700043	6.68531227	-0.219500005	0	255	0
8.19487572	6.6856184	-0.562250018	0	255	0
8.11093807	6.68531227	-0.562250018	0	255	0
8.19487572	6.68592453	-0.390875012	0	255	0
8.19487572	6.68592453	-0.219500005	0	255	0
8.27881241	6.68592453	-0.562250018	0	255	0
8.36275005	6.68592453	-0.562250018	0	255	0
8.36275005	6.6856184	-0.562250018	0	255	0
8.27881241	6.6856184	-0.562250018	0	255	0
8.36275005	6.68531227	-0.219500005	0	255	0
8.36275005	6.68531227	-0.390875012	0	255	0
8.19487572	6.6856184	-0.562250018	0	255	0
8.27881241	6.68531227	-0.562250018	0	255	0
8.11093807	6.6856184	-0.733624995	0	255	0
8.11093807	6.6856184	-0.904999971	0	255	0
8.19487572	6.6856184	-0.562250018	0	255	0
8.19487572	6.6856184	-0.733624995	0	255	0
8.11093807	6.68531227	-0.562250018	0	255	0
8.19487572	6.68531227	-0.733624995	0	255	0
8.11093807	6.68531227	-0.733624995	0	255	0
8.19487572	6.68592453	-0.219500005	0	255	0
8.19487572	6.68592453	-0.390875012	0	255	0
8.36275005	6.68592453	-0.390875012	0	255	0
8.02700043	6.68469954	0.465999961	0	255	0
8.19487572	6.68531227	-0.390875012	0	255	0
8.36275005	6.68531227	-0.390875012	0	255	0
8.36275005	6.68531227	-0.219500005	0	255	0
8.11093807	6.68531227	-0.733624995	0	255	0
8.11093807	6.68531227	-0.904999971	0	255	0
8.19487572	6.68531227	-0.733624995	0	255	0
8.11093807	6.68469954	-0.904999971	0	255	0
8.19487572	6.68469954	-0.733624995	0	255	0
8.11093807	6.68469954	-0.733624995	0	255	0
8.27881241	6.68531227	-0.219500005	0	255	0
8.19487572	6.68500614	-0.219500005	0	255	0
8.27881241	6.68500614	-0.562250018	0	255	0
8.27881241	6.68531227	-0.562250018	0	255	0
8.19487572	6.68500614	-0.562250018	0	255	0
8.11093807	6.68531227	-0.562250018	0	255	0
8.11093807	6.68500614	-0.904999971	0	255	0
8.19487572	6.68500614	-0.562250018	0	255	0
8.02700043	6.68531227	-0.904999971	0	255	0
8.02700043	6.68531227	-0.733624995	0	255	0
8.02700043	6.68469954	-0.219500005	0	255	0
8.19487572	6.68500614	-0.904999971	0	255	0
8.02700043	6.68469954	-0.733624995	0	255	0
8.11093807	6.68469954	-0.733624995	0	255	0
8.11093807	6.68469954	-0.904999971	0	255	0
8.02700043	6.68469954	-0.904999971	0	255	0
8.4466877	6.68592453	-0.219500005	0	255	0
8.36275005	6.6856184	-0.219500005	0	255	0
8.4466877	6.6856184	-0.562250018	0	255	0
8.36275005	6.68592453	-0.562250018	0	255	0
8.4466877	6.68592453	-0.562250018	0	255	0
8.36275005	6.68531227	-0.219500005	0	255	0
8.36275005	6.6856184	-0.562250018	0	255	0
8.78243732	6.68715	0.465999961	0	255	0
8.69849968	6.68684387	0.465999961	0	255	0
8.78243732	6.68684387	0.123249978	0	255	0
8.78243732	6.68715	0.123249978	0	255	0
8.69849968	6.68653727	0.465999961	0	255	0
8.69849968	6.68684387	0.123249978	0	255	0
8.78243732	6.68715	0.123249978	0	255	0
8.69849968	6.68684387	0.123249978	0	255	0
8.78243732	6.68684387	-0.219500005	0	255	0
8.69849968	6.68715	-0.219500005	0	255	0
8.78243732	6.68715	-0.219500005	0	255	0
8.69849968	6.68653727	0.123249978	0	255	0
8.69849968	6.68684387	-0.219500005	0	255	0
