-8.45674992	6.63659954	4.24399996	0	255	0
-8.45674992	6.63659954	4.04650021	0	255	0
-8.43050003	6.63659954	4.04650021	0	255	0
-8.43050003	6.63659954	3.454	0	255	0
-8.45674992	6.63627481	4.04650021	0	255	0
-8.43050003	6.63627481	4.04650021	0	255	0
-8.43050003	6.63627481	4.24399996	0	255	0
-8.45674992	6.63627481	3.84899998	0	255	0
-8.4436245	6.63627481	3.84899998	0	255	0
-8.43050003	6.63627481	3.84899998	0	255	0
-8.4436245	6.63627481	3.454	0	255	0
-8.43050003	6.63627481	3.454	0	255	0
-8.4436245	6.63595009	3.84899998	0	255	0
-8.43050003	6.63595009	3.84899998	0	255	0
-8.4436245	6.63595009	3.454	0	255	0
-8.41737556	6.63643742	3.84899998	0	255	0
-8.40425014	6.63643742	4.24399996	0	255	0
-8.41737556	6.63627481	4.24399996	0	255	0
-8.40425014	6.63627481	3.454	0	255	0
-8.43050003	6.63627481	4.24399996	0	255	0
-8.40425014	6.63643742	3.84899998	0	255	0
-8.41737556	6.63627481	3.84899998	0	255	0
-8.43050003	6.63643742	3.84899998	0	255	0
-8.41737556	6.63643742	3.454	0	255	0
-8.40425014	6.63643742	3.84899998	0	255	0
-8.43050003	6.63643742	3.454	0	255	0
-8.40425014	6.63643742	3.454	0	255	0
-8.40425014	6.63627481	3.65149999	0	255	0
-8.41737556	6.63627481	3.454	0	255	0
-8.41737556	6.63611221	3.454	0	255	0
-8.40425014	6.63595009	3.84899998	0	255	0
-8.40425014	6.63611221	3.454	0	255	0
-8.40425014	6.63595009	3.454	0	255	0
-8.4829998	6.63627481	3.454	0	255	0
-8.46987534	6.63643742	3.25650001	0	255	0
-8.45674992	6.63643742	3.25650001	0	255	0
-8.45674992	6.63643742	3.05900002	0	255	0
-8.46987534	6.63627481	3.25650001	0	255	0
-8.45674992	6.63627481	3.25650001	0	255	0
-8.46987534	6.63627481	3.05900002	0	255	0
-8.4436245	6.63643742	3.05900002	0	255	0
-8.43050003	6.63643742	3.454	0	255	0
-8.43050003	6.63643742	3.25650001	0	255	0
-8.4436245	6.63627481	3.454	0	255	0
-8.43050003	6.63627481	3.25650001	0	255	0
-8.45674992	6.63643742	3.05900002	0	255	0
-8.45674992	6.63643742	3.25650001	0	255	0
-8.45674992	6.63627481	3.25650001	0	255	0
-8.4436245	6.63627481	3.05900002	0	255	0
-8.45674992	6.63659954	3.454	0	255	0
-8.45674992	6.63659954	3.25650001	0	255	0
-8.43050003	6.63659954	3.25650001	0	255	0
-8.43050003	6.63659954	2.66400003	0	255	0
-8.45674992	6.63627481	3.25650001	0	255	0
-8.43050003	6.63627481	3.25650001	0	255	0
-8.43050003	6.63627481	3.454	0	255	0
-8.46987534	6.63611221	2.86150002	0	255	0
-8.46987534	6.63611221	3.05900002	0	255	0
-8.45674992	6.63611221	2.66400003	0	255	0
-8.45674992	6.63611221	2.86150002	0	255	0
-8.46987534	6.63595009	2.66400003	0	255	0
-8.45674992	6.63595009	2.86150002	0	255	0
-8.46987534	6.63595009	2.86150002	0	255	0
-8.43050003	6.63627481	3.25650001	0	255	0
-8.4436245	6.63627481	3.05900002	0	255	0
-8.4436245	6.63611221	3.05900002	0	255	0
-8.43050003	6.63611221	3.05900002	0	255	0
-8.4436245	6.63627481	3.05900002	0	255	0
-8.43050003	6.63627481	3.05900002	0	255	0
-8.4436245	6.63627481	2.66400003	0	255	0
-8.43050003	6.63627481	2.66400003	0	255	0
-8.45674992	6.63611221	2.86150002	0	255	0
-8.45674992	6.63611221	3.05900002	0	255	0
-8.4436245	6.63611221	2.66400003	0	255	0
-8.45674992	6.63595009	2.86150002	0	255	0
-8.4436245	6.63595009	2.66400003	0	255	0
-8.43050003	6.63659954	4.24399996	0	255	0
-8.43050003	6.63659954	3.65149999	0	255	0
-8.40425014	6.63659954	3.65149999	0	255	0
-8.40425014	6.63659954	3.454	0	255	0
-8.43050003	6.63595009	3.65149999	0	255	0
-8.40425014	6.63595009	3.65149999	0	255	0
-8.40425014	6.63595009	3.454	0	255	0
-8.4436245	6.63595009	2.86150002	0	255	0
-8.4436245	6.63595009	2.66400003	0	255	0
-8.43050003	6.63595009	2.86150002	0	255	0
-8.45674992	6.63578749	2.86150002	0	255	0
-8.45674992	6.63578749	2.66400003	0	255	0
-8.4436245	6.63578749	3.05900002	0	255	0
-8.45674992	6.63562489	2.86150002	0	255	0
-8.43050003	6.63562489	2.86150002	0	255	0
-8.4436245	6.63562489	2.86150002	0	255	0
-8.4436245	6.63562489	2.66400003	0	255	0
-8.43050003	6.63562489	2.86150002	0	255	0
-8.4436245	6.63546276	3.05900002	0	255	0
-8.43050003	6.63546276	2.66400003	0	255	0
-8.43050003	6.63546276	2.86150002	0	255	0
-8.4436245	6.63546276	2.86150002	0	255	0
-8.43050003	6.63595009	4.04650021	0	255	0
-8.43050003	6.63578749	3.84899998	0	255	0
-8.40425014	6.63595009	4.04650021	0	255	0
-8.40425014	6.63578749	4.04650021	0	255	0
-8.40425014	6.63578749	3.84899998	0	255	0
-8.43050003	6.63578749	4.24399996	0	255	0
-8.41737556	6.63578749	3.84899998	0	255	0
-8.41737556	6.63578749	3.84899998	0	255	0
-8.41737556	6.63562489	4.24399996	0	255	0
-8.41737556	6.63562489	4.04650021	0	255	0
-8.43050003	6.63562489	4.04650021	0	255	0
-8.40425014	6.63595009	4.04650021	0	255	0
-8.39112473	6.63595009	4.04650021	0	255	0
-8.39112473	6.63595009	3.84899998	0	255	0
-8.40425014	6.63578749	4.04650021	0	255	0
-8.39112473	6.63578749	4.04650021	0	255	0
-8.40425014	6.63578749	3.84899998	0	255	0
-8.40425014	6.63595009	3.454	0	255	0
-8.41737556	6.63578749	3.454	0	255	0
-8.43050003	6.63562489	3.65149999	0	255	0
-8.43050003	6.63546276	3.454	0	255	0
-8.43050003	6.63546276	3.65149999	0	255	0
-8.40425014	6.63562489	3.65149999	0	255	0
-8.40425014	6.63546276	3.454	0	255	0
-8.40425014	6.63546276	3.65149999	0	255	0
-8.43050003	6.63546276	3.84899998	0	255	0
-8.40425014	6.63546276	3.84899998	0	255	0
-8.43050003	6.63546276	3.454	0	255	0
-8.40425014	6.63546276	3.454	0	255	0
-8.46987534	6.63595009	3.454	0	255	0
-8.46987534	6.63578749	3.05900002	0	255	0
-8.45674992	6.63578749	3.454	0	255	0
-8.4829998	6.63595009	3.05900002	0	255	0
-8.4829998	6.63595009	3.25650001	0	255	0
-8.45674992	6.63595009	3.05900002	0	255	0
-8.45674992	6.63578749	3.05900002	0	255	0
-8.4829998	6.63562489	3.25650001	0	255	0
-8.46987534	6.63562489	3.25650001	0	255	0
-8.46987534	6.63562489	3.05900002	0	255	0
-8.4829998	6.63562489	3.05900002	0	255	0
-8.45674992	6.63595009	3.25650001	0	255	0
-8.45674992	6.63578749	3.454	0	255	0
-8.45674992	6.63578749	3.25650001	0	255	0
-8.43050003	6.63595009	3.25650001	0	255	0
-8.4436245	6.63562489	3.454	0	255	0
-8.43050003	6.63562489	3.25650001	0	255	0
-8.4436245	6.63562489	3.25650001	0	255	0
-8.45674992	6.63595009	3.454	0	255	0
-8.45674992	6.63595009	3.25650001	0	255	0
-8.43050003	6.63595009	3.25650001	0	255	0
-8.45674992	6.63562489	3.25650001	0	255	0
-8.43050003	6.63562489	3.25650001	0	255	0
-8.43050003	6.63562489	3.454	0	255	0
-8.46987534	6.63562489	2.86150002	0	255	0
-8.46987534	6.63562489	2.66400003	0	255	0
-8.45674992	6.63562489	2.86150002	0	255	0
-8.46987534	6.63546276	3.05900002	0	255	0
-8.45674992	6.63546276	2.66400003	0	255	0
-8.45674992	6.63546276	2.86150002	0	255	0
-8.46987534	6.63546276	2.86150002	0	255	0
-8.45674992	6.63562489	3.25650001	0	255	0
-8.45674992	6.63546276	3.454	0	255	0
-8.45674992	6.63546276	3.25650001	0	255	0
-8.43050003	6.63562489	3.25650001	0	255	0
-8.43050003	6.63546276	3.454	0	255	0
-8.43050003	6.63546276	3.25650001	0	255	0
-8.45674992	6.63562489	2.86150002	0	255	0
-8.45674992	6.63546276	3.05900002	0	255	0
-8.45674992	6.63546276	2.86150002	0	255	0
-8.43050003	6.63562489	3.05900002	0	255	0
-8.43050003	6.63546276	3.05900002	0	255	0
-8.4436245	6.63562489	2.66400003	0	255	0
-8.43050003	6.63562489	2.66400003	0	255	0
-8.43050003	6.63546276	2.66400003	0	255	0
-8.45674992	6.63530016	3.05900002	0	255	0
-8.43050003	6.63595009	3.05900002	0	255	0
-8.41737556	6.63595009	3.05900002	0	255	0
-8.43050003	6.63578749	3.05900002	0	255	0
-8.41737556	6.63578749	2.66400003	0	255	0
-8.40425014	6.63595009	2.86150002	0	255	0
-8.40425014	6.63595009	2.66400003	0	255	0
-8.43050003	6.63562489	2.86150002	0	255	0
-8.40425014	6.63562489	2.86150002	0	255	0
-8.43050003	6.63562489	2.86150002	0	255	0
-8.43050003	6.63562489	3.454	0	255	0
-8.41737556	6.63562489	2.66400003	0	255	0
-8.41737556	6.63562489	2.86150002	0	255	0
-8.43050003	6.63546276	2.66400003	0	255	0
-8.41737556	6.63546276	3.05900002	0	255	0
-8.41737556	6.63546276	2.86150002	0	255	0
-8.43050003	6.63546276	2.86150002	0	255	0
-8.41737556	6.63562489	3.05900002	0	255	0
-8.43050003	6.63546276	3.05900002	0	255	0
-8.41737556	6.63546276	2.66400003	0	255	0
-8.43050003	6.63546276	2.66400003	0	255	0
-8.40425014	6.63562489	2.86150002	0	255	0
-8.40425014	6.63546276	2.86150002	0	255	0
-8.40425014	6.63546276	2.66400003	0	255	0
-8.35175037	6.63659954	3.84899998	0	255	0
-8.35175037	6.63659954	4.04650021	0	255	0
-8.33862495	6.63659954	4.04650021	0	255	0
-8.33862495	6.63659954	3.84899998	0	255	0
-8.35175037	6.63643742	3.84899998	0	255	0
-8.35175037	6.63643742	4.24399996	0	255	0
-8.33862495	6.63643742	3.84899998	0	255	0
-8.33862495	6.63643742	3.84899998	0	255	0
-8.33862495	6.63627481	4.24399996	0	255	0
-8.33862495	6.63627481	4.04650021	0	255	0
-8.35175037	6.63627481	4.04650021	0	255	0
-8.35175037	6.63627481	4.04650021	0	255	0
-8.33862495	6.63627481	4.24399996	0	255	0
-8.33862495	6.63627481	4.04650021	0	255	0
-8.33862495	6.63611221	3.84899998	0	255	0
-8.33862495	6.63595009	4.24399996	0	255	0
-8.33862495	6.63595009	4.04650021	0	255	0
-8.35175037	6.63595009	4.04650021	0	255	0
-8.28612518	6.63659954	4.04650021	0	255	0
-8.28612518	6.63659954	4.24399996	0	255	0
-8.27299976	6.63659954	4.24399996	0	255	0
-8.27299976	6.63659954	4.04650021	0	255	0
-8.28612518	6.63627481	4.24399996	0	255	0
-8.27299976	6.63627481	4.04650021	0	255	0
-8.28612518	6.63627481	4.04650021	0	255	0
-8.28612518	6.63627481	4.04650021	0	255	0
-8.28612518	6.63627481	4.24399996	0	255	0
-8.27299976	6.63627481	4.04650021	0	255	0
-8.28612518	6.63595009	4.24399996	0	255	0
-8.27299976	6.63595009	4.04650021	0	255	0
-8.28612518	6.63595009	4.04650021	0	255	0
-8.36487579	6.63659954	3.05900002	0	255	0
-8.36487579	6.63659954	3.25650001	0	255	0
-8.35175037	6.63659954	3.25650001	0	255	0
-8.36487579	6.63643742	3.25650001	0	255	0
-8.35175037	6.63643742	3.25650001	0	255	0
-8.35175037	6.63643742	3.05900002	0	255	0
-8.37800026	6.63627481	3.454	0	255	0
-8.36487579	6.63659954	3.05900002	0	255	0
-8.36487579	6.63659954	2.66400003	0	255	0
-8.35175037	6.63659954	2.66400003	0	255	0
-8.35175037	6.63643742	2.66400003	0	255	0
-8.37800026	6.63627481	3.05900002	0	255	0
-8.36487579	6.63627481	3.05900002	0	255	0
-8.35175037	6.63627481	2.86150002	0	255	0
-8.36487579	6.63627481	2.86150002	0	255	0
-8.36487579	6.63627481	2.86150002	0	255	0
-8.36487579	6.63627481	3.05900002	0	255	0
-8.35175037	6.63627481	2.86150002	0	255	0
-8.36487579	6.63595009	3.05900002	0	255	0
-8.35175037	6.63595009	3.05900002	0	255	0
-8.35175037	6.63595009	2.86150002	0	255	0
-8.36487579	6.63595009	2.86150002	0	255	0
-8.35175037	6.63595009	2.86150002	0	255	0
-8.35175037	6.63595009	2.66400003	0	255	0
-8.33862495	6.63595009	2.66400003	0	255	0
-8.33862495	6.63595009	2.86150002	0	255	0
-8.35175037	6.63578749	2.66400003	0	255	0
-8.33862495	6.63578749	3.05900002	0	255	0
-8.33862495	6.63578749	2.86150002	0	255	0
-8.35175037	6.63578749	2.86150002	0	255	0
-8.28612518	6.63595009	4.04650021	0	255	0
-8.28612518	6.63595009	4.24399996	0	255	0
-8.27299976	6.63595009	4.04650021	0	255	0
-8.29924965	6.63578749	4.04650021	0	255	0
-8.29924965	6.63578749	4.24399996	0	255	0
-8.28612518	6.63578749	3.84899998	0	255	0
-8.29924965	6.63562489	4.04650021	0	255	0
-8.27299976	6.63562489	4.04650021	0	255	0
-8.32550049	6.63546276	3.65149999	0	255	0
-8.32550049	6.63546276	3.454	0	255	0
-8.31237507	6.63546276	3.84899998	0	255	0
-8.31237507	6.63546276	3.65149999	0	255	0
-8.31237507	6.63546276	3.84899998	0	255	0
-8.31237507	6.63530016	3.454	0	255	0
-8.31237507	6.63530016	3.65149999	0	255	0
-8.32550049	6.63530016	3.65149999	0	255	0
-8.29924965	6.63562489	4.04650021	0	255	0
-8.29924965	6.63562489	3.454	0	255	0
-8.27299976	6.63562489	4.04650021	0	255	0
-8.28612518	6.63546276	3.84899998	0	255	0
-8.29924965	6.63530016	4.04650021	0	255	0
-8.27299976	6.63530016	4.04650021	0	255	0
-8.36487579	6.63595009	2.86150002	0	255	0
-8.36487579	6.63595009	3.05900002	0	255	0
-8.35175037	6.63595009	3.05900002	0	255	0
-8.35175037	6.63595009	2.86150002	0	255	0
-8.36487579	6.63578749	2.66400003	0	255	0
-8.35175037	6.63578749	3.05900002	0	255	0
-8.35175037	6.63578749	2.86150002	0	255	0
-8.36487579	6.63578749	2.86150002	0	255	0
-8.33862495	6.63546276	2.86150002	0	255	0
-8.33862495	6.63546276	2.66400003	0	255	0
-8.32550049	6.63546276	3.05900002	0	255	0
-8.32550049	6.63546276	2.86150002	0	255	0
-8.33862495	6.63530016	3.05900002	0	255	0
-8.32550049	6.63530016	3.05900002	0	255	0
-8.32550049	6.63530016	2.86150002	0	255	0
-8.33862495	6.63530016	2.86150002	0	255	0
-8.45674992	6.63643742	1.47900009	0	255	0
-8.45674992	6.63643742	1.67650008	0	255	0
-8.45674992	6.63627481	1.67650008	0	255	0
-8.43050003	6.63643742	1.67650008	0	255	0
-8.43050003	6.63643742	1.47900009	0	255	0
-8.43050003	6.63627481	1.67650008	0	255	0
-8.46987534	6.63643742	1.08399999	0	255	0
-8.45674992	6.63643742	1.47900009	0	255	0
-8.46987534	6.63627481	1.47900009	0	255	0
-8.4829998	6.63643742	1.08399999	0	255	0
-8.4829998	6.63643742	1.2815001	0	255	0
-8.4829998	6.63627481	1.2815001	0	255	0
-8.4829998	6.63627481	1.08399999	0	255	0
-8.45674992	6.63643742	1.08399999	0	255	0
-8.4829998	6.63595009	1.87400007	0	255	0
-8.45674992	6.63659954	1.87400007	0	255	0
-8.45674992	6.63659954	1.67650008	0	255	0
-8.43050003	6.63659954	1.67650008	0	255	0
-8.43050003	6.63659954	1.08399999	0	255	0
-8.45674992	6.63627481	1.67650008	0	255	0
-8.43050003	6.63627481	1.67650008	0	255	0
-8.43050003	6.63627481	1.87400007	0	255	0
-8.4829998	6.63611221	1.2815001	0	255	0
-8.4829998	6.63611221	1.08399999	0	255	0
-8.46987534	6.63611221	1.47900009	0	255	0
-8.4829998	6.63595009	1.2815001	0	255	0
-8.45674992	6.63611221	1.08399999	0	255	0
-8.45674992	6.63611221	1.2815001	0	255	0
-8.45674992	6.63595009	1.2815001	0	255	0
-8.45674992	6.63627481	1.67650008	0	255	0
-8.43050003	6.63627481	1.67650008	0	255	0
-8.45674992	6.63595009	1.67650008	0	255	0
-8.43050003	6.63595009	1.67650008	0	255	0
-8.43050003	6.63595009	1.47900009	0	255	0
-8.46987534	6.63627481	1.2815001	0	255	0
-8.46987534	6.63627481	1.47900009	0	255	0
-8.45674992	6.63627481	1.2815001	0	255	0
-8.46987534	6.63595009	1.47900009	0	255	0
-8.4829998	6.63595009	1.47900009	0	255	0
-8.45674992	6.63611221	1.08399999	0	255	0
-8.45674992	6.63595009	1.08399999	0	255	0
-8.46987534	6.63595009	1.08399999	0	255	0
-8.45674992	6.63627481	1.2815001	0	255	0
-8.4436245	6.63627481	1.47900009	0	255	0
-8.4436245	6.63627481	1.2815001	0	255	0
-8.4436245	6.63611221	1.08399999	0	255	0
-8.4436245	6.63595009	1.47900009	0	255	0
-8.4436245	6.63595009	1.2815001	0	255	0
-8.45674992	6.63595009	1.2815001	0	255	0
-8.43050003	6.63659954	2.66400003	0	255	0
-8.43050003	6.63659954	2.07150006	0	255	0
-8.37800026	6.63659954	2.07150006	0	255	0
-8.37800026	6.63659954	1.08399999	0	255	0
-8.43050003	6.63595009	2.07150006	0	255	0
-8.37800026	6.63595009	2.07150006	0	255	0
-8.37800026	6.63595009	2.66400003	0	255	0
-8.46987534	6.63595009	1.47900009	0	255	0
-8.46987534	6.63595009	1.67650008	0	255	0
-8.45674992	6.63595009	1.67650008	0	255	0
-8.46987534	6.63562489	1.67650008	0	255	0
-8.45674992	6.63562489	1.67650008	0	255	0
-8.46987534	6.63562489	1.47900009	0	255	0
-8.4436245	6.63595009	1.87400007	0	255	0
-8.45674992	6.63595009	1.67650008	0	255	0
-8.43050003	6.63595009	1.47900009	0	255	0
-8.43050003	6.63578749	1.47900009	0	255	0
-8.4436245	6.63562489	1.87400007	0	255	0
-8.43050003	6.63562489	1.67650008	0	255	0
-8.45674992	6.63562489	1.67650008	0	255	0
-8.4436245	6.63562489	1.47900009	0	255	0
-8.46987534	6.63595009	1.47900009	0	255	0
-8.46987534	6.63595009	1.08399999	0	255	0
-8.45674992	6.63595009	1.08399999	0	255	0
-8.46987534	6.63562489	1.47900009	0	255	0
-8.46987534	6.63562489	1.08399999	0	255	0
-8.45674992	6.63595009	1.87400007	0	255	0
-8.45674992	6.63595009	1.67650008	0	255	0
-8.43050003	6.63595009	1.67650008	0	255	0
-8.4829998	6.63530016	2.66400003	0	255	0
-8.45674992	6.63562489	1.67650008	0	255	0
-8.43050003	6.63562489	1.67650008	0	255	0
-8.43050003	6.63562489	1.87400007	0	255	0
-8.46987534	6.63562489	1.2815001	0	255	0
-8.46987534	6.63562489	1.08399999	0	255	0
-8.45674992	6.63562489	1.2815001	0	255	0
-8.46987534	6.63546276	1.47900009	0	255	0
-8.45674992	6.63546276	1.08399999	0	255	0
-8.45674992	6.63546276	1.2815001	0	255	0
-8.46987534	6.63546276	1.2815001	0	255	0
-8.45674992	6.63546276	1.87400007	0	255	0
-8.43050003	6.63546276	1.87400007	0	255	0
-8.45674992	6.63546276	1.47900009	0	255	0
-8.43050003	6.63562489	1.47900009	0	255	0
-8.43050003	6.63546276	1.47900009	0	255	0
-8.4829998	6.63562489	1.2815001	0	255	0
-8.4829998	6.63546276	1.47900009	0	255	0
-8.4829998	6.63546276	1.2815001	0	255	0
-8.45674992	6.63546276	1.47900009	0	255	0
-8.46987534	6.63562489	1.08399999	0	255	0
-8.45674992	6.63546276	1.08399999	0	255	0
-8.4829998	6.63530016	1.47900009	0	255	0
-8.45674992	6.63562489	1.2815001	0	255	0
-8.45674992	6.63546276	1.2815001	0	255	0
-8.45674992	6.63546276	1.08399999	0	255	0
-8.43050003	6.63562489	1.2815001	0	255	0
-8.43050003	6.63562489	1.08399999	0	255	0
-8.43050003	6.63546276	1.2815001	0	255	0
-8.43050003	6.63546276	1.08399999	0	255	0
-8.43050003	6.63595009	1.67650008	0	255	0
-8.41737556	6.63595009	1.87400007	0	255	0
-8.41737556	6.63595009	1.67650008	0	255	0
-8.41737556	6.63578749	1.47900009	0	255	0
-8.41737556	6.63562489	1.87400007	0	255	0
-8.41737556	6.63562489	1.67650008	0	255	0
-8.43050003	6.63562489	1.67650008	0	255	0
-8.40425014	6.63595009	1.87400007	0	255	0
-8.40425014	6.63595009	1.67650008	0	255	0
-8.37800026	6.63595009	1.67650008	0	255	0
-8.37800026	6.63595009	1.08399999	0	255	0
-8.40425014	6.63562489	1.67650008	0	255	0
-8.37800026	6.63562489	1.67650008	0	255	0
-8.37800026	6.63562489	1.87400007	0	255	0
-8.40425014	6.63562489	1.47900009	0	255	0
-8.43050003	6.63562489	1.2815001	0	255	0
-8.43050003	6.63562489	1.87400007	0	255	0
-8.41737556	6.63562489	1.08399999	0	255	0
-8.41737556	6.63562489	1.2815001	0	255	0
-8.43050003	6.63546276	1.08399999	0	255	0
-8.41737556	6.63546276	1.47900009	0	255	0
-8.41737556	6.63546276	1.2815001	0	255	0
-8.43050003	6.63546276	1.2815001	0	255	0
-8.37800026	6.63659954	4.24399996	0	255	0
-8.37800026	6.63659954	2.86150002	0	255	0
-8.32550049	6.63659954	2.86150002	0	255	0
-8.32550049	6.63659954	2.66400003	0	255	0
-8.37800026	6.63595009	2.86150002	0	255	0
-8.32550049	6.63595009	2.86150002	0	255	0
-8.37800026	6.63595009	2.86150002	0	255	0
-8.32550049	6.63595009	2.86150002	0	255	0
-8.37800026	6.63530016	2.86150002	0	255	0
-8.37800026	6.63530016	2.66400003	0	255	0
-8.32550049	6.63530016	2.86150002	0	255	0
-8.32550049	6.63562489	2.66400003	0	255	0
-8.32550049	6.63562489	2.86150002	0	255	0
-8.29924965	6.63562489	2.86150002	0	255	0
-8.32550049	6.63530016	3.05900002	0	255	0
-8.32550049	6.63530016	2.86150002	0	255	0
-8.29924965	6.63530016	2.86150002	0	255	0
-8.29924965	6.63530016	2.66400003	0	255	0
-8.45674992	6.63513756	1.2815001	0	255	0
-8.45674992	6.63513756	1.08399999	0	255	0
-8.4436245	6.63513756	1.47900009	0	255	0
-8.45674992	6.63497543	1.2815001	0	255	0
-8.43050003	6.63513756	1.08399999	0	255	0
-8.43050003	6.63513756	1.2815001	0	255	0
-8.43050003	6.63497543	1.2815001	0	255	0
-8.45674992	6.63497543	1.2815001	0	255	0
-8.45674992	6.63497543	1.87400007	0	255	0
-8.43050003	6.63497543	1.2815001	0	255	0
-8.4436245	6.63481283	1.47900009	0	255	0
-8.45674992	6.63465023	1.2815001	0	255	0
-8.43050003	6.63465023	1.2815001	0	255	0
-8.43050003	6.63530016	1.2815001	0	255	0
-8.43050003	6.63530016	1.08399999	0	255	0
-8.41737556	6.63530016	1.08399999	0	255	0
-8.41737556	6.63530016	1.2815001	0	255	0
-8.41737556	6.63513756	1.47900009	0	255	0
-8.43050003	6.63497543	1.2815001	0	255	0
-8.40425014	6.63513756	1.08399999	0	255	0
-8.40425014	6.63513756	1.2815001	0	255	0
-8.40425014	6.63497543	1.2815001	0	255	0
-8.43050003	6.63497543	1.67650008	0	255	0
-8.43050003	6.63497543	1.08399999	0	255	0
-8.40425014	6.63497543	1.67650008	0	255	0
-8.41737556	6.63481283	1.47900009	0	255	0
-8.43050003	6.63465023	1.67650008	0	255	0
-8.40425014	6.63465023	1.08399999	0	255	0
-8.40425014	6.63465023	1.67650008	0	255	0
-8.45674992	6.63465023	2.46650004	0	255	0
-8.45674992	6.63465023	2.66400003	0	255	0
-8.43050003	6.63465023	2.46650004	0	255	0
-8.4436245	6.63448811	2.26900005	0	255	0
-8.45674992	6.6343255	2.46650004	0	255	0
-8.43050003	6.6343255	2.46650004	0	255	0
-8.46987534	6.6343255	2.07150006	0	255	0
-8.46987534	6.6343255	1.87400007	0	255	0
-8.45674992	6.6343255	2.07150006	0	255	0
-8.46987534	6.6341629	2.26900005	0	255	0
-8.45674992	6.6341629	1.87400007	0	255	0
-8.45674992	6.6341629	2.07150006	0	255	0
-8.46987534	6.6341629	2.07150006	0	255	0
-8.45674992	6.6343255	2.46650004	0	255	0
-8.45674992	6.6341629	2.66400003	0	255	0
-8.45674992	6.6341629	2.46650004	0	255	0
-8.43050003	6.6343255	2.46650004	0	255	0
-8.43050003	6.6341629	2.66400003	0	255	0
-8.43050003	6.6341629	2.46650004	0	255	0
-8.43050003	6.63465023	1.2815001	0	255	0
-8.40425014	6.63465023	1.08399999	0	255	0
-8.40425014	6.63465023	1.2815001	0	255	0
-8.40425014	6.63448811	1.08399999	0	255	0
-8.40425014	6.63448811	1.2815001	0	255	0
-8.41737556	6.63448811	1.47900009	0	255	0
-8.41737556	6.6343255	1.08399999	0	255	0
-8.41737556	6.6343255	1.2815001	0	255	0
-8.43050003	6.6343255	1.2815001	0	255	0
-8.43050003	6.6343255	1.67650008	0	255	0
-8.43050003	6.6343255	1.08399999	0	255	0
-8.41737556	6.6343255	1.87400007	0	255	0
-8.41737556	6.6343255	1.67650008	0	255	0
-8.43050003	6.6341629	1.87400007	0	255	0
-8.41737556	6.6341629	1.47900009	0	255	0
-8.41737556	6.6341629	1.67650008	0	255	0
-8.43050003	6.6341629	1.67650008	0	255	0
-8.32550049	6.63530016	4.24399996	0	255	0
-8.31237507	6.63530016	4.24399996	0	255	0
-8.32550049	6.63513756	4.24399996	0	255	0
-8.31237507	6.63513756	3.84899998	0	255	0
-8.32550049	6.63530016	3.84899998	0	255	0
-8.31237507	6.63530016	3.84899998	0	255	0
-8.32550049	6.63497543	4.24399996	0	255	0
-8.32550049	6.63513756	3.84899998	0	255	0
-8.29924965	6.63530016	4.04650021	0	255	0
-8.29924965	6.63530016	4.24399996	0	255	0
-8.27299976	6.63530016	4.04650021	0	255	0
-8.28612518	6.63513756	3.84899998	0	255	0
-8.29924965	6.63497543	4.04650021	0	255	0
-8.27299976	6.63497543	4.04650021	0	255	0
-8.29924965	6.63497543	4.04650021	0	255	0
-8.29924965	6.63497543	3.454	0	255	0
-8.27299976	6.63497543	4.04650021	0	255	0
-8.28612518	6.63481283	3.84899998	0	255	0
-8.29924965	6.63465023	4.04650021	0	255	0
-8.27299976	6.63465023	4.24399996	0	255	0
-8.27299976	6.63465023	4.04650021	0	255	0
-8.36487579	6.63481283	2.86150002	0	255	0
-8.36487579	6.63481283	2.66400003	0	255	0
-8.35175037	6.63481283	3.05900002	0	255	0
-8.35175037	6.63481283	2.86150002	0	255	0
-8.36487579	6.63465023	3.05900002	0	255	0
-8.35175037	6.63465023	3.05900002	0	255	0
-8.35175037	6.63465023	2.86150002	0	255	0
-8.36487579	6.63465023	2.86150002	0	255	0
-8.35175037	6.63481283	2.86150002	0	255	0
-8.35175037	6.63481283	3.05900002	0	255	0
-8.33862495	6.63481283	2.66400003	0	255	0
-8.33862495	6.63481283	2.86150002	0	255	0
-8.33862495	6.63481283	2.66400003	0	255	0
-8.33862495	6.63465023	3.05900002	0	255	0
-8.33862495	6.63465023	2.86150002	0	255	0
-8.35175037	6.63465023	2.86150002	0	255	0
-8.29924965	6.63465023	4.04650021	0	255	0
-8.29924965	6.63465023	4.24399996	0	255	0
-8.28612518	6.63465023	4.24399996	0	255	0
-8.28612518	6.63465023	4.04650021	0	255	0
-8.28612518	6.63448811	3.84899998	0	255	0
-8.28612518	6.6343255	4.24399996	0	255	0
-8.28612518	6.6343255	4.04650021	0	255	0
-8.29924965	6.6343255	4.04650021	0	255	0
-8.29924965	6.6343255	4.04650021	0	255	0
-8.29924965	6.6343255	3.454	0	255	0
-8.27299976	6.6343255	4.24399996	0	255	0
-8.27299976	6.6343255	4.04650021	0	255	0
-8.27299976	6.6341629	4.24399996	0	255	0
-8.27299976	6.6341629	4.04650021	0	255	0
-8.28612518	6.6341629	3.84899998	0	255	0
-8.28612518	6.63400078	4.24399996	0	255	0
-8.28612518	6.63400078	4.04650021	0	255	0
-8.29924965	6.63400078	4.04650021	0	255	0
-8.37800026	6.63465023	2.86150002	0	255	0
-8.37800026	6.63465023	3.05900002	0	255	0
-8.37800026	6.63448811	3.05900002	0	255	0
-8.37800026	6.63448811	2.86150002	0	255	0
-8.35175037	6.63465023	3.05900002	0	255	0
-8.35175037	6.63465023	2.86150002	0	255	0
-8.36487579	6.6343255	3.05900002	0	255	0
-8.35175037	6.6343255	2.86150002	0	255	0
-8.36487579	6.6343255	2.86150002	0	255	0
-8.37800026	6.6343255	2.86150002	0	255	0
-8.37800026	6.6343255	3.05900002	0	255	0
-8.35175037	6.6343255	2.86150002	0	255	0
-8.35175037	6.6341629	3.05900002	0	255	0
-8.35175037	6.6341629	2.86150002	0	255	0
-8.36487579	6.6341629	2.66400003	0	255	0
-8.36487579	6.63400078	3.05900002	0	255	0
-8.36487579	6.63400078	2.86150002	0	255	0
-8.37800026	6.63400078	2.86150002	0	255	0
-8.4829998	6.63497543	1.87400007	0	255	0
-8.46987534	6.63513756	1.67650008	0	255	0
-8.45674992	6.63513756	1.67650008	0	255	0
-8.45674992	6.63513756	1.47900009	0	255	0
-8.46987534	6.63497543	1.67650008	0	255	0
-8.45674992	6.63497543	1.67650008	0	255	0
-8.46987534	6.63497543	1.47900009	0	255	0
-8.45674992	6.63513756	1.47900009	0	255	0
-8.45674992	6.63513756	1.67650008	0	255	0
-8.4436245	6.63513756	1.67650008	0	255	0
-8.45674992	6.63497543	1.08399999	0	255	0
-8.45674992	6.63497543	1.67650008	0	255	0
-8.4436245	6.63497543	1.67650008	0	255	0
-8.4436245	6.63497543	1.47900009	0	255	0
-8.46987534	6.63513756	1.08399999	0	255	0
-8.45674992	6.63513756	1.47900009	0	255	0
-8.46987534	6.63497543	1.47900009	0	255	0
-8.4829998	6.63497543	1.47900009	0	255	0
-8.45674992	6.63513756	1.08399999	0	255	0
-8.4829998	6.63465023	1.87400007	0	255	0
-8.46987534	6.63497543	1.08399999	0	255	0
-8.45674992	6.63530016	1.87400007	0	255	0
-8.45674992	6.63530016	1.67650008	0	255	0
-8.43050003	6.63530016	1.67650008	0	255	0
-8.43050003	6.63530016	1.08399999	0	255	0
-8.45674992	6.63497543	1.67650008	0	255	0
-8.43050003	6.63497543	1.67650008	0	255	0
-8.43050003	6.63497543	1.87400007	0	255	0
-8.4829998	6.63481283	1.2815001	0	255	0
-8.4829998	6.63481283	1.47900009	0	255	0
-8.46987534	6.63481283	1.08399999	0	255	0
-8.46987534	6.63481283	1.08399999	0	255	0
-8.46987534	6.63465023	1.47900009	0	255	0
-8.4829998	6.63465023	1.2815001	0	255	0
-8.4829998	6.63465023	1.47900009	0	255	0
-8.45674992	6.63481283	1.2815001	0	255	0
-8.45674992	6.63481283	1.08399999	0	255	0
-8.45674992	6.63465023	1.2815001	0	255	0
-8.45674992	6.63465023	1.08399999	0	255	0
-8.46987534	6.63465023	1.08399999	0	255	0
-8.43050003	6.63465023	2.26900005	0	255	0
-8.40425014	6.63497543	2.07150006	0	255	0
-8.37800026	6.63497543	2.07150006	0	255	0
-8.37800026	6.63497543	1.87400007	0	255	0
-8.40425014	6.63465023	2.07150006	0	255	0
-8.37800026	6.63465023	2.07150006	0	255	0
-8.37800026	6.63465023	2.66400003	0	255	0
-8.40425014	6.63465023	1.87400007	0	255	0
-8.4829998	6.63465023	1.47900009	0	255	0
-8.46987534	6.63465023	1.47900009	0	255	0
-8.4829998	6.63448811	1.47900009	0	255	0
-8.4829998	6.63465023	1.08399999	0	255	0
-8.46987534	6.63465023	1.08399999	0	255	0
-8.4829998	6.6343255	1.47900009	0	255	0
-8.4829998	6.63448811	1.08399999	0	255	0
-8.45674992	6.63448811	1.47900009	0	255	0
-8.45674992	6.63448811	1.2815001	0	255	0
-8.46987534	6.6343255	1.47900009	0	255	0
-8.45674992	6.6343255	1.2815001	0	255	0
-8.46987534	6.6343255	1.2815001	0	255	0
-8.46987534	6.6343255	1.2815001	0	255	0
-8.46987534	6.6343255	1.08399999	0	255	0
-8.45674992	6.6343255	1.2815001	0	255	0
-8.46987534	6.6341629	1.47900009	0	255	0
-8.45674992	6.6341629	1.08399999	0	255	0
-8.45674992	6.6341629	1.2815001	0	255	0
-8.46987534	6.6341629	1.2815001	0	255	0
-8.45674992	6.6341629	1.87400007	0	255	0
-8.43050003	6.6343255	1.87400007	0	255	0
-8.43050003	6.6343255	1.67650008	0	255	0
-8.43050003	6.6341629	1.87400007	0	255	0
-8.43050003	6.6341629	1.67650008	0	255	0
-8.4436245	6.6343255	1.47900009	0	255	0
-8.45674992	6.63400078	1.87400007	0	255	0
-8.45674992	6.6341629	1.47900009	0	255	0
-8.46987534	6.6343255	1.2815001	0	255	0
-8.46987534	6.6343255	1.47900009	0	255	0
-8.45674992	6.6343255	1.2815001	0	255	0
-8.46987534	6.6341629	1.08399999	0	255	0
-8.45674992	6.6341629	1.47900009	0	255	0
-8.45674992	6.6341629	1.2815001	0	255	0
-8.46987534	6.6341629	1.2815001	0	255	0
-8.4436245	6.6343255	1.2815001	0	255	0
-8.4436245	6.6343255	1.47900009	0	255	0
-8.43050003	6.6343255	1.47900009	0	255	0
-8.43050003	6.6343255	1.2815001	0	255	0
-8.4436245	6.6341629	1.08399999	0	255	0
-8.43050003	6.6341629	1.47900009	0	255	0
-8.43050003	6.6341629	1.2815001	0	255	0
-8.4436245	6.6341629	1.2815001	0	255	0
-8.40425014	6.63465023	1.87400007	0	255	0
-8.40425014	6.63465023	1.67650008	0	255	0
-8.37800026	6.63465023	1.67650008	0	255	0
-8.37800026	6.63465023	1.08399999	0	255	0
-8.40425014	6.6343255	1.67650008	0	255	0
-8.37800026	6.6343255	1.67650008	0	255	0
-8.37800026	6.6343255	1.87400007	0	255	0
-8.40425014	6.6343255	1.47900009	0	255	0
-8.43050003	6.63400078	1.87400007	0	255	0
-8.40425014	6.6343255	1.2815001	0	255	0
-8.40425014	6.6341629	1.2815001	0	255	0
-8.40425014	6.6341629	1.08399999	0	255	0
-8.37800026	6.6343255	1.2815001	0	255	0
-8.37800026	6.6343255	1.08399999	0	255	0
-8.39112473	6.63400078	1.2815001	0	255	0
-8.37800026	6.63400078	1.2815001	0	255	0
-8.39112473	6.63400078	1.08399999	0	255	0
-8.35175037	6.63530016	1.87400007	0	255	0
-8.35175037	6.63530016	1.67650008	0	255	0
-8.32550049	6.63530016	1.67650008	0	255	0
-8.32550049	6.63530016	1.08399999	0	255	0
-8.35175037	6.63497543	1.67650008	0	255	0
-8.32550049	6.63497543	1.67650008	0	255	0
-8.32550049	6.63497543	1.87400007	0	255	0
-8.35175037	6.63497543	1.47900009	0	255	0
-8.37800026	6.63481283	1.08399999	0	255	0
-8.37800026	6.63481283	1.2815001	0	255	0
-8.37800026	6.63465023	1.2815001	0	255	0
-8.37800026	6.63465023	1.08399999	0	255	0
-8.35175037	6.63481283	1.2815001	0	255	0
-8.35175037	6.63481283	1.08399999	0	255	0
-8.35175037	6.63465023	1.2815001	0	255	0
-8.35175037	6.63465023	1.08399999	0	255	0
-8.37800026	6.63465023	1.87400007	0	255	0
-8.35175037	6.63497543	1.2815001	0	255	0
-8.33862495	6.63497543	1.2815001	0	255	0
-8.33862495	6.63497543	1.08399999	0	255	0
-8.35175037	6.63481283	1.2815001	0	255	0
-8.33862495	6.63481283	1.2815001	0	255	0
-8.35175037	6.63465023	1.47900009	0	255	0
-8.35175037	6.63481283	1.08399999	0	255	0
-8.36487579	6.6343255	1.08399999	0	255	0
-8.36487579	6.6343255	1.2815001	0	255	0
-8.35175037	6.6343255	1.2815001	0	255	0
-8.37800026	6.63400078	1.87400007	0	255	0
-8.35175037	6.6341629	1.2815001	0	255	0
-8.35175037	6.6341629	1.08399999	0	255	0
-8.37800026	6.6341629	1.08399999	0	255	0
-8.37800026	6.6341629	1.2815001	0	255	0
-8.37800026	6.63400078	1.2815001	0	255	0
-8.36487579	6.63400078	1.2815001	0	255	0
-8.36487579	6.63400078	1.08399999	0	255	0
