7.9829998	7.0250001	-0.0500624925	0	255	0
8.04349995	7.0250001	-0.0500624925	0	255	0
8.04349995	7.0250001	-0.0804999918	0	255	0
7.9829998	7.01565647	-0.0500624925	0	255	0
8.04349995	7.01565647	-0.0500624925	0	255	0
7.9829998	7.00631237	-0.0196249932	0	255	0
7.9829998	7.01565647	-0.0804999918	0	255	0
7.9829998	7.01565647	-0.0804999918	0	255	0
8.10400009	7.01565647	-0.0804999918	0	255	0
7.9829998	7.01565647	-0.141375005	0	255	0
8.10400009	7.01565647	-0.141375005	0	255	0
8.16450024	7.0250001	-0.0804999918	0	255	0
8.10400009	7.01565647	-0.0804999918	0	255	0
8.16450024	7.0250001	-0.141375005	0	255	0
8.22500038	7.01565647	-0.0804999918	0	255	0
8.16450024	7.00631237	-0.0804999918	0	255	0
8.22500038	7.00631237	-0.0804999918	0	255	0
8.10400009	7.00631237	-0.110937499	0	255	0
8.22500038	7.01565647	-0.141375005	0	255	0
8.22500038	7.00631237	-0.141375005	0	255	0
7.9829998	7.01565647	-0.141375005	0	255	0
8.10400009	7.01565647	-0.141375005	0	255	0
7.9829998	7.01565647	-0.202250004	0	255	0
8.10400009	7.0250001	-0.202250004	0	255	0
8.10400009	7.01565647	-0.202250004	0	255	0
8.10400009	7.0250001	-0.0804999918	0	255	0
8.10400009	7.0250001	-0.110937499	0	255	0
8.22500038	7.0250001	-0.110937499	0	255	0
8.10400009	7.00631237	-0.110937499	0	255	0
8.22500038	7.00631237	-0.110937499	0	255	0
8.22500038	7.00631237	-0.0804999918	0	255	0
8.22500038	7.01565647	-0.0804999918	0	255	0
8.28550053	7.01565647	-0.141375005	0	255	0
8.28550053	7.01565647	-0.141375005	0	255	0
8.28550053	7.00631237	-0.0804999918	0	255	0
8.22500038	7.01565647	-0.141375005	0	255	0
8.34600067	7.01565647	-0.110937499	0	255	0
8.34600067	7.01565647	-0.141375005	0	255	0
8.34600067	7.00631237	-0.110937499	0	255	0
8.22500038	7.01565647	-0.141375005	0	255	0
8.28550053	7.01565647	-0.202250004	0	255	0
8.34600067	7.01565647	-0.141375005	0	255	0
8.22500038	7.01565647	-0.202250004	0	255	0
8.22500038	7.00631237	-0.202250004	0	255	0
8.34600067	7.01565647	-0.202250004	0	255	0
8.22500038	7.00631237	-0.171812505	0	255	0
8.22500038	6.99696875	-0.202250004	0	255	0
8.22500038	6.99696875	-0.171812505	0	255	0
8.34600067	7.00631237	-0.171812505	0	255	0
8.34600067	6.99696875	-0.202250004	0	255	0
8.34600067	6.99696875	-0.171812505	0	255	0
8.40649986	7.00631237	-0.0804999918	0	255	0
8.34600067	6.99696875	-0.0804999918	0	255	0
8.40649986	6.99696875	-0.141375005	0	255	0
8.34600067	6.99696875	-0.141375005	0	255	0
8.46700001	7.00631237	-0.110937499	0	255	0
8.40649986	6.98762512	-0.110937499	0	255	0
8.46700001	6.98762512	-0.110937499	0	255	0
8.40649986	6.98762512	-0.141375005	0	255	0
8.28550053	7.00631237	-0.141375005	0	255	0
8.28550053	6.99696875	-0.202250004	0	255	0
8.34600067	6.99696875	-0.141375005	0	255	0
8.28550053	7.00631237	-0.202250004	0	255	0
8.34600067	6.99696875	-0.202250004	0	255	0
8.22500038	6.98762512	-0.141375005	0	255	0
8.34600067	6.99696875	-0.141375005	0	255	0
8.34600067	6.99696875	-0.202250004	0	255	0
8.46700001	7.00631237	-0.202250004	0	255	0
8.40649986	6.98762512	-0.141375005	0	255	0
8.46700001	6.98762512	-0.202250004	0	255	0
8.40649986	6.98762512	-0.202250004	0	255	0
7.9829998	7.01565647	-0.202250004	0	255	0
8.10400009	7.01565647	-0.202250004	0	255	0
7.9829998	7.01565647	-0.263125002	0	255	0
8.10400009	7.01565647	-0.263125002	0	255	0
8.22500038	7.0250001	-0.232687503	0	255	0
8.16450024	7.0250001	-0.263125002	0	255	0
8.16450024	7.01565647	-0.263125002	0	255	0
8.22500038	7.00631237	-0.202250004	0	255	0
8.22500038	7.01565647	-0.263125002	0	255	0
8.22500038	7.00631237	-0.263125002	0	255	0
7.9829998	7.0250001	-0.293562502	0	255	0
7.9829998	7.01565647	-0.263125002	0	255	0
7.9829998	7.01565647	-0.293562502	0	255	0
8.10400009	7.01565647	-0.263125002	0	255	0
8.04349995	7.0250001	-0.324000001	0	255	0
8.10400009	7.0250001	-0.324000001	0	255	0
8.10400009	7.01565647	-0.324000001	0	255	0
7.9829998	7.00631237	-0.263125002	0	255	0
8.10400009	7.0250001	-0.202250004	0	255	0
8.10400009	7.0250001	-0.232687503	0	255	0
8.22500038	7.0250001	-0.232687503	0	255	0
8.22500038	7.0250001	-0.324000001	0	255	0
8.10400009	7.00631237	-0.232687503	0	255	0
8.22500038	7.00631237	-0.232687503	0	255	0
8.22500038	7.00631237	-0.202250004	0	255	0
8.22500038	7.0250001	-0.0804999918	0	255	0
8.22500038	7.0250001	-0.171812505	0	255	0
8.34600067	7.0250001	-0.171812505	0	255	0
8.34600067	7.0250001	-0.202250004	0	255	0
8.22500038	6.98762512	-0.171812505	0	255	0
8.22500038	6.98762512	-0.202250004	0	255	0
8.46700001	7.00631237	-0.171812505	0	255	0
8.46700001	7.00631237	-0.202250004	0	255	0
8.46700001	6.98762512	-0.171812505	0	255	0
8.46700001	6.98762512	-0.0804999918	0	255	0
8.46700001	7.00631237	-0.0804999918	0	255	0
8.46700001	7.00631237	-0.0500624925	0	255	0
8.58799934	7.00631237	-0.0500624925	0	255	0
8.46700001	6.98762512	-0.0196249932	0	255	0
8.46700001	6.98762512	-0.0500624925	0	255	0
8.58799934	6.98762512	-0.0500624925	0	255	0
8.58799934	6.98762512	-0.0804999918	0	255	0
8.46700001	6.98762512	-0.0500624925	0	255	0
8.46700001	6.9689374	-0.0500624925	0	255	0
8.46700001	6.9689374	-0.0804999918	0	255	0
8.70899963	6.98762512	-0.0500624925	0	255	0
8.58799934	6.95024967	-0.0500624925	0	255	0
8.70899963	6.95024967	-0.0500624925	0	255	0
8.58799934	6.95024967	-0.0804999918	0	255	0
8.70899963	6.98762512	-0.0500624925	0	255	0
8.82999992	6.98762512	-0.0500624925	0	255	0
8.82999992	6.98762512	-0.0804999918	0	255	0
8.70899963	6.95024967	-0.0500624925	0	255	0
8.95100021	6.9689374	-0.0500624925	0	255	0
8.95100021	6.9689374	-0.0804999918	0	255	0
8.95100021	6.95024967	-0.0500624925	0	255	0
8.95100021	6.95024967	0.163000003	0	255	0
8.70899963	6.95024967	0.163000003	0	255	0
8.70899963	6.95024967	0.0716875046	0	255	0
8.70899963	6.93156242	0.0716875046	0	255	0
8.70899963	6.93156242	0.0412500054	0	255	0
8.95100021	6.95024967	0.0716875046	0	255	0
8.95100021	6.95024967	-0.0804999918	0	255	0
8.82999992	6.9128747	0.0716875046	0	255	0
8.95100021	6.9128747	0.0716875046	0	255	0
8.95100021	6.9128747	0.163000003	0	255	0
8.82999992	6.9128747	0.0412500054	0	255	0
8.82999992	6.89418697	0.132562503	0	255	0
8.95100021	6.89418697	0.132562503	0	255	0
8.89050007	6.88484335	0.102125004	0	255	0
8.95100021	6.88484335	0.163000003	0	255	0
8.89050007	6.87549973	0.163000003	0	255	0
8.95100021	6.87549973	0.163000003	0	255	0
8.82999992	6.87549973	0.132562503	0	255	0
8.70899963	6.87549973	0.163000003	0	255	0
8.82999992	6.88484335	0.0412500054	0	255	0
8.95100021	6.89418697	0.0412500054	0	255	0
8.89050007	6.88484335	0.0412500054	0	255	0
8.82999992	6.87549973	0.0716875046	0	255	0
8.89050007	6.87549973	0.0412500054	0	255	0
8.82999992	6.9128747	0.0412500054	0	255	0
8.89050007	6.9128747	0.0412500054	0	255	0
8.82999992	6.9128747	-0.0196249932	0	255	0
8.95100021	6.9128747	0.0108125061	0	255	0
8.95100021	6.9128747	-0.0196249932	0	255	0
8.89050007	6.90353107	-0.0196249932	0	255	0
8.95100021	6.90353107	0.0412500054	0	255	0
8.82999992	6.9128747	0.0412500054	0	255	0
8.82999992	6.9128747	0.0108125061	0	255	0
8.95100021	6.9128747	0.0108125061	0	255	0
8.95100021	6.9128747	-0.0804999918	0	255	0
8.82999992	6.89418697	0.0108125061	0	255	0
8.95100021	6.89418697	0.0108125061	0	255	0
8.95100021	6.89418697	0.0412500054	0	255	0
8.82999992	6.88484335	0.0412500054	0	255	0
8.82999992	6.88484335	-0.0196249932	0	255	0
8.89050007	6.87549973	0.0412500054	0	255	0
8.89050007	6.87549973	-0.0196249932	0	255	0
8.70899963	6.87549973	0.0412500054	0	255	0
8.82999992	6.88484335	-0.0804999918	0	255	0
8.95100021	6.89418697	-0.0804999918	0	255	0
8.89050007	6.88484335	-0.0804999918	0	255	0
8.82999992	6.87549973	-0.0500624925	0	255	0
8.95100021	6.87549973	-0.0804999918	0	255	0
8.89050007	6.87549973	-0.0804999918	0	255	0
8.76949978	6.95024967	-0.0804999918	0	255	0
8.76949978	6.95024967	-0.141375005	0	255	0
8.82999992	6.94090605	-0.141375005	0	255	0
8.70899963	6.93156242	-0.0804999918	0	255	0
8.76949978	6.93156242	-0.0804999918	0	255	0
8.82999992	6.93156242	-0.110937499	0	255	0
8.76949978	6.93156242	-0.110937499	0	255	0
8.89050007	6.95024967	-0.0804999918	0	255	0
8.89050007	6.95024967	-0.141375005	0	255	0
8.89050007	6.94090605	-0.141375005	0	255	0
8.89050007	6.93156242	-0.0804999918	0	255	0
8.89050007	6.93156242	-0.141375005	0	255	0
8.76949978	6.95024967	-0.141375005	0	255	0
8.76949978	6.94090605	-0.202250004	0	255	0
8.82999992	6.94090605	-0.141375005	0	255	0
8.76949978	6.95024967	-0.202250004	0	255	0
8.82999992	6.95024967	-0.202250004	0	255	0
8.76949978	6.93156242	-0.171812505	0	255	0
8.82999992	6.93156242	-0.171812505	0	255	0
8.76949978	6.93156242	-0.202250004	0	255	0
8.82999992	6.95024967	-0.232687503	0	255	0
8.82999992	6.95024967	-0.141375005	0	255	0
8.95100021	6.95024967	-0.141375005	0	255	0
8.95100021	6.95024967	-0.232687503	0	255	0
8.82999992	6.93156242	-0.324000001	0	255	0
8.95100021	6.93156242	-0.141375005	0	255	0
8.95100021	6.93156242	-0.232687503	0	255	0
8.82999992	6.93156242	-0.232687503	0	255	0
8.89050007	6.93156242	-0.0804999918	0	255	0
8.89050007	6.93156242	-0.141375005	0	255	0
8.89050007	6.92221832	-0.141375005	0	255	0
8.95100021	6.92221832	-0.0804999918	0	255	0
8.95100021	6.92221832	-0.141375005	0	255	0
8.76949978	6.93156242	-0.202250004	0	255	0
8.76949978	6.93156242	-0.171812505	0	255	0
8.82999992	6.93156242	-0.171812505	0	255	0
8.76949978	6.92221832	-0.171812505	0	255	0
8.82999992	6.92221832	-0.171812505	0	255	0
8.82999992	6.92221832	-0.202250004	0	255	0
8.70899963	6.9128747	-0.141375005	0	255	0
8.89050007	6.93156242	-0.141375005	0	255	0
8.89050007	6.93156242	-0.202250004	0	255	0
8.89050007	6.92221832	-0.202250004	0	255	0
8.95100021	6.92221832	-0.141375005	0	255	0
8.95100021	6.92221832	-0.171812505	0	255	0
8.95100021	6.9128747	-0.171812505	0	255	0
8.89050007	6.9128747	-0.202250004	0	255	0
8.82999992	6.9128747	-0.202250004	0	255	0
8.70899963	6.95024967	-0.0804999918	0	255	0
8.70899963	6.95024967	-0.171812505	0	255	0
8.95100021	6.95024967	-0.171812505	0	255	0
8.95100021	6.95024967	-0.324000001	0	255	0
8.70899963	6.9128747	-0.171812505	0	255	0
8.70899963	6.9128747	-0.202250004	0	255	0
8.95100021	6.9128747	-0.171812505	0	255	0
8.95100021	6.9128747	-0.0804999918	0	255	0
8.82999992	6.9128747	-0.0804999918	0	255	0
8.82999992	6.9128747	-0.141375005	0	255	0
8.95100021	6.9128747	-0.141375005	0	255	0
8.89050007	6.90353107	-0.141375005	0	255	0
8.95100021	6.89418697	-0.141375005	0	255	0
8.82999992	6.9128747	-0.0804999918	0	255	0
8.82999992	6.9128747	-0.110937499	0	255	0
8.95100021	6.9128747	-0.110937499	0	255	0
8.95100021	6.9128747	-0.202250004	0	255	0
8.82999992	6.89418697	-0.110937499	0	255	0
8.95100021	6.89418697	-0.110937499	0	255	0
8.95100021	6.89418697	-0.0804999918	0	255	0
8.82999992	6.88484335	-0.0804999918	0	255	0
8.95100021	6.89418697	-0.110937499	0	255	0
8.95100021	6.88484335	-0.0804999918	0	255	0
8.95100021	6.88484335	-0.110937499	0	255	0
8.89050007	6.89418697	-0.141375005	0	255	0
8.82999992	6.87549973	-0.0804999918	0	255	0
8.82999992	6.88484335	-0.141375005	0	255	0
8.82999992	6.9128747	-0.232687503	0	255	0
8.82999992	6.9128747	-0.202250004	0	255	0
8.89050007	6.9128747	-0.202250004	0	255	0
8.89050007	6.9128747	-0.232687503	0	255	0
8.82999992	6.90353107	-0.202250004	0	255	0
8.89050007	6.90353107	-0.263125002	0	255	0
8.89050007	6.90353107	-0.232687503	0	255	0
8.82999992	6.90353107	-0.232687503	0	255	0
