7.8039999	66934.0078	-0.832000017	0	255	0
7.8039999	66934.0078	-0.514812469	0	255	0
7.82181263	66934.0078	-0.514812469	0	255	0
7.82181263	66934.0078	-0.832000017	0	255	0
7.8039999	66933.0625	-0.514812469	0	255	0
7.82181263	66933.0625	-0.514812469	0	255	0
7.8039999	66932.125	-0.197624981	0	255	0
7.8039999	66933.0625	-0.832000017	0	255	0
7.9286871	66926.5	-0.514812469	0	255	0
7.9286871	66926.5	-0.832000017	0	255	0
7.94649982	66926.5	-0.832000017	0	255	0
7.94649982	66926.5	-0.514812469	0	255	0
7.9286871	66925.5625	-0.197624981	0	255	0
7.94649982	66925.5625	-0.832000017	0	255	0
7.94649982	66925.5625	-0.514812469	0	255	0
7.9286871	66925.5625	-0.514812469	0	255	0
7.98212481	66926.5	4.24300003	0	255	0
7.98212481	66926.5	3.92581248	0	255	0
8.01774979	66926.5	3.92581248	0	255	0
7.98212481	66924.625	3.92581248	0	255	0
8.01774979	66924.625	3.92581248	0	255	0
8.01774979	66924.625	4.24300003	0	255	0
7.98212481	66924.625	3.60862494	0	255	0
7.99993706	66924.625	2.97425008	0	255	0
7.99993706	66924.625	3.29143763	0	255	0
8.01774979	66924.625	3.29143763	0	255	0
8.01774979	66924.625	2.97425008	0	255	0
7.99993706	66923.6875	3.29143763	0	255	0
8.01774979	66923.6875	3.29143763	0	255	0
8.01774979	66923.6875	2.97425008	0	255	0
7.98212481	66922.75	3.60862494	0	255	0
8.03556252	66925.5625	3.60862494	0	255	0
8.05337524	66925.5625	4.24300003	0	255	0
8.03556252	66924.625	4.24300003	0	255	0
8.01774979	66924.625	4.24300003	0	255	0
8.05337524	66925.5625	3.60862494	0	255	0
8.03556252	66924.625	3.60862494	0	255	0
8.05337524	66925.5625	4.24300003	0	255	0
8.07118797	66925.5625	3.60862494	0	255	0
8.08899975	66925.5625	4.24300003	0	255	0
8.08899975	66925.5625	3.92581248	0	255	0
8.08899975	66924.625	3.92581248	0	255	0
8.05337524	66925.5625	3.60862494	0	255	0
8.07118797	66924.625	3.60862494	0	255	0
8.01774979	66926.5	3.29143763	0	255	0
8.05337524	66926.5	3.29143763	0	255	0
8.05337524	66926.5	2.97425008	0	255	0
8.05337524	66925.5625	2.97425008	0	255	0
8.01774979	66925.5625	3.60862494	0	255	0
8.03556252	66925.5625	2.97425008	0	255	0
8.05337524	66925.5625	3.60862494	0	255	0
8.05337524	66924.625	3.29143763	0	255	0
8.03556252	66924.625	2.97425008	0	255	0
8.03556252	66924.625	3.29143763	0	255	0
8.03556252	66924.625	2.97425008	0	255	0
8.05337524	66924.625	3.29143763	0	255	0
8.03556252	66923.6875	3.60862494	0	255	0
8.05337524	66923.6875	2.97425008	0	255	0
8.05337524	66923.6875	3.29143763	0	255	0
8.03556252	66923.6875	3.29143763	0	255	0
8.08899975	66924.625	3.92581248	0	255	0
8.07118797	66924.625	3.60862494	0	255	0
8.05337524	66922.75	4.24300003	0	255	0
8.05337524	66923.6875	3.60862494	0	255	0
8.07118797	66923.6875	3.60862494	0	255	0
8.05337524	66922.75	3.92581248	0	255	0
8.08899975	66922.75	3.92581248	0	255	0
8.03556252	66924.625	3.60862494	0	255	0
8.01774979	66924.625	3.29143763	0	255	0
8.01774979	66922.75	1.70550013	0	255	0
8.05337524	66923.6875	2.97425008	0	255	0
8.03556252	66922.75	3.60862494	0	255	0
8.05337524	66922.75	3.60862494	0	255	0
8.05337524	66922.75	3.29143763	0	255	0
8.01774979	66922.75	3.29143763	0	255	0
8.03556252	66922.75	2.97425008	0	255	0
7.96431255	66925.5625	2.65706253	0	255	0
7.96431255	66925.5625	2.33987522	0	255	0
7.98212481	66925.5625	2.97425008	0	255	0
7.98212481	66925.5625	2.65706253	0	255	0
7.96431255	66924.625	2.97425008	0	255	0
7.98212481	66924.625	2.65706253	0	255	0
7.96431255	66924.625	2.65706253	0	255	0
7.99993706	66926.5	2.97425008	0	255	0
7.98212481	66926.5	2.65706253	0	255	0
8.01774979	66926.5	2.33987522	0	255	0
7.98212481	66925.5625	2.97425008	0	255	0
7.99993706	66925.5625	2.33987522	0	255	0
8.01774979	66924.625	2.97425008	0	255	0
8.01774979	66924.625	2.33987522	0	255	0
7.96431255	66926.5	2.33987522	0	255	0
7.94649982	66926.5	2.02268767	0	255	0
7.98212481	66926.5	1.70550013	0	255	0
7.96431255	66924.625	2.33987522	0	255	0
7.94649982	66924.625	2.02268767	0	255	0
7.94649982	66924.625	1.70550013	0	255	0
7.98212481	66926.5	2.97425008	0	255	0
7.98212481	66926.5	2.65706253	0	255	0
8.01774979	66926.5	2.65706253	0	255	0
8.01774979	66926.5	1.70550013	0	255	0
7.98212481	66924.625	2.65706253	0	255	0
8.01774979	66924.625	2.65706253	0	255	0
8.01774979	66924.625	2.97425008	0	255	0
7.96431255	66924.625	1.70550013	0	255	0
7.96431255	66924.625	2.02268767	0	255	0
7.98212481	66924.625	2.02268767	0	255	0
7.96431255	66922.75	2.02268767	0	255	0
7.98212481	66922.75	2.02268767	0	255	0
7.98212481	66922.75	1.70550013	0	255	0
7.96431255	66922.75	1.70550013	0	255	0
7.98212481	66924.625	2.02268767	0	255	0
7.99993706	66924.625	2.33987522	0	255	0
7.99993706	66924.625	2.02268767	0	255	0
7.99993706	66923.6875	1.70550013	0	255	0
7.98212481	66922.75	2.02268767	0	255	0
8.01774979	66923.6875	2.33987522	0	255	0
8.01774979	66923.6875	2.02268767	0	255	0
8.01774979	66922.75	2.33987522	0	255	0
8.01774979	66922.75	2.02268767	0	255	0
8.01774979	66926.5	4.24300003	0	255	0
8.01774979	66926.5	3.29143763	0	255	0
8.05337524	66926.5	3.29143763	0	255	0
8.05337524	66926.5	2.97425008	0	255	0
8.01774979	66922.75	3.29143763	0	255	0
8.05337524	66922.75	3.29143763	0	255	0
8.05337524	66922.75	2.97425008	0	255	0
7.99993706	66920.875	2.02268767	0	255	0
7.99993706	66920.875	1.70550013	0	255	0
8.01774979	66920.875	1.70550013	0	255	0
8.01774979	66920.875	2.02268767	0	255	0
7.99993706	66919	1.70550013	0	255	0
8.01774979	66919	4.24300003	0	255	0
8.01774979	66919	2.02268767	0	255	0
7.99993706	66919	2.02268767	0	255	0
8.03556252	66922.75	3.60862494	0	255	0
8.03556252	66922.75	3.92581248	0	255	0
8.05337524	66922.75	3.92581248	0	255	0
8.03556252	66920.875	3.92581248	0	255	0
8.05337524	66920.875	3.92581248	0	255	0
8.03556252	66920.875	3.60862494	0	255	0
8.07118797	66922.75	4.24300003	0	255	0
8.08899975	66922.75	3.92581248	0	255	0
8.05337524	66922.75	3.92581248	0	255	0
8.07118797	66922.75	3.60862494	0	255	0
8.05337524	66921.8125	4.24300003	0	255	0
8.07118797	66921.8125	3.60862494	0	255	0
8.08899975	66920.875	4.24300003	0	255	0
8.08899975	66920.875	3.92581248	0	255	0
8.07118797	66920.875	3.60862494	0	255	0
8.03556252	66922.75	3.29143763	0	255	0
8.03556252	66922.75	3.60862494	0	255	0
8.05337524	66922.75	3.29143763	0	255	0
8.03556252	66921.8125	2.97425008	0	255	0
8.05337524	66921.8125	3.60862494	0	255	0
8.05337524	66921.8125	3.29143763	0	255	0
8.03556252	66921.8125	3.29143763	0	255	0
8.01774979	66920.875	3.29143763	0	255	0
8.05337524	66920.875	3.29143763	0	255	0
8.03556252	66919.9375	3.60862494	0	255	0
8.01774979	66919	3.29143763	0	255	0
8.05337524	66919	3.29143763	0	255	0
8.07118797	66920.875	4.24300003	0	255	0
8.05337524	66919.9375	4.24300003	0	255	0
8.07118797	66919.9375	3.60862494	0	255	0
8.07118797	66920.875	3.60862494	0	255	0
8.05337524	66919	3.92581248	0	255	0
8.07118797	66919	3.92581248	0	255	0
8.07118797	66919	3.60862494	0	255	0
8.01774979	66920.875	3.60862494	0	255	0
8.05337524	66920.875	3.29143763	0	255	0
8.01774979	66920.875	2.97425008	0	255	0
8.03556252	66920.875	2.97425008	0	255	0
8.03556252	66919.9375	2.97425008	0	255	0
8.05337524	66919	3.29143763	0	255	0
8.03556252	66919	2.97425008	0	255	0
7.99993706	66922.75	2.97425008	0	255	0
7.98212481	66922.75	2.33987522	0	255	0
7.98212481	66922.75	2.65706253	0	255	0
8.01774979	66922.75	2.33987522	0	255	0
7.99993706	66920.875	2.97425008	0	255	0
7.98212481	66920.875	2.65706253	0	255	0
8.01774979	66920.875	2.33987522	0	255	0
7.98212481	66922.75	2.97425008	0	255	0
7.98212481	66922.75	2.65706253	0	255	0
8.01774979	66922.75	2.65706253	0	255	0
7.94649982	66919	4.24300003	0	255	0
7.98212481	66920.875	2.65706253	0	255	0
8.01774979	66920.875	2.65706253	0	255	0
8.01774979	66920.875	2.97425008	0	255	0
7.96431255	66920.875	2.02268767	0	255	0
7.96431255	66920.875	1.70550013	0	255	0
7.98212481	66920.875	2.02268767	0	255	0
7.96431255	66919.9375	2.33987522	0	255	0
7.98212481	66919.9375	1.70550013	0	255	0
7.98212481	66919.9375	2.02268767	0	255	0
7.96431255	66919.9375	2.02268767	0	255	0
8.01774979	66920.875	2.65706253	0	255	0
7.99993706	66920.875	2.33987522	0	255	0
7.99993706	66919.9375	2.33987522	0	255	0
8.01774979	66919	2.65706253	0	255	0
7.99993706	66919	2.33987522	0	255	0
7.94649982	66920.875	2.33987522	0	255	0
7.94649982	66919.9375	2.33987522	0	255	0
7.94649982	66920.875	1.70550013	0	255	0
7.94649982	66919	2.97425008	0	255	0
7.96431255	66919	2.33987522	0	255	0
7.94649982	66919	2.02268767	0	255	0
7.98212481	66919	1.70550013	0	255	0
7.98212481	66920.875	2.02268767	0	255	0
7.99993706	66920.875	2.33987522	0	255	0
7.99993706	66920.875	2.02268767	0	255	0
7.98212481	66919.9375	2.33987522	0	255	0
7.99993706	66919.9375	1.70550013	0	255	0
7.99993706	66919.9375	2.02268767	0	255	0
7.98212481	66919.9375	2.02268767	0	255	0
8.01774979	66922.75	2.65706253	0	255	0
8.03556252	66922.75	2.97425008	0	255	0
8.03556252	66922.75	2.65706253	0	255	0
8.03556252	66921.8125	2.33987522	0	255	0
8.03556252	66920.875	2.97425008	0	255	0
8.03556252	66920.875	2.65706253	0	255	0
8.01774979	66920.875	2.65706253	0	255	0
7.9286871	66926.5	1.70550013	0	255	0
7.9286871	66926.5	1.07112503	0	255	0
7.9286871	66924.625	1.70550013	0	255	0
7.94649982	66924.625	1.70550013	0	255	0
7.91087484	66925.5625	1.07112503	0	255	0
7.91087484	66925.5625	1.38831258	0	255	0
7.91087484	66924.625	1.38831258	0	255	0
7.89306259	66926.5	0.436750054	0	255	0
7.89306259	66926.5	0.753937542	0	255	0
7.91087484	66926.5	0.753937542	0	255	0
7.91087484	66926.5	0.436750054	0	255	0
7.89306259	66924.625	0.753937542	0	255	0
7.91087484	66924.625	0.753937542	0	255	0
7.89306259	66924.625	0.436750054	0	255	0
7.91087484	66926.5	0.119562507	0	255	0
7.91087484	66926.5	1.07112503	0	255	0
7.94649982	66926.5	0.119562507	0	255	0
7.91087484	66924.625	-0.832000017	0	255	0
7.94649982	66924.625	1.07112503	0	255	0
7.94649982	66924.625	0.119562507	0	255	0
7.91087484	66924.625	0.119562507	0	255	0
7.89306259	66924.625	0.436750054	0	255	0
7.89306259	66924.625	0.753937542	0	255	0
7.91087484	66924.625	0.753937542	0	255	0
7.89306259	66923.6875	0.753937542	0	255	0
7.91087484	66923.6875	0.753937542	0	255	0
7.91087484	66923.6875	0.436750054	0	255	0
7.87524986	66922.75	1.07112503	0	255	0
7.94649982	66924.625	0.753937542	0	255	0
7.9286871	66924.625	0.436750054	0	255	0
7.91087484	66922.75	1.07112503	0	255	0
7.91087484	66923.6875	0.436750054	0	255	0
7.9286871	66923.6875	0.436750054	0	255	0
7.91087484	66922.75	0.753937542	0	255	0
7.94649982	66922.75	1.07112503	0	255	0
7.94649982	66922.75	0.753937542	0	255	0
7.85743713	66926.5	0.436750054	0	255	0
7.87524986	66926.5	0.436750054	0	255	0
7.85743713	66926.5	-0.197624981	0	255	0
7.87524986	66926.5	-0.197624981	0	255	0
7.85743713	66924.625	0.436750054	0	255	0
7.87524986	66924.625	0.436750054	0	255	0
7.87524986	66924.625	-0.197624981	0	255	0
7.85743713	66924.625	-0.197624981	0	255	0
7.8039999	66925.5625	-0.832000017	0	255	0
7.8039999	66925.5625	-0.514812469	0	255	0
7.8039999	66924.625	-0.514812469	0	255	0
7.8039999	66924.625	-0.832000017	0	255	0
7.83962488	66925.5625	-0.514812469	0	255	0
7.83962488	66925.5625	-0.832000017	0	255	0
7.83962488	66924.625	-0.514812469	0	255	0
7.8039999	66922.75	0.436750054	0	255	0
7.83962488	66926.5	0.436750054	0	255	0
7.83962488	66926.5	0.119562536	0	255	0
7.87524986	66926.5	0.119562536	0	255	0
7.87524986	66926.5	-0.832000017	0	255	0
7.83962488	66924.625	0.119562536	0	255	0
7.87524986	66924.625	0.119562536	0	255	0
7.87524986	66924.625	0.436750054	0	255	0
7.83962488	66924.625	-0.197624981	0	255	0
7.85743713	66924.625	-0.832000017	0	255	0
7.85743713	66924.625	-0.514812469	0	255	0
7.87524986	66924.625	-0.514812469	0	255	0
7.87524986	66924.625	-0.832000017	0	255	0
7.87524986	66923.6875	-0.832000017	0	255	0
7.83962488	66922.75	-0.197624981	0	255	0
7.85743713	66923.6875	-0.832000017	0	255	0
7.87524986	66923.6875	-0.197624981	0	255	0
7.85743713	66922.75	-0.197624981	0	255	0
7.87524986	66922.75	-0.197624981	0	255	0
7.87524986	66922.75	-0.514812469	0	255	0
7.85743713	66922.75	-0.514812469	0	255	0
7.87524986	66926.5	1.70550013	0	255	0
7.87524986	66926.5	0.753937542	0	255	0
7.94649982	66926.5	0.753937542	0	255	0
7.8039999	66919	4.24300003	0	255	0
7.87524986	66922.75	0.753937542	0	255	0
7.94649982	66922.75	0.753937542	0	255	0
7.94649982	66922.75	1.70550013	0	255	0
7.9286871	66922.75	1.07112503	0	255	0
7.9286871	66922.75	1.38831258	0	255	0
7.94649982	66922.75	1.38831258	0	255	0
7.94649982	66922.75	1.07112503	0	255	0
7.9286871	66920.875	1.38831258	0	255	0
7.94649982	66920.875	1.38831258	0	255	0
7.9286871	66920.875	1.07112503	0	255	0
7.91087484	66922.75	1.70550013	0	255	0
7.91087484	66922.75	1.38831258	0	255	0
7.94649982	66922.75	1.38831258	0	255	0
7.94649982	66922.75	0.436750054	0	255	0
7.91087484	66920.875	1.38831258	0	255	0
7.94649982	66920.875	1.38831258	0	255	0
7.94649982	66920.875	1.70550013	0	255	0
7.9286871	66920.875	1.70550013	0	255	0
7.94649982	66920.875	1.70550013	0	255	0
7.91087484	66920.875	1.38831258	0	255	0
7.91087484	66919.9375	1.70550013	0	255	0
7.9286871	66919.9375	1.07112503	0	255	0
7.94649982	66919	1.07112503	0	255	0
7.89306259	66920.875	1.07112503	0	255	0
7.87524986	66920.875	0.436750054	0	255	0
7.87524986	66920.875	0.753937542	0	255	0
7.87524986	66919	1.70550013	0	255	0
7.87524986	66919.9375	1.07112503	0	255	0
7.89306259	66919.9375	0.436750054	0	255	0
7.87524986	66919	0.436750054	0	255	0
7.91087484	66919	0.436750054	0	255	0
7.91087484	66920.875	0.753937542	0	255	0
7.9286871	66920.875	1.07112503	0	255	0
7.9286871	66920.875	0.753937542	0	255	0
7.9286871	66919.9375	0.436750054	0	255	0
7.9286871	66919	1.07112503	0	255	0
7.9286871	66919	0.753937542	0	255	0
7.91087484	66919	0.753937542	0	255	0
7.83962488	66922.75	0.436750054	0	255	0
7.83962488	66922.75	0.119562536	0	255	0
7.87524986	66922.75	0.119562536	0	255	0
7.8039999	66919	1.70550013	0	255	0
7.83962488	66920.875	0.119562536	0	255	0
7.87524986	66920.875	0.119562536	0	255	0
7.87524986	66920.875	0.436750054	0	255	0
7.85743713	66920.875	-0.197624981	0	255	0
7.85743713	66920.875	0.119562536	0	255	0
7.87524986	66920.875	0.119562536	0	255	0
7.83962488	66919.9375	-0.197624981	0	255	0
7.83962488	66919.9375	0.119562536	0	255	0
7.83962488	66919	0.119562536	0	255	0
7.87524986	66919	0.119562536	0	255	0
7.8039999	66920.875	-0.832000017	0	255	0
7.8039999	66920.875	-0.514812469	0	255	0
7.8039999	66919.9375	-0.514812469	0	255	0
7.8039999	66919.9375	-0.832000017	0	255	0
7.83962488	66920.875	-0.514812469	0	255	0
7.82181263	66919	-0.514812469	0	255	0
7.83962488	66919	-0.514812469	0	255	0
7.82181263	66919	-0.832000017	0	255	0
7.87524986	66920.875	-0.832000017	0	255	0
7.85743713	66919.9375	-0.832000017	0	255	0
7.87524986	66919	-0.832000017	0	255	0
7.87524986	66922.75	0.119562536	0	255	0
7.91087484	66922.75	0.436750054	0	255	0
7.91087484	66922.75	0.119562536	0	255	0
7.89306259	66921.8125	-0.197624981	0	255	0
7.91087484	66920.875	0.119562536	0	255	0
7.87524986	66921.8125	-0.197624981	0	255	0
7.89306259	66920.875	-0.197624981	0	255	0
7.87524986	66920.875	-0.197624981	0	255	0
7.87524986	66922.75	-0.514812469	0	255	0
7.87524986	66922.75	-0.197624981	0	255	0
7.89306259	66922.75	-0.197624981	0	255	0
7.89306259	66922.75	-0.514812469	0	255	0
7.89306259	66921.8125	-0.832000017	0	255	0
7.89306259	66920.875	-0.197624981	0	255	0
7.89306259	66920.875	-0.514812469	0	255	0
7.87524986	66920.875	-0.514812469	0	255	0
7.87524986	66920.875	-0.514812469	0	255	0
7.91087484	66920.875	-0.514812469	0	255	0
7.89306259	66919.9375	-0.197624981	0	255	0
7.87524986	66919	-0.514812469	0	255	0
7.91087484	66919	0.436750054	0	255	0
7.91087484	66919	-0.514812469	0	255	0
7.98212481	66926.5	1.70550013	0	255	0
7.98212481	66926.5	1.38831258	0	255	0
7.98212481	66925.5625	1.70550013	0	255	0
7.98212481	66925.5625	1.38831258	0	255	0
7.94649982	66926.5	1.07112503	0	255	0
7.96431255	66926.5	1.07112503	0	255	0
7.96431255	66925.5625	1.07112503	0	255	0
7.96431255	66924.625	1.70550013	0	255	0
7.96431255	66924.625	1.07112503	0	255	0
7.94649982	66924.625	1.07112503	0	255	0
7.94649982	66923.6875	0.753937542	0	255	0
7.94649982	66923.6875	0.436750054	0	255	0
7.96431255	66923.6875	1.07112503	0	255	0
7.96431255	66923.6875	0.753937542	0	255	0
7.96431255	66923.6875	1.07112503	0	255	0
7.96431255	66922.75	0.436750054	0	255	0
7.96431255	66922.75	0.753937542	0	255	0
7.94649982	66922.75	0.753937542	0	255	0
7.94649982	66922.75	-0.514812469	0	255	0
7.94649982	66922.75	1.70550013	0	255	0
7.98212481	66922.75	-0.832000017	0	255	0
7.98212481	66922.75	-0.514812469	0	255	0
7.98212481	66921.8125	-0.832000017	0	255	0
7.98212481	66921.8125	-0.514812469	0	255	0
7.96431255	66921.8125	-0.197624981	0	255	0
7.96431255	66920.875	-0.832000017	0	255	0
7.96431255	66920.875	-0.514812469	0	255	0
7.94649982	66920.875	-0.514812469	0	255	0
7.94649982	66920.875	0.119562536	0	255	0
7.94649982	66920.875	-0.832000017	0	255	0
7.96431255	66920.875	0.436750054	0	255	0
7.96431255	66920.875	0.119562536	0	255	0
7.96431255	66919.9375	-0.197624981	0	255	0
7.96431255	66919	0.436750054	0	255	0
7.96431255	66919	0.119562536	0	255	0
7.94649982	66919	0.119562536	0	255	0
