-6.06787491	66659.0078	0.670624971	0	255	0
-6.06787491	66659.0078	0.844249964	0	255	0
-6.03649998	66659.0078	0.844249964	0	255	0
-6.03649998	66659.0078	0.670624971	0	255	0
-6.06787491	66607.875	0.496999979	0	255	0
-6.03649998	66607.875	0.844249964	0	255	0
-6.03649998	66607.875	0.670624971	0	255	0
-6.06787491	66607.875	0.670624971	0	255	0
-6.08356237	66582.3125	0.786374986	0	255	0
-6.08356237	66582.3125	0.844249964	0	255	0
-6.06787491	66582.3125	0.728500009	0	255	0
-6.06787491	66582.3125	0.786374986	0	255	0
-6.08356237	66556.75	0.728500009	0	255	0
-6.06787491	66556.75	0.786374986	0	255	0
-6.08356237	66556.75	0.786374986	0	255	0
-6.06787491	66607.875	0.902125001	0	255	0
-6.06787491	66607.875	0.728500009	0	255	0
-6.03649998	66607.875	0.959999979	0	255	0
-6.05218744	66607.875	0.844249964	0	255	0
-6.05218744	66582.3125	0.844249964	0	255	0
-6.03649998	66556.75	0.959999979	0	255	0
-6.06787491	66582.3125	0.844249964	0	255	0
-6.05218744	66607.875	0.844249964	0	255	0
-6.06787491	66607.875	0.786374986	0	255	0
-6.03649998	66607.875	0.728500009	0	255	0
-6.06787491	66582.3125	0.844249964	0	255	0
-6.05218744	66582.3125	0.728500009	0	255	0
-6.06787491	66556.75	0.728500009	0	255	0
-6.06787491	66659.0078	0.728500009	0	255	0
-6.06787491	66659.0078	0.786374986	0	255	0
-6.03649998	66659.0078	0.786374986	0	255	0
-6.03649998	66659.0078	0.496999979	0	255	0
-6.09924984	66607.875	0.728500009	0	255	0
-6.09924984	66607.875	0.786374986	0	255	0
-6.09924984	66556.75	0.786374986	0	255	0
-6.09924984	66556.75	0.728500009	0	255	0
-6.03649998	66556.75	0.786374986	0	255	0
-6.03649998	66556.75	0.959999979	0	255	0
-6.11493731	66556.75	0.554875016	0	255	0
-6.11493731	66556.75	0.496999979	0	255	0
-6.09924984	66556.75	0.554875016	0	255	0
-6.13062477	66531.1875	0.554875016	0	255	0
-6.13062477	66531.1875	0.496999979	0	255	0
-6.11493731	66531.1875	0.612749994	0	255	0
-6.13062477	66505.625	0.554875016	0	255	0
-6.09924984	66505.625	0.554875016	0	255	0
-6.14631271	66480.0625	0.670624971	0	255	0
-6.14631271	66480.0625	0.612749994	0	255	0
-6.13062477	66480.0625	0.728500009	0	255	0
-6.13062477	66480.0625	0.670624971	0	255	0
-6.14631271	66454.5	0.728500009	0	255	0
-6.13062477	66454.5	0.496999979	0	255	0
-6.13062477	66454.5	0.670624971	0	255	0
-6.14631271	66454.5	0.670624971	0	255	0
-6.13062477	66505.625	0.554875016	0	255	0
-6.13062477	66505.625	0.728500009	0	255	0
-6.09924984	66505.625	0.554875016	0	255	0
-6.11493731	66480.0625	0.612749994	0	255	0
-6.13062477	66454.5	0.554875016	0	255	0
-6.09924984	66454.5	0.554875016	0	255	0
-6.06787491	66556.75	0.959999979	0	255	0
-6.06787491	66531.1875	0.959999979	0	255	0
-6.09924984	66556.75	0.844249964	0	255	0
-6.08356237	66531.1875	0.844249964	0	255	0
-6.08356237	66505.625	0.959999979	0	255	0
-6.06787491	66505.625	0.902125001	0	255	0
-6.06787491	66556.75	0.902125001	0	255	0
-6.06787491	66531.1875	0.902125001	0	255	0
-6.06787491	66531.1875	0.844249964	0	255	0
-6.03649998	66556.75	0.902125001	0	255	0
-6.03649998	66556.75	0.844249964	0	255	0
-6.03649998	66531.1875	0.902125001	0	255	0
-6.03649998	66531.1875	0.844249964	0	255	0
-6.08356237	66556.75	0.844249964	0	255	0
-6.08356237	66556.75	0.728500009	0	255	0
-6.06787491	66556.75	0.728500009	0	255	0
-6.09924984	66531.1875	0.844249964	0	255	0
-6.08356237	66531.1875	0.728500009	0	255	0
-6.09924984	66531.1875	0.728500009	0	255	0
-6.06787491	66556.75	0.959999979	0	255	0
-6.06787491	66556.75	0.902125001	0	255	0
-6.03649998	66556.75	0.902125001	0	255	0
-6.06787491	66505.625	0.902125001	0	255	0
-6.03649998	66505.625	0.902125001	0	255	0
-6.03649998	66505.625	0.959999979	0	255	0
-6.09924984	66505.625	0.786374986	0	255	0
-6.08356237	66505.625	0.728500009	0	255	0
-6.08356237	66505.625	0.786374986	0	255	0
-6.08356237	66480.0625	0.844249964	0	255	0
-6.08356237	66454.5	0.728500009	0	255	0
-6.08356237	66454.5	0.786374986	0	255	0
-6.09924984	66454.5	0.786374986	0	255	0
-6.06787491	66505.625	0.786374986	0	255	0
-6.06787491	66480.0625	0.844249964	0	255	0
-6.06787491	66480.0625	0.786374986	0	255	0
-6.08356237	66505.625	0.728500009	0	255	0
-6.08356237	66480.0625	0.728500009	0	255	0
-6.08356237	66454.5	0.844249964	0	255	0
-6.08356237	66454.5	0.728500009	0	255	0
-6.13062477	66556.75	0.728500009	0	255	0
-6.13062477	66556.75	0.670624971	0	255	0
-6.09924984	66556.75	0.670624971	0	255	0
-6.16200018	66454.5	0.959999979	0	255	0
-6.13062477	66505.625	0.670624971	0	255	0
-6.09924984	66505.625	0.670624971	0	255	0
-6.09924984	66505.625	0.728500009	0	255	0
-6.11493731	66480.0625	0.612749994	0	255	0
-6.09924984	66480.0625	0.728500009	0	255	0
-6.11493731	66454.5	0.728500009	0	255	0
-6.13062477	66454.5	0.728500009	0	255	0
-6.09924984	66480.0625	0.612749994	0	255	0
-6.11493731	66454.5	0.612749994	0	255	0
-6.13062477	66505.625	0.554875016	0	255	0
-6.09924984	66505.625	0.612749994	0	255	0
-6.09924984	66505.625	0.554875016	0	255	0
-6.11493731	66480.0625	0.496999979	0	255	0
-6.13062477	66454.5	0.554875016	0	255	0
-6.09924984	66454.5	0.554875016	0	255	0
-6.08356237	66556.75	0.728500009	0	255	0
-6.08356237	66556.75	0.612749994	0	255	0
-6.09924984	66531.1875	0.728500009	0	255	0
-6.08356237	66531.1875	0.612749994	0	255	0
-6.09924984	66531.1875	0.612749994	0	255	0
-6.03649998	66531.1875	0.728500009	0	255	0
-6.06787491	66531.1875	0.612749994	0	255	0
-6.03649998	66556.75	0.612749994	0	255	0
-6.03649998	66531.1875	0.612749994	0	255	0
-6.05218744	66531.1875	0.612749994	0	255	0
-6.05218744	66505.625	0.728500009	0	255	0
-6.05218744	66505.625	0.670624971	0	255	0
-6.06787491	66505.625	0.670624971	0	255	0
-6.09924984	66556.75	0.554875016	0	255	0
-6.09924984	66556.75	0.612749994	0	255	0
-6.06787491	66556.75	0.554875016	0	255	0
-6.08356237	66531.1875	0.496999979	0	255	0
-6.09924984	66505.625	0.554875016	0	255	0
-6.06787491	66505.625	0.554875016	0	255	0
-6.06787491	66556.75	0.728500009	0	255	0
-6.06787491	66556.75	0.670624971	0	255	0
-6.03649998	66556.75	0.670624971	0	255	0
-6.03649998	66556.75	0.496999979	0	255	0
-6.06787491	66505.625	0.670624971	0	255	0
-6.03649998	66505.625	0.670624971	0	255	0
-6.03649998	66505.625	0.728500009	0	255	0
-6.09924984	66505.625	0.554875016	0	255	0
-6.06787491	66505.625	0.554875016	0	255	0
-6.06787491	66480.0625	0.496999979	0	255	0
-6.06787491	66480.0625	0.554875016	0	255	0
-6.08356237	66480.0625	0.612749994	0	255	0
-6.08356237	66454.5	0.496999979	0	255	0
-6.08356237	66454.5	0.554875016	0	255	0
-6.09924984	66454.5	0.554875016	0	255	0
-6.09924984	66505.625	0.554875016	0	255	0
-6.06787491	66505.625	0.554875016	0	255	0
-6.06787491	66480.0625	0.612749994	0	255	0
-6.06787491	66480.0625	0.554875016	0	255	0
-6.08356237	66480.0625	0.496999979	0	255	0
-6.08356237	66454.5	0.612749994	0	255	0
-6.08356237	66454.5	0.554875016	0	255	0
-6.09924984	66454.5	0.554875016	0	255	0
-6.03649998	66659.0078	0.902125001	0	255	0
-6.03649998	66659.0078	0.959999979	0	255	0
-6.02081251	66659.0078	0.844249964	0	255	0
-6.02081251	66633.4375	0.844249964	0	255	0
-6.03649998	66607.875	0.902125001	0	255	0
-6.02081251	66607.875	0.844249964	0	255	0
-5.97375011	66659.0078	0.959999979	0	255	0
-5.97375011	66659.0078	0.902125001	0	255	0
-5.97375011	66633.4375	0.959999979	0	255	0
-5.97375011	66633.4375	0.902125001	0	255	0
-5.98943758	66659.0078	0.844249964	0	255	0
-5.98943758	66633.4375	0.844249964	0	255	0
-5.98943758	66607.875	0.959999979	0	255	0
-5.98943758	66607.875	0.844249964	0	255	0
-6.03649998	66659.0078	0.844249964	0	255	0
-6.00512505	66659.0078	0.786374986	0	255	0
-6.02081251	66659.0078	0.728500009	0	255	0
-6.03649998	66633.4375	0.728500009	0	255	0
-6.02081251	66633.4375	0.728500009	0	255	0
-6.03649998	66607.875	0.786374986	0	255	0
-6.00512505	66607.875	0.786374986	0	255	0
-6.00512505	66659.0078	0.959999979	0	255	0
-6.00512505	66659.0078	0.902125001	0	255	0
-5.97375011	66659.0078	0.902125001	0	255	0
-5.97375011	66659.0078	0.728500009	0	255	0
-6.00512505	66607.875	0.902125001	0	255	0
-5.97375011	66607.875	0.902125001	0	255	0
-5.97375011	66607.875	0.959999979	0	255	0
-6.03649998	66607.875	0.786374986	0	255	0
-6.00512505	66607.875	0.786374986	0	255	0
-6.00512505	66582.3125	0.728500009	0	255	0
-6.00512505	66582.3125	0.786374986	0	255	0
-6.02081251	66582.3125	0.844249964	0	255	0
-6.02081251	66556.75	0.728500009	0	255	0
-6.02081251	66556.75	0.786374986	0	255	0
-6.03649998	66556.75	0.786374986	0	255	0
-6.03649998	66582.3125	0.844249964	0	255	0
-6.00512505	66607.875	0.786374986	0	255	0
-6.00512505	66582.3125	0.844249964	0	255	0
-6.00512505	66582.3125	0.786374986	0	255	0
-6.03649998	66607.875	0.728500009	0	255	0
-6.02081251	66607.875	0.728500009	0	255	0
-6.03649998	66556.75	0.844249964	0	255	0
-6.03649998	66582.3125	0.728500009	0	255	0
-6.02081251	66659.0078	0.728500009	0	255	0
-6.03649998	66633.4375	0.728500009	0	255	0
-6.02081251	66633.4375	0.612749994	0	255	0
-6.03649998	66659.0078	0.612749994	0	255	0
-6.02081251	66659.0078	0.612749994	0	255	0
-6.03649998	66633.4375	0.612749994	0	255	0
-6.03649998	66633.4375	0.496999979	0	255	0
-6.03649998	66633.4375	0.554875016	0	255	0
-6.02081251	66633.4375	0.554875016	0	255	0
-6.03649998	66607.875	0.612749994	0	255	0
-6.03649998	66607.875	0.554875016	0	255	0
-6.02081251	66607.875	0.554875016	0	255	0
-6.02081251	66607.875	0.496999979	0	255	0
-6.03649998	66607.875	0.496999979	0	255	0
-6.03649998	66607.875	0.554875016	0	255	0
-6.02081251	66607.875	0.496999979	0	255	0
-6.02081251	66607.875	0.554875016	0	255	0
-6.02081251	66582.3125	0.612749994	0	255	0
-6.02081251	66556.75	0.496999979	0	255	0
-6.02081251	66556.75	0.554875016	0	255	0
-6.03649998	66556.75	0.554875016	0	255	0
-5.97375011	66659.0078	0.381249994	0	255	0
-5.97375011	66659.0078	0.554875016	0	255	0
-5.97375011	66607.875	0.554875016	0	255	0
-5.97375011	66607.875	0.381249994	0	255	0
-5.91099977	66659.0078	0.554875016	0	255	0
-5.91099977	66659.0078	0.381249994	0	255	0
-5.91099977	66607.875	0.554875016	0	255	0
-5.91099977	66607.875	0.381249994	0	255	0
-5.97375011	66659.0078	0.728500009	0	255	0
-5.97375011	66659.0078	0.670624971	0	255	0
-5.91099977	66659.0078	0.670624971	0	255	0
-5.91099977	66659.0078	0.0340000018	0	255	0
-5.97375011	66556.75	0.670624971	0	255	0
-5.91099977	66556.75	0.670624971	0	255	0
-5.91099977	66556.75	0.728500009	0	255	0
-5.97375011	66556.75	0.612749994	0	255	0
-6.14631271	66454.5	0.0918750018	0	255	0
-6.14631271	66454.5	0.0340000018	0	255	0
-6.13062477	66454.5	0.0918750018	0	255	0
-6.14631271	66403.375	0.0340000018	0	255	0
-6.13062477	66403.375	0.0918750018	0	255	0
-6.14631271	66403.375	0.0918750018	0	255	0
-6.13062477	66454.5	0.0918750018	0	255	0
-6.09924984	66454.5	0.0918750018	0	255	0
-6.11493731	66428.9375	0.149749994	0	255	0
-6.13062477	66403.375	0.0918750018	0	255	0
-6.09924984	66403.375	0.0918750018	0	255	0
-6.16200018	66403.375	0.207624987	0	255	0
-6.16200018	66403.375	0.0340000018	0	255	0
-6.13062477	66403.375	0.207624987	0	255	0
-6.14631271	66377.8125	0.149749994	0	255	0
-6.16200018	66352.25	0.207624987	0	255	0
-6.13062477	66352.25	0.0340000018	0	255	0
-6.13062477	66352.25	0.207624987	0	255	0
-6.13062477	66403.375	0.0918750018	0	255	0
-6.09924984	66403.375	0.0918750018	0	255	0
-6.11493731	66377.8125	0.149749994	0	255	0
-6.13062477	66352.25	0.0918750018	0	255	0
-6.09924984	66352.25	0.0918750018	0	255	0
-6.09924984	66454.5	0.0918750018	0	255	0
-6.08356237	66454.5	0.0340000018	0	255	0
-6.08356237	66454.5	0.0918750018	0	255	0
-6.09924984	66428.9375	0.0340000018	0	255	0
-6.08356237	66428.9375	0.149749994	0	255	0
-6.08356237	66428.9375	0.0918750018	0	255	0
-6.09924984	66428.9375	0.0918750018	0	255	0
-6.16200018	66352.25	0.439124972	0	255	0
-6.16200018	66352.25	0.0340000018	0	255	0
-6.13062477	66352.25	0.439124972	0	255	0
-6.14631271	66326.6875	0.381249964	0	255	0
-6.16200018	66301.125	0.439124972	0	255	0
-6.13062477	66301.125	0.439124972	0	255	0
-6.13062477	66352.25	0.439124972	0	255	0
-6.09924984	66352.25	0.439124972	0	255	0
-6.11493731	66326.6875	0.381249964	0	255	0
-6.13062477	66301.125	0.439124972	0	255	0
-6.09924984	66301.125	0.439124972	0	255	0
-6.14631271	66301.125	0.323374987	0	255	0
-6.14631271	66301.125	0.265499979	0	255	0
-6.13062477	66301.125	0.323374987	0	255	0
-6.14631271	66250	0.265499979	0	255	0
-6.13062477	66250	0.496999979	0	255	0
-6.13062477	66250	0.323374987	0	255	0
-6.14631271	66250	0.323374987	0	255	0
-6.13062477	66301.125	0.439124972	0	255	0
-6.09924984	66301.125	0.439124972	0	255	0
-6.11493731	66275.5625	0.381249964	0	255	0
-6.13062477	66250	0.439124972	0	255	0
-6.09924984	66250	0.0340000018	0	255	0
-6.09924984	66250	0.439124972	0	255	0
-6.16200018	66326.6875	0.0918750018	0	255	0
-6.16200018	66326.6875	0.0340000018	0	255	0
-6.14631271	66326.6875	0.149749994	0	255	0
-6.14631271	66326.6875	0.0918750018	0	255	0
-6.14631271	66326.6875	0.149749994	0	255	0
-6.14631271	66301.125	0.0340000018	0	255	0
-6.14631271	66301.125	0.0918750018	0	255	0
-6.16200018	66301.125	0.0918750018	0	255	0
-6.16200018	66301.125	0.207625002	0	255	0
-6.16200018	66301.125	0.0340000018	0	255	0
-6.13062477	66301.125	0.265500009	0	255	0
-6.13062477	66301.125	0.207625002	0	255	0
-6.14631271	66275.5625	0.149749994	0	255	0
-6.16200018	66250	0.207625002	0	255	0
-6.13062477	66250	0.0340000018	0	255	0
-6.13062477	66250	0.207625002	0	255	0
-6.13062477	66275.5625	0.0918750018	0	255	0
-6.13062477	66275.5625	0.0340000018	0	255	0
-6.11493731	66275.5625	0.149749994	0	255	0
-6.11493731	66275.5625	0.0918750018	0	255	0
-6.11493731	66275.5625	0.149749994	0	255	0
-6.11493731	66250	0.0340000018	0	255	0
-6.11493731	66250	0.0918750018	0	255	0
-6.13062477	66250	0.0918750018	0	255	0
