-2.80712485	6.70319986	2.63100004	0	255	0
-2.80712485	6.70319986	2.8045001	0	255	0
-2.77024984	6.70319986	2.8045001	0	255	0
-2.77024984	6.70319986	2.63100004	0	255	0
-2.80712485	6.70305634	2.8045001	0	255	0
-2.77024984	6.70305634	2.8045001	0	255	0
-2.77024984	6.70305634	2.63100004	0	255	0
-2.84399986	6.70291233	2.97799993	0	255	0
-2.73337483	6.70291233	2.63100004	0	255	0
-2.73337483	6.70291233	2.8045001	0	255	0
-2.69649982	6.70291233	2.8045001	0	255	0
-2.69649982	6.70291233	2.63100004	0	255	0
-2.73337483	6.7027688	2.8045001	0	255	0
-2.69649982	6.7027688	2.8045001	0	255	0
-2.69649982	6.7027688	2.63100004	0	255	0
-2.77024984	6.70262527	2.97799993	0	255	0
-2.65962481	6.70219421	2.45749998	0	255	0
-2.65962481	6.70219421	2.63100004	0	255	0
-2.62274981	6.70219421	2.28399992	0	255	0
-2.62274981	6.70219421	2.45749998	0	255	0
-2.65962481	6.70205021	2.28399992	0	255	0
-2.62274981	6.70205021	2.45749998	0	255	0
-2.65962481	6.70205021	2.45749998	0	255	0
-2.62274981	6.70219421	2.63100004	0	255	0
-2.62274981	6.70219421	2.8045001	0	255	0
-2.62274981	6.70205021	2.8045001	0	255	0
-2.62274981	6.70205021	2.63100004	0	255	0
-2.54900002	6.70219421	2.8045001	0	255	0
-2.54900002	6.70219421	2.63100004	0	255	0
-2.54900002	6.70205021	2.8045001	0	255	0
-2.54900002	6.70205021	2.63100004	0	255	0
-2.62274981	6.70219421	2.45749998	0	255	0
-2.62274981	6.70219421	2.63100004	0	255	0
-2.58587503	6.70219421	2.28399992	0	255	0
-2.58587503	6.70219421	2.45749998	0	255	0
-2.58587503	6.70219421	2.28399992	0	255	0
-2.58587503	6.70205021	2.63100004	0	255	0
-2.58587503	6.70205021	2.45749998	0	255	0
-2.62274981	6.70205021	2.45749998	0	255	0
-3.06524992	6.70133209	2.11049986	0	255	0
-3.06524992	6.70133209	2.28399992	0	255	0
-3.02837491	6.70133209	1.93699992	0	255	0
-3.06524992	6.70118809	2.11049986	0	255	0
-2.9914999	6.70133209	2.28399992	0	255	0
-2.9914999	6.70133209	2.11049986	0	255	0
-2.9914999	6.70118809	2.11049986	0	255	0
-3.10212493	6.70118809	1.76349998	0	255	0
-3.10212493	6.70118809	1.58999991	0	255	0
-3.06524992	6.70118809	1.76349998	0	255	0
-3.13899994	6.70104456	1.76349998	0	255	0
-3.13899994	6.70104456	1.58999991	0	255	0
-3.10212493	6.70104456	1.93699992	0	255	0
-3.13899994	6.70090103	1.76349998	0	255	0
-3.06524992	6.70090103	2.28399992	0	255	0
-3.06524992	6.70090103	1.76349998	0	255	0
-3.06524992	6.70118809	2.11049986	0	255	0
-2.9914999	6.70118809	2.11049986	0	255	0
-3.02837491	6.70104456	1.93699992	0	255	0
-3.06524992	6.70090103	2.11049986	0	255	0
-2.9914999	6.70090103	0.896000028	0	255	0
-2.9914999	6.70090103	2.11049986	0	255	0
-2.9914999	6.70133209	1.06949997	0	255	0
-2.9914999	6.70133209	0.896000028	0	255	0
-2.95462489	6.70133209	1.24300003	0	255	0
-2.9914999	6.70118809	1.06949997	0	255	0
-2.91774988	6.70133209	0.896000028	0	255	0
-2.91774988	6.70133209	1.06949997	0	255	0
-2.91774988	6.70118809	1.06949997	0	255	0
-2.91774988	6.70133209	1.06949997	0	255	0
-2.91774988	6.70133209	0.896000028	0	255	0
-2.88087487	6.70133209	1.24300003	0	255	0
-2.91774988	6.70118809	1.06949997	0	255	0
-2.84399986	6.70133209	0.896000028	0	255	0
-2.84399986	6.70133209	1.06949997	0	255	0
-2.84399986	6.70118809	1.06949997	0	255	0
-2.9914999	6.70118809	1.41649997	0	255	0
-2.9914999	6.70118809	0.896000028	0	255	0
-2.91774988	6.70118809	1.41649997	0	255	0
-2.95462489	6.70104456	1.24300003	0	255	0
-2.9914999	6.70090103	1.41649997	0	255	0
-2.91774988	6.70090103	0.896000028	0	255	0
-2.91774988	6.70090103	1.41649997	0	255	0
-2.91774988	6.70118809	1.06949997	0	255	0
-2.84399986	6.70118809	1.06949997	0	255	0
-2.88087487	6.70104456	1.24300003	0	255	0
-2.91774988	6.70090103	1.06949997	0	255	0
-2.84399986	6.70090103	3.67199993	0	255	0
-2.84399986	6.70090103	1.06949997	0	255	0
-2.73337483	6.70190668	2.63100004	0	255	0
-2.69649982	6.70190668	2.97799993	0	255	0
-2.73337483	6.70176315	2.97799993	0	255	0
-2.69649982	6.70176315	2.97799993	0	255	0
-2.77024984	6.70176315	2.28399992	0	255	0
-2.69649982	6.70190668	2.63100004	0	255	0
-2.69649982	6.70176315	2.63100004	0	255	0
-2.73337483	6.70176315	2.63100004	0	255	0
-2.77024984	6.70205021	2.97799993	0	255	0
-2.77024984	6.70205021	2.8045001	0	255	0
-2.69649982	6.70205021	2.8045001	0	255	0
-2.69649982	6.70205021	2.28399992	0	255	0
-2.77024984	6.70176315	2.8045001	0	255	0
-2.69649982	6.70176315	2.8045001	0	255	0
-2.69649982	6.70176315	2.97799993	0	255	0
-2.77024984	6.70176315	2.63100004	0	255	0
-2.69649982	6.70205021	3.67199993	0	255	0
-2.69649982	6.70205021	3.15149975	0	255	0
-2.54900002	6.70205021	3.15149975	0	255	0
-2.54900002	6.70205021	2.28399992	0	255	0
-2.54900002	6.70176315	3.15149975	0	255	0
-2.54900002	6.70176315	2.97799993	0	255	0
-2.69649982	6.70147562	3.15149975	0	255	0
-2.62274981	6.70147562	3.15149975	0	255	0
-2.62274981	6.70147562	2.97799993	0	255	0
-2.69649982	6.70147562	2.97799993	0	255	0
-2.84399986	6.70133209	2.45749998	0	255	0
-2.84399986	6.70133209	2.28399992	0	255	0
-2.80712485	6.70133209	2.63100004	0	255	0
-2.84399986	6.70118809	2.45749998	0	255	0
-2.77024984	6.70133209	2.28399992	0	255	0
-2.77024984	6.70133209	2.45749998	0	255	0
-2.77024984	6.70118809	2.45749998	0	255	0
-2.77024984	6.70133209	2.45749998	0	255	0
-2.77024984	6.70133209	2.28399992	0	255	0
-2.73337483	6.70133209	2.63100004	0	255	0
-2.77024984	6.70118809	2.45749998	0	255	0
-2.69649982	6.70133209	2.28399992	0	255	0
-2.69649982	6.70133209	2.45749998	0	255	0
-2.69649982	6.70118809	2.28399992	0	255	0
-2.69649982	6.70118809	2.45749998	0	255	0
-2.84399986	6.70118809	2.8045001	0	255	0
-2.84399986	6.70118809	2.28399992	0	255	0
-2.84399986	6.70104456	2.97799993	0	255	0
-2.84399986	6.70104456	2.8045001	0	255	0
-2.77024984	6.70118809	2.8045001	0	255	0
-2.77024984	6.70104456	2.97799993	0	255	0
-2.77024984	6.70104456	2.8045001	0	255	0
-2.69649982	6.70133209	3.32499981	0	255	0
-2.65962481	6.70133209	2.97799993	0	255	0
-2.65962481	6.70133209	2.97799993	0	255	0
-2.65962481	6.70118809	3.32499981	0	255	0
-2.69649982	6.70133209	2.97799993	0	255	0
-2.69649982	6.70118809	3.32499981	0	255	0
-2.65962481	6.70118809	2.97799993	0	255	0
-2.69649982	6.70118809	2.97799993	0	255	0
-2.77024984	6.70133209	2.8045001	0	255	0
-2.77024984	6.70133209	2.97799993	0	255	0
-2.73337483	6.70133209	2.63100004	0	255	0
-2.73337483	6.70133209	2.8045001	0	255	0
-2.73337483	6.70133209	2.63100004	0	255	0
-2.73337483	6.70118809	2.97799993	0	255	0
-2.73337483	6.70118809	2.8045001	0	255	0
-2.77024984	6.70118809	2.8045001	0	255	0
-2.80712485	6.70118809	2.45749998	0	255	0
-2.80712485	6.70118809	2.28399992	0	255	0
-2.77024984	6.70118809	2.45749998	0	255	0
-2.77024984	6.70104456	2.28399992	0	255	0
-2.77024984	6.70104456	2.45749998	0	255	0
-2.84399986	6.70104456	2.45749998	0	255	0
-2.84399986	6.70104456	2.28399992	0	255	0
-2.80712485	6.70104456	2.63100004	0	255	0
-2.80712485	6.70090103	2.28399992	0	255	0
-2.80712485	6.70090103	2.45749998	0	255	0
-2.84399986	6.70090103	2.45749998	0	255	0
-2.73337483	6.70118809	2.97799993	0	255	0
-2.77024984	6.70104456	2.97799993	0	255	0
-2.73337483	6.70104456	2.63100004	0	255	0
-2.77024984	6.70118809	2.63100004	0	255	0
-2.77024984	6.70104456	2.63100004	0	255	0
-2.69649982	6.70118809	2.8045001	0	255	0
-2.69649982	6.70104456	2.8045001	0	255	0
-2.69649982	6.70104456	2.63100004	0	255	0
-2.84399986	6.70104456	2.63100004	0	255	0
-2.80712485	6.70104456	2.28399992	0	255	0
-2.77024984	6.70104456	2.63100004	0	255	0
-2.84399986	6.70104456	2.28399992	0	255	0
-2.77024984	6.70104456	2.28399992	0	255	0
-2.73337483	6.70118809	2.45749998	0	255	0
-2.73337483	6.70118809	2.63100004	0	255	0
-2.69649982	6.70118809	2.45749998	0	255	0
-2.73337483	6.70104456	2.28399992	0	255	0
-2.69649982	6.70104456	2.63100004	0	255	0
-2.69649982	6.70104456	2.45749998	0	255	0
-2.77024984	6.70104456	2.28399992	0	255	0
-2.77024984	6.70104456	2.45749998	0	255	0
-2.77024984	6.70090103	2.45749998	0	255	0
-2.73337483	6.70090103	2.45749998	0	255	0
-2.73337483	6.70090103	2.28399992	0	255	0
-2.69649982	6.70133209	2.8045001	0	255	0
-2.69649982	6.70133209	2.97799993	0	255	0
-2.65962481	6.70133209	2.63100004	0	255	0
-2.65962481	6.70133209	2.8045001	0	255	0
-2.65962481	6.70133209	2.63100004	0	255	0
-2.65962481	6.70118809	2.97799993	0	255	0
-2.65962481	6.70118809	2.8045001	0	255	0
-2.69649982	6.70118809	2.8045001	0	255	0
-2.69649982	6.70118809	2.63100004	0	255	0
-2.65962481	6.70118809	2.63100004	0	255	0
-2.69649982	6.70104456	2.63100004	0	255	0
-2.65962481	6.70104456	2.28399992	0	255	0
-2.69649982	6.70118809	2.28399992	0	255	0
-2.65962481	6.70118809	2.28399992	0	255	0
-2.69649982	6.70090103	2.63100004	0	255	0
-2.69649982	6.70104456	2.28399992	0	255	0
-2.9914999	6.70104456	1.76349998	0	255	0
-2.9914999	6.70104456	1.58999991	0	255	0
-2.95462489	6.70104456	1.93699992	0	255	0
-2.9914999	6.70090103	1.76349998	0	255	0
-2.91774988	6.70104456	1.58999991	0	255	0
-2.91774988	6.70104456	1.76349998	0	255	0
-2.91774988	6.70090103	1.76349998	0	255	0
-2.91774988	6.70104456	2.11049986	0	255	0
-2.91774988	6.70104456	2.28399992	0	255	0
-2.88087487	6.70104456	1.93699992	0	255	0
-2.91774988	6.70090103	2.11049986	0	255	0
-2.84399986	6.70104456	2.28399992	0	255	0
-2.84399986	6.70104456	1.93699992	0	255	0
-2.88087487	6.70090103	1.93699992	0	255	0
-2.9914999	6.70090103	1.93699992	0	255	0
-2.95462489	6.70104456	1.76349998	0	255	0
-2.91774988	6.70104456	1.76349998	0	255	0
-2.91774988	6.70104456	1.58999991	0	255	0
-2.95462489	6.70090103	1.76349998	0	255	0
-2.91774988	6.70090103	1.76349998	0	255	0
-2.95462489	6.70090103	1.58999991	0	255	0
-2.88087487	6.70104456	1.58999991	0	255	0
-2.84399986	6.70104456	1.93699992	0	255	0
-2.88087487	6.70090103	1.93699992	0	255	0
-2.91774988	6.70104456	1.58999991	0	255	0
-2.91774988	6.70104456	1.76349998	0	255	0
-2.91774988	6.70090103	1.76349998	0	255	0
-2.84399986	6.70104456	1.58999991	0	255	0
-2.84399986	6.70090103	1.58999991	0	255	0
-2.91774988	6.70104456	1.58999991	0	255	0
-2.88087487	6.70104456	1.24300003	0	255	0
-2.88087487	6.70104456	1.24300003	0	255	0
-2.88087487	6.70090103	1.58999991	0	255	0
-2.91774988	6.70104456	1.24300003	0	255	0
-2.91774988	6.70090103	1.58999991	0	255	0
-2.88087487	6.70090103	1.24300003	0	255	0
-2.9914999	6.70090103	1.24300003	0	255	0
-2.95462489	6.70104456	1.06949997	0	255	0
-2.91774988	6.70104456	1.06949997	0	255	0
-2.91774988	6.70104456	0.896000028	0	255	0
-2.95462489	6.70090103	1.06949997	0	255	0
-2.91774988	6.70090103	1.06949997	0	255	0
-2.91774988	6.70090103	0.896000028	0	255	0
-2.95462489	6.70090103	0.896000028	0	255	0
-2.91774988	6.70104456	1.06949997	0	255	0
-2.91774988	6.70104456	1.24300003	0	255	0
-2.88087487	6.70104456	0.896000028	0	255	0
-2.88087487	6.70104456	0.896000028	0	255	0
-2.88087487	6.70090103	1.24300003	0	255	0
-2.91774988	6.70090103	1.06949997	0	255	0
-2.84399986	6.70104456	1.06949997	0	255	0
-2.84399986	6.70104456	0.896000028	0	255	0
-2.84399986	6.70090103	1.06949997	0	255	0
-2.88087487	6.70090103	0.896000028	0	255	0
-2.84399986	6.70104456	1.41649997	0	255	0
-2.84399986	6.70104456	1.58999991	0	255	0
-2.80712485	6.70104456	1.24300003	0	255	0
-2.80712485	6.70104456	1.41649997	0	255	0
-2.80712485	6.70104456	1.24300003	0	255	0
-2.80712485	6.70090103	1.58999991	0	255	0
-2.80712485	6.70090103	1.41649997	0	255	0
-2.84399986	6.70090103	1.41649997	0	255	0
-2.77024984	6.70104456	1.06949997	0	255	0
-2.77024984	6.70104456	0.896000028	0	255	0
-2.73337483	6.70104456	1.24300003	0	255	0
-2.77024984	6.70090103	1.06949997	0	255	0
-2.69649982	6.70104456	0.896000028	0	255	0
-2.69649982	6.70104456	1.06949997	0	255	0
-2.69649982	6.70090103	2.28399992	0	255	0
-2.69649982	6.70090103	1.06949997	0	255	0
-2.69649982	6.70104456	1.76349998	0	255	0
-2.69649982	6.70104456	1.58999991	0	255	0
-2.65962481	6.70104456	1.93699992	0	255	0
-2.65962481	6.70104456	1.76349998	0	255	0
-2.65962481	6.70104456	1.93699992	0	255	0
-2.65962481	6.70090103	1.58999991	0	255	0
-2.65962481	6.70090103	1.76349998	0	255	0
-2.69649982	6.70090103	1.76349998	0	255	0
-2.84399986	6.70104456	1.06949997	0	255	0
-2.84399986	6.70104456	0.896000028	0	255	0
-2.80712485	6.70104456	1.24300003	0	255	0
-2.84399986	6.70090103	1.06949997	0	255	0
-2.77024984	6.70104456	0.896000028	0	255	0
-2.77024984	6.70104456	1.06949997	0	255	0
-2.77024984	6.70090103	1.06949997	0	255	0
-2.73337483	6.70104456	1.24300003	0	255	0
-2.69649982	6.70104456	1.58999991	0	255	0
-2.73337483	6.70090103	1.58999991	0	255	0
-2.69649982	6.70090103	1.58999991	0	255	0
-2.69649982	6.70104456	1.24300003	0	255	0
-2.73337483	6.70090103	1.24300003	0	255	0
-2.84399986	6.70104456	1.24300003	0	255	0
-2.80712485	6.70104456	0.896000028	0	255	0
-2.80712485	6.70104456	0.896000028	0	255	0
-2.80712485	6.70090103	1.24300003	0	255	0
-2.84399986	6.70104456	0.896000028	0	255	0
-2.77024984	6.70104456	1.06949997	0	255	0
-2.77024984	6.70104456	0.896000028	0	255	0
-2.77024984	6.70090103	1.06949997	0	255	0
-2.73337483	6.70104456	0.896000028	0	255	0
-2.69649982	6.70104456	1.24300003	0	255	0
-2.73337483	6.70090103	1.24300003	0	255	0
-2.77024984	6.70104456	0.896000028	0	255	0
-2.77024984	6.70104456	1.06949997	0	255	0
-2.77024984	6.70090103	1.06949997	0	255	0
-2.69649982	6.70104456	0.896000028	0	255	0
-2.69649982	6.70090103	0.896000028	0	255	0
