-0.823249996	7.02479982	0.0112499967	0	255	0
-0.823249996	7.02479982	0.0274374969	0	255	0
-0.786000013	7.02479982	0.0274374969	0	255	0
-0.786000013	7.02479982	-0.0535000041	0	255	0
-0.823249996	6.94295025	0.0274374969	0	255	0
-0.786000013	6.94295025	0.0274374969	0	255	0
-0.786000013	6.94295025	0.0759999976	0	255	0
-0.823249996	6.94295025	0.0112499967	0	255	0
-0.823249996	6.94295025	0.0112499967	0	255	0
-0.823249996	6.94295025	-0.00493750349	0	255	0
-0.786000013	6.94295025	-0.00493750349	0	255	0
-0.786000013	6.94295025	-0.0535000041	0	255	0
-0.823249996	6.90202522	-0.00493750349	0	255	0
-0.786000013	6.90202522	-0.00493750349	0	255	0
-0.786000013	6.90202522	0.0112499967	0	255	0
-0.823249996	6.90202522	-0.0211250037	0	255	0
-0.860499978	6.8611002	0.0112499967	0	255	0
-0.823249996	6.90202522	-0.0373125039	0	255	0
-0.786000013	6.90202522	-0.0373125039	0	255	0
-0.786000013	6.90202522	-0.0535000041	0	255	0
-0.804625034	6.88156271	-0.0535000041	0	255	0
-0.786000013	6.88156271	-0.0211250037	0	255	0
-0.804625034	6.8611002	-0.0211250037	0	255	0
-0.786000013	6.8611002	-0.0211250037	0	255	0
-0.823249996	6.8611002	-0.0373125039	0	255	0
-0.823249996	6.8611002	-0.0535000041	0	255	0
-0.748750031	7.02479982	0.0759999976	0	255	0
-0.748750031	7.02479982	0.0598124973	0	255	0
-0.711500049	7.02479982	0.0598124973	0	255	0
-0.711500049	7.02479982	0.0112499967	0	255	0
-0.748750031	6.98387527	0.0598124973	0	255	0
-0.711500049	6.98387527	0.0598124973	0	255	0
-0.711500049	6.98387527	0.0759999976	0	255	0
-0.748750031	6.98387527	0.0436249971	0	255	0
-0.73012507	6.96341276	0.0274374969	0	255	0
-0.73012507	6.96341276	0.0112499967	0	255	0
-0.711500049	6.96341276	0.0436249971	0	255	0
-0.711500049	6.96341276	0.0274374969	0	255	0
-0.73012507	6.94295025	0.0436249971	0	255	0
-0.711500049	6.94295025	0.0436249971	0	255	0
-0.711500049	6.94295025	0.0274374969	0	255	0
-0.73012507	6.94295025	0.0274374969	0	255	0
-0.73012507	7.02479982	-0.0211250037	0	255	0
-0.73012507	7.02479982	-0.00493750349	0	255	0
-0.711500049	7.02479982	-0.00493750349	0	255	0
-0.711500049	7.02479982	-0.0211250037	0	255	0
-0.73012507	6.98387527	-0.00493750349	0	255	0
-0.711500049	6.98387527	-0.00493750349	0	255	0
-0.73012507	6.98387527	-0.0211250037	0	255	0
-0.748750031	7.02479982	0.0112499967	0	255	0
-0.748750031	7.02479982	-0.00493750349	0	255	0
-0.711500049	7.02479982	-0.00493750349	0	255	0
-0.711500049	7.02479982	-0.0535000041	0	255	0
-0.748750031	6.98387527	-0.00493750349	0	255	0
-0.711500049	6.98387527	-0.00493750349	0	255	0
-0.711500049	6.98387527	0.0112499967	0	255	0
-0.748750031	6.98387527	-0.0211250037	0	255	0
-0.73012507	6.98387527	-0.0211250037	0	255	0
-0.73012507	6.98387527	-0.00493750349	0	255	0
-0.711500049	6.98387527	-0.00493750349	0	255	0
-0.73012507	6.94295025	-0.00493750349	0	255	0
-0.711500049	6.94295025	-0.00493750349	0	255	0
-0.73012507	6.94295025	-0.0211250037	0	255	0
-0.73012507	6.98387527	-0.0211250037	0	255	0
-0.73012507	6.98387527	-0.0535000041	0	255	0
-0.711500049	6.98387527	-0.0535000041	0	255	0
-0.73012507	6.94295025	-0.0211250037	0	255	0
-0.73012507	6.94295025	-0.0535000041	0	255	0
-0.73012507	6.94295025	-0.0211250037	0	255	0
-0.73012507	6.94295025	-0.00493750349	0	255	0
-0.711500049	6.94295025	-0.00493750349	0	255	0
-0.711500049	6.94295025	-0.0211250037	0	255	0
-0.73012507	6.90202522	-0.00493750349	0	255	0
-0.711500049	6.90202522	-0.00493750349	0	255	0
-0.73012507	6.90202522	-0.0211250037	0	255	0
-0.748750031	6.94295025	0.0112499967	0	255	0
-0.748750031	6.94295025	-0.00493750349	0	255	0
-0.711500049	6.94295025	-0.00493750349	0	255	0
-0.748750031	6.90202522	-0.00493750349	0	255	0
-0.711500049	6.90202522	-0.00493750349	0	255	0
-0.711500049	6.90202522	0.0112499967	0	255	0
-0.73012507	6.90202522	-0.0211250037	0	255	0
-0.73012507	6.90202522	-0.00493750349	0	255	0
-0.711500049	6.90202522	-0.00493750349	0	255	0
-0.73012507	6.8611002	-0.00493750349	0	255	0
-0.711500049	6.8611002	-0.00493750349	0	255	0
-0.73012507	6.8611002	-0.0211250037	0	255	0
-0.748750031	6.90202522	-0.0373125039	0	255	0
-0.73012507	6.90202522	-0.0535000041	0	255	0
-0.711500049	6.90202522	-0.0535000041	0	255	0
-0.73012507	6.88156271	-0.0535000041	0	255	0
-0.748750031	6.8611002	-0.0373125039	0	255	0
-0.711500049	6.8611002	-0.0535000041	0	255	0
-0.73012507	6.8611002	-0.0535000041	0	255	0
-0.89775002	7.02479982	-0.0535000041	0	255	0
-0.89775002	7.02479982	-0.0696875006	0	255	0
-0.860499978	7.02479982	-0.0696875006	0	255	0
-0.89775002	6.98387527	-0.0696875006	0	255	0
-0.860499978	6.98387527	-0.0696875006	0	255	0
-0.860499978	6.98387527	-0.0535000041	0	255	0
-0.89775002	6.98387527	-0.0858750045	0	255	0
-0.879124999	6.98387527	-0.118250005	0	255	0
-0.879124999	6.98387527	-0.102062508	0	255	0
-0.860499978	6.98387527	-0.102062508	0	255	0
-0.860499978	6.98387527	-0.118250005	0	255	0
-0.879124999	6.96341276	-0.102062508	0	255	0
-0.860499978	6.96341276	-0.102062508	0	255	0
-0.860499978	6.96341276	-0.118250005	0	255	0
-0.89775002	6.94295025	-0.0858750045	0	255	0
-0.860499978	7.02479982	-0.102062508	0	255	0
-0.823249996	7.02479982	-0.102062508	0	255	0
-0.823249996	7.02479982	-0.118250005	0	255	0
-0.823249996	7.00433731	-0.102062508	0	255	0
-0.823249996	7.00433731	-0.118250005	0	255	0
-0.860499978	6.98387527	-0.102062508	0	255	0
-0.841874957	6.98387527	-0.102062508	0	255	0
-0.841874957	6.98387527	-0.118250005	0	255	0
-0.841874957	6.98387527	-0.0858750045	0	255	0
-0.860499978	6.96341276	-0.0858750045	0	255	0
-0.841874957	6.96341276	-0.118250005	0	255	0
-0.841874957	6.98387527	-0.118250005	0	255	0
-0.860499978	6.94295025	-0.0858750045	0	255	0
-0.860499978	6.96341276	-0.118250005	0	255	0
-0.879124999	7.02479982	-0.134437501	0	255	0
-0.879124999	7.02479982	-0.118250005	0	255	0
-0.860499978	7.02479982	-0.134437501	0	255	0
-0.879124999	6.98387527	-0.118250005	0	255	0
-0.860499978	6.98387527	-0.118250005	0	255	0
-0.860499978	6.98387527	-0.134437501	0	255	0
-0.879124999	6.98387527	-0.134437501	0	255	0
-0.860499978	7.02479982	-0.0535000041	0	255	0
-0.860499978	7.02479982	-0.102062508	0	255	0
-0.823249996	7.02479982	-0.102062508	0	255	0
-0.823249996	7.02479982	-0.118250005	0	255	0
-0.860499978	6.98387527	-0.102062508	0	255	0
-0.823249996	6.98387527	-0.102062508	0	255	0
-0.860499978	6.94295025	-0.0858750045	0	255	0
-0.860499978	6.98387527	-0.118250005	0	255	0
-0.879124999	6.94295025	-0.166812509	0	255	0
-0.879124999	6.94295025	-0.182999998	0	255	0
-0.860499978	6.94295025	-0.182999998	0	255	0
-0.860499978	6.94295025	-0.166812509	0	255	0
-0.879124999	6.90202522	-0.182999998	0	255	0
-0.860499978	6.90202522	-0.166812509	0	255	0
-0.879124999	6.90202522	-0.166812509	0	255	0
-0.879124999	6.90202522	-0.166812509	0	255	0
-0.879124999	6.90202522	-0.182999998	0	255	0
-0.860499978	6.90202522	-0.166812509	0	255	0
-0.89775002	6.88156271	-0.166812509	0	255	0
-0.89775002	6.88156271	-0.182999998	0	255	0
-0.879124999	6.88156271	-0.150625005	0	255	0
-0.89775002	6.8611002	-0.166812509	0	255	0
-0.860499978	6.8611002	-0.0535000041	0	255	0
-0.860499978	6.8611002	-0.166812509	0	255	0
-0.860499978	6.90202522	-0.0535000041	0	255	0
-0.841874957	6.92248774	-0.0696875006	0	255	0
-0.823249996	6.92248774	-0.0696875006	0	255	0
-0.823249996	6.92248774	-0.0858750045	0	255	0
-0.841874957	6.90202522	-0.0696875006	0	255	0
-0.823249996	6.90202522	-0.0696875006	0	255	0
-0.823249996	6.90202522	-0.0858750045	0	255	0
-0.841874957	6.90202522	-0.0858750045	0	255	0
-0.860499978	6.94295025	-0.0858750045	0	255	0
-0.841874957	6.94295025	-0.0858750045	0	255	0
-0.823249996	6.94295025	-0.102062508	0	255	0
-0.823249996	6.94295025	-0.118250005	0	255	0
-0.823249996	6.92248774	-0.102062508	0	255	0
-0.823249996	6.92248774	-0.118250005	0	255	0
-0.841874957	6.92248774	-0.118250005	0	255	0
-0.841874957	6.90202522	-0.0858750045	0	255	0
-0.841874957	6.90202522	-0.118250005	0	255	0
-0.860499978	6.90202522	-0.102062508	0	255	0
-0.841874957	6.90202522	-0.102062508	0	255	0
-0.841874957	6.90202522	-0.118250005	0	255	0
-0.841874957	6.88156271	-0.118250005	0	255	0
-0.823249996	6.88156271	-0.0858750045	0	255	0
-0.823249996	6.88156271	-0.102062508	0	255	0
-0.841874957	6.8611002	-0.0858750045	0	255	0
-0.823249996	6.8611002	-0.0858750045	0	255	0
-0.823249996	6.8611002	-0.102062508	0	255	0
-0.860499978	6.8611002	-0.102062508	0	255	0
-0.841874957	6.8611002	-0.118250005	0	255	0
-0.860499978	6.8611002	-0.118250005	0	255	0
-0.935000002	6.94295025	-0.150625005	0	255	0
-0.935000002	6.94295025	-0.134437501	0	255	0
-0.916375041	6.94295025	-0.134437501	0	255	0
-0.916375041	6.94295025	-0.150625005	0	255	0
-0.935000002	6.92248774	-0.134437501	0	255	0
-0.916375041	6.92248774	-0.134437501	0	255	0
-0.935000002	6.90202522	-0.118250005	0	255	0
-0.935000002	6.92248774	-0.150625005	0	255	0
-0.823249996	6.94295025	-0.118250005	0	255	0
-0.823249996	6.94295025	-0.134437501	0	255	0
-0.823249996	6.92248774	-0.118250005	0	255	0
-0.823249996	6.92248774	-0.134437501	0	255	0
-0.860499978	6.94295025	-0.150625005	0	255	0
-0.841874957	6.94295025	-0.150625005	0	255	0
-0.860499978	6.90202522	-0.118250005	0	255	0
-0.860499978	6.92248774	-0.150625005	0	255	0
-0.841874957	6.92248774	-0.150625005	0	255	0
-0.841874957	6.90202522	-0.118250005	0	255	0
-0.841874957	6.90202522	-0.134437501	0	255	0
-0.860499978	6.90202522	-0.134437501	0	255	0
-0.860499978	6.88156271	-0.166812509	0	255	0
-0.860499978	6.88156271	-0.182999998	0	255	0
-0.841874957	6.88156271	-0.150625005	0	255	0
-0.841874957	6.88156271	-0.166812509	0	255	0
-0.841874957	6.88156271	-0.150625005	0	255	0
-0.841874957	6.8611002	-0.182999998	0	255	0
-0.841874957	6.8611002	-0.166812509	0	255	0
-0.860499978	6.8611002	-0.166812509	0	255	0
-0.748750031	7.02479982	-0.0535000041	0	255	0
-0.748750031	7.02479982	-0.0373125039	0	255	0
-0.711500049	7.02479982	-0.0373125039	0	255	0
-0.711500049	7.02479982	-0.0535000041	0	255	0
-0.748750031	6.94295025	-0.0373125039	0	255	0
-0.711500049	6.94295025	-0.0373125039	0	255	0
-0.748750031	6.94295025	-0.0535000041	0	255	0
-0.711500049	7.02479982	0.0112499967	0	255	0
-0.711500049	7.02479982	-0.00493750349	0	255	0
-0.637000024	7.02479982	-0.00493750349	0	255	0
-0.637000024	7.02479982	-0.182999998	0	255	0
-0.711500049	6.94295025	-0.00493750349	0	255	0
-0.637000024	6.94295025	-0.00493750349	0	255	0
-0.637000024	6.94295025	0.0112499967	0	255	0
-0.711500049	6.94295025	-0.0211250037	0	255	0
-0.748750031	6.94295025	-0.0535000041	0	255	0
-0.748750031	6.94295025	-0.0373125039	0	255	0
-0.711500049	6.94295025	-0.0373125039	0	255	0
-0.786000013	6.90202522	-0.0535000041	0	255	0
-0.786000013	6.90202522	-0.0373125039	0	255	0
-0.786000013	6.8611002	-0.0373125039	0	255	0
-0.711500049	6.8611002	-0.0373125039	0	255	0
-0.711500049	6.94295025	-0.0373125039	0	255	0
-0.637000024	6.94295025	-0.0373125039	0	255	0
-0.637000024	6.94295025	-0.0535000041	0	255	0
-0.637000024	6.90202522	-0.0373125039	0	255	0
-0.637000024	6.90202522	-0.0535000041	0	255	0
-0.711500049	6.8611002	-0.0373125039	0	255	0
-0.674250007	6.8611002	-0.0373125039	0	255	0
-0.674250007	6.8611002	-0.0535000041	0	255	0
-0.804625034	6.8611002	-0.166812494	0	255	0
-0.804625034	6.8611002	-0.182999998	0	255	0
-0.786000013	6.8611002	-0.166812494	0	255	0
-0.786000013	6.84063768	-0.182999998	0	255	0
-0.786000013	6.84063768	-0.166812494	0	255	0
-0.823249996	6.84063768	-0.166812494	0	255	0
-0.823249996	6.84063768	-0.182999998	0	255	0
-0.804625034	6.84063768	-0.15062499	0	255	0
-0.804625034	6.82017517	-0.182999998	0	255	0
-0.804625034	6.82017517	-0.166812494	0	255	0
-0.823249996	6.82017517	-0.166812494	0	255	0
-0.804625034	6.79971266	-0.166812494	0	255	0
-0.804625034	6.79971266	-0.15062499	0	255	0
-0.786000013	6.79971266	-0.182999998	0	255	0
-0.786000013	6.79971266	-0.166812494	0	255	0
-0.804625034	6.77925014	-0.182999998	0	255	0
-0.786000013	6.77925014	-0.166812494	0	255	0
-0.804625034	6.77925014	-0.166812494	0	255	0
-0.804625034	6.77925014	-0.166812494	0	255	0
-0.804625034	6.77925014	-0.182999998	0	255	0
-0.786000013	6.77925014	-0.166812494	0	255	0
-0.786000013	6.75878763	-0.182999998	0	255	0
-0.786000013	6.75878763	-0.166812494	0	255	0
-0.823249996	6.75878763	-0.166812494	0	255	0
-0.823249996	6.75878763	-0.182999998	0	255	0
-0.804625034	6.75878763	-0.15062499	0	255	0
-0.804625034	6.73832512	-0.182999998	0	255	0
-0.804625034	6.73832512	-0.166812494	0	255	0
-0.823249996	6.73832512	-0.166812494	0	255	0
-0.73012507	6.84063768	0.0598124973	0	255	0
-0.73012507	6.84063768	0.0436249971	0	255	0
-0.711500049	6.84063768	0.0759999976	0	255	0
-0.711500049	6.84063768	0.0598124973	0	255	0
-0.73012507	6.82017517	0.0759999976	0	255	0
-0.711500049	6.82017517	0.0759999976	0	255	0
-0.711500049	6.82017517	0.0598124973	0	255	0
-0.73012507	6.82017517	0.0598124973	0	255	0
-0.748750031	6.8611002	0.0759999976	0	255	0
-0.748750031	6.8611002	0.0598124973	0	255	0
-0.711500049	6.8611002	0.0598124973	0	255	0
-0.711500049	6.8611002	0.0112499967	0	255	0
-0.748750031	6.82017517	0.0598124973	0	255	0
-0.711500049	6.82017517	0.0598124973	0	255	0
-0.711500049	6.82017517	0.0759999976	0	255	0
-0.748750031	6.82017517	0.0436249971	0	255	0
-0.73012507	6.79971266	0.0598124973	0	255	0
-0.73012507	6.79971266	0.0436249971	0	255	0
-0.711500049	6.79971266	0.0759999976	0	255	0
-0.711500049	6.79971266	0.0598124973	0	255	0
-0.73012507	6.77925014	0.0759999976	0	255	0
-0.711500049	6.77925014	-0.0535000041	0	255	0
-0.711500049	6.77925014	0.0598124973	0	255	0
-0.73012507	6.77925014	0.0598124973	0	255	0
-0.73012507	6.8611002	-0.0211250037	0	255	0
-0.73012507	6.8611002	-0.00493750349	0	255	0
-0.711500049	6.8611002	-0.00493750349	0	255	0
-0.711500049	6.8611002	-0.0211250037	0	255	0
-0.73012507	6.82017517	-0.00493750349	0	255	0
-0.711500049	6.82017517	-0.00493750349	0	255	0
-0.73012507	6.82017517	-0.0211250037	0	255	0
-0.748750031	6.8611002	0.0112499967	0	255	0
-0.748750031	6.8611002	-0.00493750349	0	255	0
-0.711500049	6.8611002	-0.00493750349	0	255	0
-0.711500049	6.8611002	-0.0535000041	0	255	0
-0.748750031	6.82017517	-0.00493750349	0	255	0
-0.711500049	6.82017517	-0.00493750349	0	255	0
-0.711500049	6.82017517	0.0112499967	0	255	0
-0.73012507	6.82017517	-0.0211250037	0	255	0
-0.73012507	6.82017517	-0.00493750349	0	255	0
-0.711500049	6.82017517	-0.00493750349	0	255	0
-0.73012507	6.77925014	-0.00493750349	0	255	0
-0.711500049	6.77925014	-0.00493750349	0	255	0
-0.73012507	6.77925014	-0.0211250037	0	255	0
-0.748750031	6.82017517	-0.0373125039	0	255	0
-0.73012507	6.82017517	-0.0535000041	0	255	0
-0.711500049	6.82017517	-0.0535000041	0	255	0
-0.73012507	6.79971266	-0.0535000041	0	255	0
-0.748750031	6.77925014	-0.0373125039	0	255	0
-0.73012507	6.77925014	-0.0535000041	0	255	0
-0.748750031	6.77925014	-0.0373125039	0	255	0
-0.748750031	6.77925014	-0.0535000041	0	255	0
-0.73012507	6.77925014	-0.0535000041	0	255	0
-0.73012507	6.77925014	-0.0373125039	0	255	0
-0.748750031	6.75878763	-0.0535000041	0	255	0
-0.748750031	6.75878763	-0.0373125039	0	255	0
-0.711500049	6.75878763	-0.0535000041	0	255	0
-0.711500049	6.75878763	-0.0373125039	0	255	0
-0.73012507	6.73832512	-0.0535000041	0	255	0
-0.711500049	6.73832512	-0.0535000041	0	255	0
-0.711500049	6.73832512	-0.0373125039	0	255	0
-0.73012507	6.73832512	-0.0373125039	0	255	0
-0.73012507	6.71786261	-0.0373125039	0	255	0
-0.73012507	6.71786261	-0.0211250037	0	255	0
-0.711500049	6.71786261	-0.0535000041	0	255	0
-0.711500049	6.71786261	-0.0373125039	0	255	0
-0.73012507	6.69740009	-0.0535000041	0	255	0
-0.711500049	6.69740009	0.0759999976	0	255	0
-0.711500049	6.69740009	-0.0373125039	0	255	0
-0.73012507	6.69740009	-0.0373125039	0	255	0
-0.748750031	6.77925014	-0.0211250037	0	255	0
-0.748750031	6.77925014	-0.00493750349	0	255	0
-0.748750031	6.75878763	-0.00493750349	0	255	0
-0.748750031	6.75878763	-0.0211250037	0	255	0
-0.711500049	6.77925014	-0.00493750349	0	255	0
-0.711500049	6.77925014	-0.0211250037	0	255	0
-0.73012507	6.73832512	-0.00493750349	0	255	0
-0.711500049	6.73832512	-0.00493750349	0	255	0
-0.73012507	6.73832512	-0.0211250037	0	255	0
-0.748750031	6.77925014	0.0112499967	0	255	0
-0.748750031	6.77925014	-0.00493750349	0	255	0
-0.711500049	6.77925014	-0.00493750349	0	255	0
-0.748750031	6.73832512	-0.00493750349	0	255	0
-0.711500049	6.73832512	-0.00493750349	0	255	0
-0.711500049	6.73832512	0.0112499967	0	255	0
-0.748750031	6.73832512	-0.0211250037	0	255	0
-0.73012507	6.73832512	-0.0211250037	0	255	0
-0.73012507	6.73832512	-0.00493750349	0	255	0
-0.711500049	6.73832512	-0.00493750349	0	255	0
-0.73012507	6.69740009	-0.00493750349	0	255	0
-0.711500049	6.69740009	-0.00493750349	0	255	0
-0.73012507	6.69740009	-0.0211250037	0	255	0
-0.73012507	6.73832512	-0.0211250037	0	255	0
-0.73012507	6.73832512	-0.0535000041	0	255	0
-0.711500049	6.73832512	-0.0535000041	0	255	0
-0.73012507	6.69740009	-0.0211250037	0	255	0
-0.711500049	6.69740009	-0.0535000041	0	255	0
-0.73012507	6.69740009	-0.0535000041	0	255	0
-0.89775002	6.8611002	-0.0535000041	0	255	0
-0.89775002	6.8611002	-0.0696875006	0	255	0
-0.860499978	6.8611002	-0.0696875006	0	255	0
-0.89775002	6.82017517	-0.0696875006	0	255	0
-0.860499978	6.82017517	-0.0696875006	0	255	0
-0.860499978	6.82017517	-0.0535000041	0	255	0
-0.89775002	6.82017517	-0.0858750045	0	255	0
-0.879124999	6.79971266	-0.118250005	0	255	0
-0.860499978	6.79971266	-0.0858750045	0	255	0
-0.879124999	6.77925014	-0.0858750045	0	255	0
-0.860499978	6.77925014	-0.0858750045	0	255	0
-0.89775002	6.77925014	-0.0858750045	0	255	0
-0.860499978	6.79971266	-0.118250005	0	255	0
-0.879124999	6.77925014	-0.118250005	0	255	0
-0.860499978	6.8611002	-0.0858750045	0	255	0
-0.841874957	6.8611002	-0.0858750045	0	255	0
-0.860499978	6.84063768	-0.0858750045	0	255	0
-0.841874957	6.84063768	-0.118250005	0	255	0
-0.841874957	6.8611002	-0.118250005	0	255	0
-0.860499978	6.82017517	-0.0858750045	0	255	0
-0.860499978	6.84063768	-0.118250005	0	255	0
-0.860499978	6.79971266	-0.102062508	0	255	0
-0.860499978	6.79971266	-0.118250005	0	255	0
-0.841874957	6.79971266	-0.0858750045	0	255	0
-0.841874957	6.79971266	-0.102062508	0	255	0
-0.841874957	6.79971266	-0.0858750045	0	255	0
-0.841874957	6.77925014	-0.118250005	0	255	0
-0.841874957	6.77925014	-0.102062508	0	255	0
-0.860499978	6.77925014	-0.102062508	0	255	0
-0.841874957	6.79971266	-0.118250005	0	255	0
-0.823249996	6.79971266	-0.0858750045	0	255	0
-0.823249996	6.79971266	-0.102062508	0	255	0
-0.841874957	6.77925014	-0.0858750045	0	255	0
-0.823249996	6.77925014	-0.0858750045	0	255	0
-0.823249996	6.77925014	-0.102062508	0	255	0
-0.860499978	6.79971266	-0.118250005	0	255	0
-0.860499978	6.79971266	-0.102062508	0	255	0
-0.860499978	6.77925014	-0.0858750045	0	255	0
-0.860499978	6.77925014	-0.102062508	0	255	0
-0.841874957	6.77925014	-0.118250005	0	255	0
-0.935000002	6.8611002	-0.150625005	0	255	0
-0.935000002	6.8611002	-0.134437501	0	255	0
-0.916375041	6.8611002	-0.134437501	0	255	0
-0.916375041	6.8611002	-0.150625005	0	255	0
-0.935000002	6.84063768	-0.134437501	0	255	0
-0.916375041	6.84063768	-0.134437501	0	255	0
-0.935000002	6.82017517	-0.118250005	0	255	0
-0.935000002	6.84063768	-0.150625005	0	255	0
-0.860499978	6.8611002	-0.0535000041	0	255	0
-0.860499978	6.8611002	-0.102062508	0	255	0
-0.823249996	6.8611002	-0.102062508	0	255	0
-0.823249996	6.8611002	-0.118250005	0	255	0
-0.860499978	6.82017517	-0.102062508	0	255	0
-0.823249996	6.82017517	-0.102062508	0	255	0
-0.860499978	6.77925014	-0.0858750045	0	255	0
-0.860499978	6.82017517	-0.118250005	0	255	0
-0.879124999	6.77925014	-0.166812509	0	255	0
-0.879124999	6.77925014	-0.182999998	0	255	0
-0.860499978	6.77925014	-0.182999998	0	255	0
-0.860499978	6.77925014	-0.166812509	0	255	0
-0.879124999	6.75878763	-0.150625005	0	255	0
-0.860499978	6.75878763	-0.182999998	0	255	0
-0.860499978	6.75878763	-0.166812509	0	255	0
-0.879124999	6.75878763	-0.166812509	0	255	0
-0.860499978	6.77925014	-0.0858750045	0	255	0
-0.841874957	6.77925014	-0.0858750045	0	255	0
-0.860499978	6.75878763	-0.0858750045	0	255	0
-0.841874957	6.75878763	-0.118250005	0	255	0
-0.860499978	6.75878763	-0.118250005	0	255	0
-0.823249996	6.77925014	-0.102062508	0	255	0
-0.823249996	6.77925014	-0.118250005	0	255	0
-0.823249996	6.75878763	-0.102062508	0	255	0
-0.823249996	6.75878763	-0.118250005	0	255	0
-0.767374992	6.84063768	-0.102062508	0	255	0
-0.767374992	6.84063768	-0.118250005	0	255	0
-0.748750031	6.84063768	-0.0858750045	0	255	0
-0.748750031	6.84063768	-0.102062508	0	255	0
-0.767374992	6.82017517	-0.0858750045	0	255	0
-0.748750031	6.82017517	-0.102062508	0	255	0
-0.767374992	6.82017517	-0.102062508	0	255	0
-0.748750031	6.8611002	-0.0535000041	0	255	0
-0.748750031	6.8611002	-0.0696875006	0	255	0
-0.711500049	6.8611002	-0.0696875006	0	255	0
-0.711500049	6.8611002	-0.118250005	0	255	0
-0.748750031	6.82017517	-0.0696875006	0	255	0
-0.711500049	6.82017517	-0.0696875006	0	255	0
-0.711500049	6.82017517	-0.0535000041	0	255	0
-0.73012507	6.82017517	-0.118250005	0	255	0
-0.73012507	6.82017517	-0.102062508	0	255	0
-0.711500049	6.82017517	-0.102062508	0	255	0
-0.711500049	6.82017517	-0.118250005	0	255	0
-0.711500049	6.79971266	-0.102062508	0	255	0
-0.711500049	6.79971266	-0.118250005	0	255	0
-0.748750031	6.77925014	-0.0858750045	0	255	0
-0.748750031	6.79971266	-0.102062508	0	255	0
-0.748750031	6.79971266	-0.0858750045	0	255	0
-0.73012507	6.79971266	-0.118250005	0	255	0
-0.73012507	6.79971266	-0.118250005	0	255	0
-0.73012507	6.77925014	-0.0858750045	0	255	0
-0.73012507	6.77925014	-0.102062508	0	255	0
-0.748750031	6.77925014	-0.102062508	0	255	0
-0.655624986	6.79971266	-0.102062508	0	255	0
-0.655624986	6.79971266	-0.118250005	0	255	0
-0.637000024	6.79971266	-0.0858750045	0	255	0
-0.637000024	6.79971266	-0.102062508	0	255	0
-0.655624986	6.77925014	-0.0858750045	0	255	0
-0.637000024	6.77925014	-0.0858750045	0	255	0
-0.637000024	6.77925014	-0.102062508	0	255	0
-0.655624986	6.77925014	-0.102062508	0	255	0
-0.748750031	6.77925014	-0.166812509	0	255	0
-0.748750031	6.77925014	-0.182999998	0	255	0
-0.711500049	6.77925014	-0.182999998	0	255	0
-0.711500049	6.77925014	-0.166812509	0	255	0
-0.711500049	6.75878763	-0.182999998	0	255	0
-0.711500049	6.75878763	-0.166812509	0	255	0
-0.73012507	6.75878763	-0.150625005	0	255	0
-0.73012507	6.73832512	-0.182999998	0	255	0
-0.73012507	6.73832512	-0.166812509	0	255	0
-0.748750031	6.73832512	-0.166812509	0	255	0
-0.748750031	6.73832512	-0.166812509	0	255	0
-0.748750031	6.73832512	-0.118250005	0	255	0
-0.711500049	6.73832512	-0.182999998	0	255	0
-0.711500049	6.73832512	-0.166812509	0	255	0
-0.73012507	6.71786261	-0.150625005	0	255	0
-0.748750031	6.69740009	-0.166812509	0	255	0
-0.711500049	6.69740009	-0.0535000041	0	255	0
-0.711500049	6.69740009	-0.166812509	0	255	0
-0.655624986	6.77925014	-0.0858750045	0	255	0
-0.655624986	6.77925014	-0.0696875006	0	255	0
-0.637000024	6.77925014	-0.0696875006	0	255	0
-0.637000024	6.77925014	-0.0858750045	0	255	0
-0.655624986	6.75878763	-0.0696875006	0	255	0
-0.637000024	6.75878763	-0.0696875006	0	255	0
-0.637000024	6.75878763	-0.0858750045	0	255	0
-0.674250007	6.73832512	-0.118250005	0	255	0
-0.674250007	6.77925014	-0.0535000041	0	255	0
-0.674250007	6.77925014	-0.0696875006	0	255	0
-0.637000024	6.77925014	-0.0696875006	0	255	0
-0.637000024	6.77925014	-0.118250005	0	255	0
-0.674250007	6.73832512	-0.0696875006	0	255	0
-0.637000024	6.73832512	-0.0696875006	0	255	0
-0.637000024	6.73832512	-0.0535000041	0	255	0
-0.674250007	6.73832512	-0.0858750045	0	255	0
-0.674250007	6.69740009	-0.0535000041	0	255	0
-0.655624986	6.71786261	-0.0696875006	0	255	0
-0.637000024	6.71786261	-0.0696875006	0	255	0
-0.637000024	6.71786261	-0.0858750045	0	255	0
-0.655624986	6.69740009	-0.0696875006	0	255	0
-0.637000024	6.69740009	-0.0696875006	0	255	0
-0.637000024	6.69740009	-0.0858750045	0	255	0
-0.655624986	6.69740009	-0.0858750045	0	255	0
-0.711500049	6.75878763	-0.166812509	0	255	0
-0.711500049	6.75878763	-0.150625005	0	255	0
-0.692875028	6.75878763	-0.182999998	0	255	0
-0.711500049	6.73832512	-0.166812509	0	255	0
-0.674250007	6.75878763	-0.150625005	0	255	0
-0.711500049	6.73832512	-0.150625005	0	255	0
-0.674250007	6.75878763	-0.182999998	0	255	0
-0.692875028	6.73832512	-0.182999998	0	255	0
-0.692875028	6.73832512	-0.150625005	0	255	0
-0.692875028	6.71786261	-0.182999998	0	255	0
-0.674250007	6.71786261	-0.150625005	0	255	0
-0.692875028	6.73832512	-0.182999998	0	255	0
-0.674250007	6.71786261	-0.182999998	0	255	0
-0.711500049	6.69740009	-0.150625005	0	255	0
