-12.7492495	6.90509987	0.0731250048	0	255	0
-12.7492495	6.90509987	0.101000004	0	255	0
-12.7369995	6.90509987	0.101000004	0	255	0
-12.7369995	6.90509987	0.0731250048	0	255	0
-12.743124	6.90441227	0.0452500023	0	255	0
-12.7492495	6.90372467	0.0731250048	0	255	0
-12.7369995	6.90372467	0.101000004	0	255	0
-12.7369995	6.90372467	0.0731250048	0	255	0
-12.7553749	6.90372467	0.0173750017	0	255	0
-12.7553749	6.90372467	-0.0104999989	0	255	0
-12.7492495	6.90372467	0.0173750017	0	255	0
-12.7553749	6.90303707	0.0452500023	0	255	0
-12.7492495	6.90303707	-0.0104999989	0	255	0
-12.7492495	6.90303707	0.0173750017	0	255	0
-12.7553749	6.90303707	0.0173750017	0	255	0
-12.7492495	6.90372467	0.0731250048	0	255	0
-12.743124	6.90372467	0.101000004	0	255	0
-12.743124	6.90372467	0.0731250048	0	255	0
-12.7492495	6.90303707	0.101000004	0	255	0
-12.743124	6.90303707	0.0452500023	0	255	0
-12.743124	6.90303707	0.0731250048	0	255	0
-12.7492495	6.90303707	0.0731250048	0	255	0
-12.7676249	6.90028763	-0.0941250026	0	255	0
-12.7676249	6.90028763	-0.0662499964	0	255	0
-12.7614994	6.90028763	-0.122000001	0	255	0
-12.7614994	6.90028763	-0.0941250026	0	255	0
-12.7676249	6.89960003	-0.122000001	0	255	0
-12.7614994	6.89960003	0.101000004	0	255	0
-12.7614994	6.89960003	-0.0941250026	0	255	0
-12.7676249	6.89960003	-0.0941250026	0	255	0
-12.7553749	6.90234995	0.0731250048	0	255	0
-12.7553749	6.90234995	0.101000004	0	255	0
-12.7492495	6.90234995	0.101000004	0	255	0
-12.7492495	6.90234995	0.0731250048	0	255	0
-12.7553749	6.90097523	0.101000004	0	255	0
-12.7492495	6.90097523	-0.0104999989	0	255	0
-12.7492495	6.90097523	0.0731250048	0	255	0
-12.7553749	6.90097523	0.0731250048	0	255	0
-12.7492495	6.90234995	0.101000004	0	255	0
-12.7492495	6.90234995	0.0731250048	0	255	0
-12.7369995	6.90234995	0.0731250048	0	255	0
-12.7369995	6.90234995	-0.0104999989	0	255	0
-12.7492495	6.90097523	0.0731250048	0	255	0
-12.7369995	6.90097523	0.0731250048	0	255	0
-12.7369995	6.90097523	0.101000004	0	255	0
-12.7553749	6.90097523	0.0173750017	0	255	0
-12.7553749	6.90097523	0.0452500023	0	255	0
-12.7492495	6.90097523	0.0173750017	0	255	0
-12.7553749	6.89960003	0.0452500023	0	255	0
-12.7492495	6.89960003	0.0173750017	0	255	0
-12.7553749	6.89960003	0.0173750017	0	255	0
-12.7492495	6.90097523	0.0173750017	0	255	0
-12.7369995	6.90097523	0.0452500023	0	255	0
-12.743124	6.90097523	-0.0104999989	0	255	0
-12.7369995	6.90097523	-0.0104999989	0	255	0
-12.743124	6.90028763	-0.0104999989	0	255	0
-12.7369995	6.89960003	0.0452500023	0	255	0
-12.7492495	6.90028763	-0.0104999989	0	255	0
-12.7492495	6.89960003	-0.0104999989	0	255	0
-12.743124	6.90097523	-0.0383749977	0	255	0
-12.743124	6.90097523	-0.0104999989	0	255	0
-12.7369995	6.90097523	-0.0104999989	0	255	0
-12.7369995	6.90097523	-0.0383749977	0	255	0
-12.743124	6.89960003	-0.0104999989	0	255	0
-12.7369995	6.89960003	-0.0383749977	0	255	0
-12.743124	6.89960003	-0.0383749977	0	255	0
-12.743124	6.90097523	-0.122000001	0	255	0
-12.743124	6.90097523	-0.0941250026	0	255	0
-12.7369995	6.90097523	-0.0941250026	0	255	0
-12.7369995	6.90097523	-0.122000001	0	255	0
-12.7492495	6.90028763	-0.0662499964	0	255	0
-12.743124	6.90028763	-0.122000001	0	255	0
-12.7369995	6.90028763	-0.0662499964	0	255	0
-12.7369995	6.89960003	-0.0662499964	0	255	0
-12.7492495	6.90028763	-0.122000001	0	255	0
-12.7492495	6.89960003	-0.122000001	0	255	0
-12.730875	6.90509987	0.0731250048	0	255	0
-12.730875	6.90509987	0.101000004	0	255	0
-12.7247496	6.90509987	0.101000004	0	255	0
-12.7247496	6.90509987	0.0731250048	0	255	0
-12.730875	6.90441227	0.0452500023	0	255	0
-12.7247496	6.90441227	0.101000004	0	255	0
-12.7369995	6.90372467	0.101000004	0	255	0
-12.7247496	6.90441227	0.0452500023	0	255	0
-12.730875	6.90372467	0.0731250048	0	255	0
-12.7247496	6.90372467	0.0731250048	0	255	0
-12.730875	6.90372467	0.0452500023	0	255	0
-12.7247496	6.90509987	0.0452500023	0	255	0
-12.7247496	6.90509987	0.0731250048	0	255	0
-12.7247496	6.90441227	0.0452500023	0	255	0
-12.7124996	6.90509987	0.0731250048	0	255	0
-12.7124996	6.90509987	0.0452500023	0	255	0
-12.7247496	6.90441227	0.101000004	0	255	0
-12.7186241	6.90441227	0.0452500023	0	255	0
-12.7186241	6.90441227	0.0452500023	0	255	0
-12.7186241	6.90372467	0.101000004	0	255	0
-12.7247496	6.90372467	0.0731250048	0	255	0
-12.7124996	6.90372467	0.0731250048	0	255	0
-12.7186241	6.90372467	0.0452500023	0	255	0
-12.7247496	6.90509987	0.101000004	0	255	0
-12.7247496	6.90509987	0.0731250048	0	255	0
-12.7124996	6.90509987	0.0731250048	0	255	0
-12.7247496	6.90372467	0.0731250048	0	255	0
-12.7124996	6.90372467	0.0731250048	0	255	0
-12.7124996	6.90372467	0.101000004	0	255	0
-12.730875	6.90372467	0.0173750017	0	255	0
-12.730875	6.90372467	-0.0104999989	0	255	0
-12.7247496	6.90372467	0.0173750017	0	255	0
-12.730875	6.90303707	0.0452500023	0	255	0
-12.7247496	6.90303707	-0.0104999989	0	255	0
-12.7247496	6.90303707	0.0173750017	0	255	0
-12.730875	6.90303707	0.0173750017	0	255	0
-12.7369995	6.90372467	0.0173750017	0	255	0
-12.7369995	6.90372467	0.0452500023	0	255	0
-12.7247496	6.90372467	0.0173750017	0	255	0
-12.730875	6.90303707	-0.0104999989	0	255	0
-12.7369995	6.90234995	0.0173750017	0	255	0
-12.7369995	6.90234995	0.0452500023	0	255	0
-12.7247496	6.90303707	-0.0104999989	0	255	0
-12.730875	6.90234995	-0.0104999989	0	255	0
-12.7247496	6.90372467	0.0173750017	0	255	0
-12.7186241	6.90372467	-0.0104999989	0	255	0
-12.7124996	6.90372467	-0.0104999989	0	255	0
-12.7186241	6.90303707	-0.0104999989	0	255	0
-12.7124996	6.90234995	0.0452500023	0	255	0
-12.7247496	6.90303707	-0.0104999989	0	255	0
-12.7124996	6.90509987	0.0452500023	0	255	0
-12.7124996	6.90509987	0.0731250048	0	255	0
-12.7063751	6.90509987	0.0731250048	0	255	0
-12.7063751	6.90509987	0.0452500023	0	255	0
-12.7124996	6.90441227	0.101000004	0	255	0
-12.7063751	6.90441227	0.0452500023	0	255	0
-12.7063751	6.90441227	0.0452500023	0	255	0
-12.7063751	6.90372467	0.101000004	0	255	0
-12.7002497	6.90441227	0.0731250048	0	255	0
-12.7002497	6.90441227	0.0452500023	0	255	0
-12.7002497	6.90372467	0.0731250048	0	255	0
-12.6941242	6.90509987	0.0452500023	0	255	0
-12.6941242	6.90509987	0.0731250048	0	255	0
-12.6879997	6.90509987	0.0731250048	0	255	0
-12.6941242	6.90441227	0.0731250048	0	255	0
-12.6879997	6.90441227	0.0731250048	0	255	0
-12.6879997	6.90441227	0.0452500023	0	255	0
-12.7002497	6.90372467	-0.0104999989	0	255	0
-12.7063751	6.90509987	0.0452500023	0	255	0
-12.7002497	6.90509987	0.0452500023	0	255	0
-12.7124996	6.90509987	0.0173750017	0	255	0
-12.7002497	6.90509987	-0.0104999989	0	255	0
-12.7124996	6.90441227	0.0452500023	0	255	0
-12.7063751	6.90441227	-0.0104999989	0	255	0
-12.7002497	6.90509987	-0.0383750014	0	255	0
-12.7002497	6.90509987	0.0452500023	0	255	0
-12.6879997	6.90509987	-0.0383750014	0	255	0
-12.7002497	6.90372467	-0.122000001	0	255	0
-12.6879997	6.90372467	0.0452500023	0	255	0
-12.6879997	6.90372467	-0.0383750014	0	255	0
-12.7002497	6.90372467	-0.0383750014	0	255	0
-12.7124996	6.90372467	0.0173750017	0	255	0
-12.7063751	6.90372467	-0.0104999989	0	255	0
-12.7063751	6.90372467	0.0173750017	0	255	0
-12.7124996	6.90303707	-0.0104999989	0	255	0
-12.7063751	6.90303707	0.0452500023	0	255	0
-12.7063751	6.90303707	0.0173750017	0	255	0
-12.7124996	6.90303707	0.0173750017	0	255	0
-12.7002497	6.90372467	0.0173750017	0	255	0
-12.7063751	6.90372467	-0.0104999989	0	255	0
-12.7063751	6.90303707	-0.0104999989	0	255	0
-12.7002497	6.90234995	0.0452500023	0	255	0
-12.7002497	6.90234995	0.0173750017	0	255	0
-12.7063751	6.90234995	-0.0104999989	0	255	0
-12.7186241	6.90509987	-0.0383749977	0	255	0
-12.7186241	6.90509987	-0.0104999989	0	255	0
-12.7124996	6.90509987	-0.0383749977	0	255	0
-12.7186241	6.90372467	-0.0104999989	0	255	0
-12.7124996	6.90441227	-0.0662499964	0	255	0
-12.7186241	6.90372467	-0.0662499964	0	255	0
-12.730875	6.90509987	-0.122000001	0	255	0
-12.730875	6.90509987	-0.0941250026	0	255	0
-12.7247496	6.90509987	-0.0941250026	0	255	0
-12.7247496	6.90509987	-0.122000001	0	255	0
-12.730875	6.90441227	-0.0941250026	0	255	0
-12.7247496	6.90441227	-0.0941250026	0	255	0
-12.7247496	6.90441227	-0.122000001	0	255	0
-12.7369995	6.90372467	-0.0662499964	0	255	0
-12.7247496	6.90509987	-0.0104999989	0	255	0
-12.7247496	6.90509987	-0.0383749977	0	255	0
-12.7124996	6.90509987	-0.0383749977	0	255	0
-12.7124996	6.90509987	-0.122000001	0	255	0
-12.7247496	6.90372467	-0.0383749977	0	255	0
-12.7124996	6.90372467	-0.0383749977	0	255	0
-12.7124996	6.90372467	-0.0104999989	0	255	0
-12.7247496	6.90372467	-0.0383749977	0	255	0
-12.7124996	6.90372467	-0.0383749977	0	255	0
-12.7186241	6.90303707	-0.0662499964	0	255	0
-12.7247496	6.90234995	-0.0383749977	0	255	0
-12.7124996	6.90234995	-0.0383749977	0	255	0
-12.7369995	6.90234995	-0.0662499964	0	255	0
-12.730875	6.90303707	-0.0941250026	0	255	0
-12.7247496	6.90303707	-0.0941250026	0	255	0
-12.7247496	6.90303707	-0.122000001	0	255	0
-12.730875	6.90234995	-0.0941250026	0	255	0
-12.7247496	6.90234995	-0.0941250026	0	255	0
-12.730875	6.90234995	-0.122000001	0	255	0
-12.7247496	6.90372467	-0.0941250026	0	255	0
-12.7186241	6.90372467	-0.122000001	0	255	0
-12.7124996	6.90372467	-0.122000001	0	255	0
-12.7124996	6.90303707	-0.122000001	0	255	0
-12.7186241	6.90303707	-0.122000001	0	255	0
-12.7124996	6.90234995	-0.0662499964	0	255	0
-12.7124996	6.90234995	-0.0941250026	0	255	0
-12.7247496	6.90303707	-0.122000001	0	255	0
-12.7186241	6.90234995	-0.122000001	0	255	0
-12.7124996	6.90509987	-0.0104999989	0	255	0
-12.6879997	6.90509987	-0.0104999989	0	255	0
-12.6879997	6.90509987	-0.0941250026	0	255	0
-12.6879997	6.90372467	-0.0104999989	0	255	0
-12.6879997	6.90372467	-0.0941250026	0	255	0
-12.7124996	6.90509987	-0.177750006	0	255	0
-12.7002497	6.90509987	-0.177750006	0	255	0
-12.7002497	6.90372467	-0.177750006	0	255	0
-12.7002497	6.90234995	-0.0104999989	0	255	0
-12.7002497	6.90234995	-0.177750006	0	255	0
-12.7124996	6.90234995	-0.177750006	0	255	0
-12.7369995	6.90234995	-0.0941250026	0	255	0
-12.7369995	6.90234995	0.101000004	0	255	0
-12.7247496	6.90234995	-0.0941250026	0	255	0
-12.730875	6.90166283	-0.0662499964	0	255	0
-12.7369995	6.90097523	-0.0941250026	0	255	0
-12.7247496	6.90097523	-0.0941250026	0	255	0
-12.7247496	6.90234995	-0.0941250026	0	255	0
-12.7124996	6.90234995	-0.0941250026	0	255	0
-12.7186241	6.90166283	-0.0662499964	0	255	0
-12.7247496	6.90097523	-0.0941250026	0	255	0
-12.7124996	6.90097523	-0.0941250026	0	255	0
-12.7369995	6.90097523	-0.0383749977	0	255	0
-12.7369995	6.90097523	-0.122000001	0	255	0
-12.7247496	6.90097523	-0.0383749977	0	255	0
-12.730875	6.90028763	-0.0662499964	0	255	0
-12.7369995	6.89960003	-0.0383749977	0	255	0
-12.7247496	6.89960003	-0.122000001	0	255	0
-12.7247496	6.89960003	-0.0383749977	0	255	0
-12.7247496	6.90097523	-0.0941250026	0	255	0
-12.7247496	6.90028763	-0.122000001	0	255	0
-12.7247496	6.90028763	-0.0941250026	0	255	0
-12.7124996	6.90097523	-0.0941250026	0	255	0
-12.7124996	6.90028763	-0.122000001	0	255	0
-12.7124996	6.90028763	-0.0941250026	0	255	0
-12.7124996	6.90234995	0.0173750017	0	255	0
-12.7124996	6.90234995	0.0452500023	0	255	0
-12.7063751	6.90234995	0.0452500023	0	255	0
-12.7063751	6.90234995	0.0173750017	0	255	0
-12.7063751	6.90166283	-0.0104999989	0	255	0
-12.7063751	6.90097523	0.0452500023	0	255	0
-12.7063751	6.90097523	0.0173750017	0	255	0
-12.7124996	6.90097523	0.0173750017	0	255	0
-12.730875	6.90234995	-0.0383749977	0	255	0
-12.730875	6.90234995	-0.0104999989	0	255	0
-12.7247496	6.90234995	-0.0383749977	0	255	0
-12.730875	6.90097523	-0.0104999989	0	255	0
-12.7247496	6.90097523	-0.0383749977	0	255	0
-12.730875	6.90097523	-0.0383749977	0	255	0
-12.7247496	6.90234995	-0.0383749977	0	255	0
-12.7124996	6.90234995	-0.0383749977	0	255	0
-12.7186241	6.90166283	-0.0662499964	0	255	0
-12.7247496	6.90097523	-0.0383749977	0	255	0
-12.7124996	6.90097523	-0.0104999989	0	255	0
-12.7124996	6.90166283	-0.0662499964	0	255	0
-12.7186241	6.90097523	-0.0662499964	0	255	0
-12.730875	6.90234995	-0.122000001	0	255	0
-12.730875	6.90234995	-0.0941250026	0	255	0
-12.7247496	6.90234995	-0.0941250026	0	255	0
-12.7247496	6.90234995	-0.122000001	0	255	0
-12.730875	6.90166283	-0.122000001	0	255	0
-12.7247496	6.90166283	-0.0662499964	0	255	0
-12.730875	6.90097523	-0.0662499964	0	255	0
-12.7369995	6.90166283	-0.122000001	0	255	0
-12.7369995	6.90166283	-0.0941250026	0	255	0
-12.7369995	6.90097523	-0.0941250026	0	255	0
-12.7247496	6.90234995	-0.0104999989	0	255	0
-12.7247496	6.90234995	-0.0383749977	0	255	0
-12.7124996	6.90234995	-0.0383749977	0	255	0
-12.7247496	6.90097523	-0.0383749977	0	255	0
-12.7124996	6.90097523	-0.0383749977	0	255	0
-12.7124996	6.90097523	-0.0104999989	0	255	0
-12.7369995	6.90097523	-0.0941250026	0	255	0
-12.7369995	6.90097523	-0.0104999989	0	255	0
-12.7247496	6.90097523	-0.0941250026	0	255	0
-12.730875	6.90028763	-0.0662499964	0	255	0
-12.7369995	6.89960003	-0.0941250026	0	255	0
-12.7247496	6.89960003	-0.0104999989	0	255	0
-12.7247496	6.89960003	-0.0941250026	0	255	0
-12.7247496	6.90097523	-0.0383749977	0	255	0
-12.7186241	6.90097523	-0.0104999989	0	255	0
-12.7186241	6.90097523	-0.0383749977	0	255	0
-12.7247496	6.90028763	-0.0104999989	0	255	0
-12.7186241	6.90028763	-0.0662499964	0	255	0
-12.7186241	6.90028763	-0.0383749977	0	255	0
-12.7247496	6.90028763	-0.0383749977	0	255	0
-12.7247496	6.90028763	-0.122000001	0	255	0
-12.730875	6.90028763	-0.122000001	0	255	0
-12.7247496	6.89960003	-0.0941250026	0	255	0
-12.730875	6.89960003	-0.122000001	0	255	0
-12.7124996	6.90097523	-0.0941250026	0	255	0
-12.7124996	6.90028763	-0.0662499964	0	255	0
-12.7124996	6.90028763	-0.0941250026	0	255	0
-12.7186241	6.90097523	-0.122000001	0	255	0
-12.7247496	6.90028763	-0.122000001	0	255	0
-12.7186241	6.90028763	-0.122000001	0	255	0
-12.7186241	6.89960003	-0.0662499964	0	255	0
-12.7186241	6.89960003	-0.0941250026	0	255	0
-12.7247496	6.89960003	-0.0941250026	0	255	0
-12.7124996	6.90097523	-0.0104999989	0	255	0
-12.7063751	6.90166283	-0.0383749977	0	255	0
-12.7002497	6.90166283	-0.0383749977	0	255	0
-12.7002497	6.90166283	-0.0662499964	0	255	0
-12.7063751	6.90097523	-0.0383749977	0	255	0
-12.7002497	6.90097523	-0.0383749977	0	255	0
-12.7002497	6.90097523	-0.0662499964	0	255	0
-12.7063751	6.90097523	-0.0662499964	0	255	0
-12.7124996	6.90234995	-0.0941250026	0	255	0
-12.7124996	6.90234995	-0.0662499964	0	255	0
-12.7002497	6.90234995	-0.0662499964	0	255	0
-12.7002497	6.90234995	-0.0941250026	0	255	0
-12.7002497	6.90166283	-0.0662499964	0	255	0
-12.7002497	6.90166283	-0.0941250026	0	255	0
-12.7063751	6.90166283	-0.122000001	0	255	0
-12.7063751	6.90097523	-0.0662499964	0	255	0
-12.7063751	6.90097523	-0.0941250026	0	255	0
-12.7124996	6.90097523	-0.0941250026	0	255	0
-12.743124	6.90234995	-0.149875	0	255	0
-12.743124	6.90234995	-0.122000001	0	255	0
-12.7369995	6.90234995	-0.122000001	0	255	0
-12.7369995	6.90234995	-0.149875	0	255	0
-12.743124	6.90166283	-0.177750006	0	255	0
-12.7369995	6.90166283	-0.122000001	0	255	0
-12.7369995	6.90166283	-0.149875	0	255	0
-12.743124	6.90166283	-0.149875	0	255	0
-12.743124	6.90097523	-0.149875	0	255	0
-12.743124	6.90097523	-0.122000001	0	255	0
-12.7369995	6.90097523	-0.122000001	0	255	0
-12.7369995	6.90097523	-0.149875	0	255	0
-12.7492495	6.90028763	-0.149875	0	255	0
-12.7492495	6.90028763	-0.122000001	0	255	0
-12.743124	6.90028763	-0.177750006	0	255	0
-12.7492495	6.89960003	-0.149875	0	255	0
-12.7369995	6.89960003	-0.149875	0	255	0
-12.7247496	6.90509987	-0.122000001	0	255	0
-12.7247496	6.90509987	-0.0941250026	0	255	0
-12.7124996	6.90509987	-0.0941250026	0	255	0
-12.7124996	6.90509987	-0.122000001	0	255	0
-12.7369995	6.90372467	-0.122000001	0	255	0
-12.7369995	6.90372467	-0.0941250026	0	255	0
-12.7369995	6.90234995	-0.0941250026	0	255	0
-12.7124996	6.90234995	-0.0941250026	0	255	0
-12.7124996	6.90509987	-0.0104999989	0	255	0
-12.7124996	6.90509987	-0.0383749977	0	255	0
-12.6879997	6.90509987	-0.0383749977	0	255	0
-12.6879997	6.90509987	-0.344999999	0	255	0
-12.7124996	6.90234995	-0.0383749977	0	255	0
-12.6879997	6.90234995	-0.0383749977	0	255	0
-12.6879997	6.90234995	-0.0104999989	0	255	0
-12.7124996	6.90234995	-0.0662499964	0	255	0
-12.7369995	6.90234995	-0.0941250026	0	255	0
-12.7124996	6.90234995	-0.0941250026	0	255	0
-12.7369995	6.89960003	-0.0941250026	0	255	0
-12.7124996	6.89960003	-0.0941250026	0	255	0
-12.7124996	6.89960003	-0.122000001	0	255	0
-12.7737503	6.89960003	-0.317125022	0	255	0
-12.7737503	6.89960003	-0.344999999	0	255	0
-12.7614994	6.89960003	-0.317125022	0	255	0
-12.7614994	6.89891243	-0.344999999	0	255	0
-12.7614994	6.89891243	-0.317125022	0	255	0
-12.7676249	6.89891243	-0.289250016	0	255	0
-12.7676249	6.89822483	-0.344999999	0	255	0
-12.7676249	6.89822483	-0.317125022	0	255	0
-12.7737503	6.89822483	-0.317125022	0	255	0
-12.7860003	6.89753723	-0.26137501	0	255	0
-12.7860003	6.89753723	-0.233500004	0	255	0
-12.7798748	6.89753723	-0.289250016	0	255	0
-12.7798748	6.89753723	-0.26137501	0	255	0
-12.7798748	6.89753723	-0.289250016	0	255	0
-12.7798748	6.89684963	-0.233500004	0	255	0
-12.7798748	6.89684963	-0.26137501	0	255	0
-12.7860003	6.89684963	-0.26137501	0	255	0
-12.7676249	6.89822483	-0.317125022	0	255	0
-12.7676249	6.89822483	-0.344999999	0	255	0
-12.7614994	6.89822483	-0.344999999	0	255	0
-12.7614994	6.89822483	-0.317125022	0	255	0
-12.7737503	6.89753723	-0.317125022	0	255	0
-12.7737503	6.89753723	-0.344999999	0	255	0
-12.7676249	6.89753723	-0.289250016	0	255	0
-12.7737503	6.89684963	-0.317125022	0	255	0
-12.7614994	6.89684963	-0.317125022	0	255	0
-12.7614994	6.89960003	-0.317125022	0	255	0
-12.7492495	6.89960003	-0.317125022	0	255	0
-12.7553749	6.89891243	-0.289250016	0	255	0
-12.7614994	6.89822483	-0.317125022	0	255	0
-12.7492495	6.89822483	-0.317125022	0	255	0
-12.7492495	6.89960003	-0.317125022	0	255	0
-12.7369995	6.89960003	-0.317125022	0	255	0
-12.743124	6.89891243	-0.289250016	0	255	0
-12.7492495	6.89822483	-0.317125022	0	255	0
-12.7369995	6.89822483	-0.317125022	0	255	0
-12.7614994	6.89822483	-0.26137501	0	255	0
-12.7614994	6.89822483	-0.344999999	0	255	0
-12.7492495	6.89822483	-0.26137501	0	255	0
-12.7553749	6.89753723	-0.289250016	0	255	0
-12.7614994	6.89684963	-0.26137501	0	255	0
-12.7492495	6.89684963	-0.344999999	0	255	0
-12.7492495	6.89684963	-0.26137501	0	255	0
-12.7492495	6.89822483	-0.317125022	0	255	0
-12.7369995	6.89822483	-0.317125022	0	255	0
-12.743124	6.89753723	-0.289250016	0	255	0
-12.7492495	6.89684963	-0.317125022	0	255	0
-12.7369995	6.89684963	-0.317125022	0	255	0
-12.7860003	6.89616203	-0.149875	0	255	0
-12.7860003	6.89616203	-0.122000001	0	255	0
-12.7798748	6.89616203	-0.177750006	0	255	0
-12.7798748	6.89616203	-0.149875	0	255	0
-12.7798748	6.89616203	-0.177750006	0	255	0
-12.7798748	6.89547443	-0.122000001	0	255	0
-12.7798748	6.89547443	-0.149875	0	255	0
-12.7860003	6.89547443	-0.149875	0	255	0
-12.7737503	6.89684963	-0.149875	0	255	0
-12.7737503	6.89684963	-0.122000001	0	255	0
-12.7737503	6.89616203	-0.122000001	0	255	0
-12.7737503	6.89616203	-0.149875	0	255	0
-12.7614994	6.89684963	-0.149875	0	255	0
-12.7614994	6.89616203	-0.122000001	0	255	0
-12.7614994	6.89616203	-0.149875	0	255	0
-12.7798748	6.89547443	-0.205624998	0	255	0
-12.7798748	6.89547443	-0.233500004	0	255	0
-12.7737503	6.89547443	-0.205624998	0	255	0
-12.7798748	6.89409971	-0.233500004	0	255	0
-12.7737503	6.89409971	-0.122000001	0	255	0
-12.7737503	6.89409971	-0.205624998	0	255	0
-12.7798748	6.89409971	-0.205624998	0	255	0
-12.7737503	6.89547443	-0.149875	0	255	0
-12.7614994	6.89547443	-0.122000001	0	255	0
-12.7614994	6.89547443	-0.149875	0	255	0
-12.7676249	6.89478683	-0.177750006	0	255	0
-12.7737503	6.89409971	-0.149875	0	255	0
-12.7614994	6.89409971	-0.344999999	0	255	0
-12.7614994	6.89409971	-0.149875	0	255	0
-12.7614994	6.89684963	-0.317125022	0	255	0
-12.7492495	6.89684963	-0.317125022	0	255	0
-12.7553749	6.89616203	-0.289250016	0	255	0
-12.7614994	6.89547443	-0.317125022	0	255	0
-12.7492495	6.89547443	-0.317125022	0	255	0
-12.7492495	6.89684963	-0.317125022	0	255	0
-12.7369995	6.89684963	-0.317125022	0	255	0
-12.743124	6.89616203	-0.289250016	0	255	0
-12.7492495	6.89547443	-0.317125022	0	255	0
-12.7369995	6.89547443	-0.344999999	0	255	0
-12.7369995	6.89547443	-0.317125022	0	255	0
-12.7614994	6.89547443	-0.26137501	0	255	0
-12.7614994	6.89547443	-0.344999999	0	255	0
-12.7492495	6.89547443	-0.26137501	0	255	0
-12.7553749	6.89478683	-0.289250016	0	255	0
-12.7614994	6.89409971	-0.26137501	0	255	0
-12.7492495	6.89409971	-0.344999999	0	255	0
-12.7492495	6.89409971	-0.26137501	0	255	0
-12.7492495	6.89547443	-0.317125022	0	255	0
-12.743124	6.89547443	-0.344999999	0	255	0
-12.743124	6.89547443	-0.317125022	0	255	0
-12.743124	6.89478683	-0.289250016	0	255	0
-12.7492495	6.89409971	-0.317125022	0	255	0
-12.7369995	6.89478683	-0.344999999	0	255	0
-12.7369995	6.89478683	-0.317125022	0	255	0
-12.7369995	6.89409971	0.101000004	0	255	0
-12.7369995	6.89409971	-0.317125022	0	255	0
-12.7369995	6.89960003	0.0173750017	0	255	0
-12.730875	6.89960003	0.0173750017	0	255	0
-12.730875	6.89960003	-0.0104999989	0	255	0
-12.7369995	6.89891243	0.0173750017	0	255	0
-12.730875	6.89891243	0.0173750017	0	255	0
-12.7369995	6.89822483	0.0452500023	0	255	0
-12.7369995	6.89891243	-0.0104999989	0	255	0
-12.7369995	6.89960003	-0.0383749977	0	255	0
-12.730875	6.89960003	-0.0104999989	0	255	0
-12.730875	6.89960003	-0.0383749977	0	255	0
-12.7369995	6.89891243	-0.0104999989	0	255	0
-12.730875	6.89891243	-0.0662499964	0	255	0
-12.730875	6.89891243	-0.0383749977	0	255	0
-12.7369995	6.89891243	-0.0383749977	0	255	0
-12.7369995	6.89960003	-0.0662499964	0	255	0
-12.7369995	6.89891243	-0.0662499964	0	255	0
-12.7247496	6.89960003	-0.0662499964	0	255	0
-12.7247496	6.89960003	-0.0941250026	0	255	0
-12.7247496	6.89891243	-0.0662499964	0	255	0
-12.7247496	6.89891243	-0.0941250026	0	255	0
-12.730875	6.89960003	-0.122000001	0	255	0
-12.7369995	6.89822483	-0.0662499964	0	255	0
-12.7369995	6.89891243	-0.122000001	0	255	0
-12.7369995	6.89822483	-0.0941250026	0	255	0
-12.7369995	6.89822483	-0.0104999989	0	255	0
-12.730875	6.89822483	-0.122000001	0	255	0
-12.730875	6.89822483	-0.0941250026	0	255	0
-12.7369995	6.89753723	-0.122000001	0	255	0
-12.730875	6.89753723	-0.0662499964	0	255	0
-12.730875	6.89753723	-0.0941250026	0	255	0
-12.7369995	6.89753723	-0.0941250026	0	255	0
-12.730875	6.89822483	-0.0941250026	0	255	0
-12.730875	6.89822483	-0.0662499964	0	255	0
-12.7247496	6.89822483	-0.0662499964	0	255	0
-12.7247496	6.89822483	-0.0941250026	0	255	0
-12.730875	6.89753723	-0.122000001	0	255	0
-12.7247496	6.89753723	-0.0662499964	0	255	0
-12.7247496	6.89753723	-0.0941250026	0	255	0
-12.730875	6.89753723	-0.0941250026	0	255	0
-12.7369995	6.89547443	-0.0941250026	0	255	0
-12.7369995	6.89547443	-0.0104999989	0	255	0
-12.730875	6.89547443	-0.122000001	0	255	0
-12.730875	6.89547443	-0.0941250026	0	255	0
-12.7369995	6.89478683	-0.122000001	0	255	0
-12.730875	6.89478683	-0.0662499964	0	255	0
-12.730875	6.89478683	-0.0941250026	0	255	0
-12.7369995	6.89478683	-0.0941250026	0	255	0
-12.7676249	6.89753723	-0.149875	0	255	0
-12.7676249	6.89753723	-0.177750006	0	255	0
-12.7614994	6.89753723	-0.122000001	0	255	0
-12.7614994	6.89753723	-0.149875	0	255	0
-12.7676249	6.89684963	-0.122000001	0	255	0
-12.7614994	6.89684963	-0.149875	0	255	0
-12.7676249	6.89684963	-0.149875	0	255	0
-12.7614994	6.89891243	-0.149875	0	255	0
-12.7614994	6.89891243	-0.122000001	0	255	0
-12.7553749	6.89891243	-0.177750006	0	255	0
-12.7553749	6.89891243	-0.149875	0	255	0
-12.7553749	6.89891243	-0.177750006	0	255	0
-12.7553749	6.89822483	-0.122000001	0	255	0
-12.7553749	6.89822483	-0.149875	0	255	0
-12.7614994	6.89822483	-0.149875	0	255	0
-12.743124	6.89960003	-0.149875	0	255	0
-12.743124	6.89960003	-0.122000001	0	255	0
-12.7369995	6.89960003	-0.149875	0	255	0
-12.7369995	6.89891243	-0.122000001	0	255	0
-12.7369995	6.89891243	-0.149875	0	255	0
-12.7492495	6.89891243	-0.149875	0	255	0
-12.7492495	6.89891243	-0.122000001	0	255	0
-12.743124	6.89891243	-0.177750006	0	255	0
-12.743124	6.89822483	-0.122000001	0	255	0
-12.743124	6.89822483	-0.149875	0	255	0
-12.7492495	6.89822483	-0.149875	0	255	0
-12.7614994	6.89822483	-0.205624998	0	255	0
-12.7614994	6.89822483	-0.122000001	0	255	0
-12.7492495	6.89822483	-0.233500004	0	255	0
-12.7492495	6.89822483	-0.205624998	0	255	0
-12.7553749	6.89753723	-0.177750006	0	255	0
-12.7614994	6.89684963	-0.205624998	0	255	0
-12.7492495	6.89684963	-0.122000001	0	255	0
-12.7492495	6.89684963	-0.205624998	0	255	0
-12.743124	6.89822483	-0.149875	0	255	0
-12.743124	6.89822483	-0.122000001	0	255	0
-12.7369995	6.89822483	-0.122000001	0	255	0
-12.7369995	6.89822483	-0.149875	0	255	0
-12.7369995	6.89753723	-0.122000001	0	255	0
-12.7369995	6.89753723	-0.149875	0	255	0
-12.7492495	6.89753723	-0.149875	0	255	0
-12.7492495	6.89753723	-0.122000001	0	255	0
-12.743124	6.89753723	-0.177750006	0	255	0
-12.743124	6.89684963	-0.122000001	0	255	0
-12.743124	6.89684963	-0.149875	0	255	0
-12.7492495	6.89684963	-0.149875	0	255	0
-12.7614994	6.89753723	-0.205624998	0	255	0
-12.7614994	6.89753723	-0.177750006	0	255	0
-12.7553749	6.89753723	-0.233500004	0	255	0
-12.7553749	6.89753723	-0.205624998	0	255	0
-12.7553749	6.89753723	-0.233500004	0	255	0
-12.7553749	6.89684963	-0.177750006	0	255	0
-12.7553749	6.89684963	-0.205624998	0	255	0
-12.7614994	6.89684963	-0.205624998	0	255	0
-12.7737503	6.89684963	-0.317125022	0	255	0
-12.7737503	6.89684963	-0.344999999	0	255	0
-12.7676249	6.89684963	-0.344999999	0	255	0
-12.7676249	6.89684963	-0.317125022	0	255	0
-12.7737503	6.89616203	-0.344999999	0	255	0
-12.7676249	6.89616203	-0.289250016	0	255	0
-12.7676249	6.89616203	-0.317125022	0	255	0
-12.7737503	6.89616203	-0.317125022	0	255	0
-12.7737503	6.89478683	-0.317125022	0	255	0
-12.7737503	6.89478683	-0.344999999	0	255	0
-12.7676249	6.89478683	-0.289250016	0	255	0
-12.7737503	6.89409971	-0.317125022	0	255	0
-12.7614994	6.89478683	-0.344999999	0	255	0
-12.7614994	6.89478683	-0.317125022	0	255	0
-12.7614994	6.89409971	-0.122000001	0	255	0
-12.7614994	6.89409971	-0.317125022	0	255	0
-12.7614994	6.89684963	-0.149875	0	255	0
-12.7492495	6.89684963	-0.149875	0	255	0
-12.7553749	6.89616203	-0.177750006	0	255	0
-12.7614994	6.89547443	-0.149875	0	255	0
-12.7492495	6.89547443	-0.149875	0	255	0
-12.7492495	6.89684963	-0.149875	0	255	0
-12.743124	6.89684963	-0.122000001	0	255	0
-12.743124	6.89684963	-0.149875	0	255	0
-12.743124	6.89616203	-0.177750006	0	255	0
-12.7492495	6.89547443	-0.149875	0	255	0
-12.7369995	6.89616203	-0.122000001	0	255	0
-12.7369995	6.89616203	-0.149875	0	255	0
-12.7369995	6.89547443	-0.122000001	0	255	0
-12.7369995	6.89547443	-0.149875	0	255	0
-12.7614994	6.89684963	-0.205624998	0	255	0
-12.7614994	6.89684963	-0.177750006	0	255	0
-12.7492495	6.89684963	-0.177750006	0	255	0
-12.7553749	6.89684963	-0.233500004	0	255	0
-12.7492495	6.89684963	-0.233500004	0	255	0
-12.7492495	6.89616203	-0.233500004	0	255	0
-12.7614994	6.89547443	-0.177750006	0	255	0
-12.7553749	6.89616203	-0.233500004	0	255	0
-12.7614994	6.89547443	-0.205624998	0	255	0
-12.7492495	6.89547443	-0.205624998	0	255	0
-12.7492495	6.89684963	-0.122000001	0	255	0
-12.7492495	6.89684963	-0.149875	0	255	0
-12.7369995	6.89684963	-0.149875	0	255	0
-12.7369995	6.89684963	-0.233500004	0	255	0
-12.7492495	6.89547443	-0.149875	0	255	0
-12.7369995	6.89547443	-0.149875	0	255	0
-12.7369995	6.89547443	-0.122000001	0	255	0
-12.7614994	6.89547443	-0.205624998	0	255	0
-12.7614994	6.89547443	-0.122000001	0	255	0
-12.7553749	6.89547443	-0.233500004	0	255	0
-12.7553749	6.89547443	-0.205624998	0	255	0
-12.7553749	6.89478683	-0.177750006	0	255	0
-12.7614994	6.89409971	-0.205624998	0	255	0
-12.7492495	6.89478683	-0.233500004	0	255	0
-12.7492495	6.89478683	-0.205624998	0	255	0
-12.7492495	6.89409971	-0.122000001	0	255	0
-12.7492495	6.89409971	-0.205624998	0	255	0
-12.7492495	6.89547443	-0.149875	0	255	0
-12.743124	6.89547443	-0.122000001	0	255	0
-12.743124	6.89547443	-0.149875	0	255	0
-12.743124	6.89478683	-0.177750006	0	255	0
-12.743124	6.89409971	-0.122000001	0	255	0
-12.743124	6.89409971	-0.149875	0	255	0
-12.7492495	6.89409971	-0.149875	0	255	0
-12.7553749	6.89547443	-0.205624998	0	255	0
-12.7553749	6.89547443	-0.177750006	0	255	0
-12.7492495	6.89547443	-0.205624998	0	255	0
-12.7614994	6.89478683	-0.177750006	0	255	0
-12.7553749	6.89478683	-0.233500004	0	255	0
-12.7492495	6.89409971	-0.177750006	0	255	0
-12.7614994	6.89478683	-0.233500004	0	255	0
-12.7492495	6.89478683	-0.233500004	0	255	0
-12.7492495	6.89409971	-0.233500004	0	255	0
-12.7492495	6.89547443	-0.205624998	0	255	0
-12.7369995	6.89547443	-0.177750006	0	255	0
-12.7369995	6.89547443	-0.205624998	0	255	0
-12.743124	6.89478683	-0.233500004	0	255	0
-12.7492495	6.89409971	-0.205624998	0	255	0
-12.7369995	6.89409971	-0.177750006	0	255	0
-12.7369995	6.89409971	-0.205624998	0	255	0
-12.7676249	6.89478683	-0.26137501	0	255	0
-12.7676249	6.89478683	-0.289250016	0	255	0
-12.7614994	6.89478683	-0.233500004	0	255	0
-12.7614994	6.89478683	-0.26137501	0	255	0
-12.7676249	6.89409971	-0.233500004	0	255	0
-12.7614994	6.89409971	-0.26137501	0	255	0
-12.7676249	6.89409971	-0.26137501	0	255	0
-12.7676249	6.89478683	-0.344999999	0	255	0
-12.7614994	6.89478683	-0.289250016	0	255	0
-12.7676249	6.89409971	-0.289250016	0	255	0
-12.7614994	6.89409971	-0.289250016	0	255	0
-12.7737503	6.89409971	-0.289250016	0	255	0
-12.7614994	6.89478683	-0.344999999	0	255	0
-12.7676249	6.89409971	-0.344999999	0	255	0
-12.7614994	6.89478683	-0.317125022	0	255	0
-12.7614994	6.89478683	-0.344999999	0	255	0
-12.7553749	6.89478683	-0.289250016	0	255	0
-12.7614994	6.89409971	-0.317125022	0	255	0
-12.7492495	6.89478683	-0.344999999	0	255	0
-12.7492495	6.89478683	-0.317125022	0	255	0
-12.7492495	6.89409971	-0.233500004	0	255	0
-12.7492495	6.89409971	-0.317125022	0	255	0
-12.743124	6.89478683	-0.26137501	0	255	0
-12.743124	6.89478683	-0.289250016	0	255	0
-12.7369995	6.89478683	-0.233500004	0	255	0
-12.7369995	6.89478683	-0.26137501	0	255	0
-12.743124	6.89409971	-0.233500004	0	255	0
-12.7369995	6.89409971	-0.233500004	0	255	0
-12.7369995	6.89409971	-0.26137501	0	255	0
-12.743124	6.89409971	-0.26137501	0	255	0
-12.7614994	6.89478683	-0.289250016	0	255	0
-12.7553749	6.89478683	-0.344999999	0	255	0
-12.7553749	6.89478683	-0.344999999	0	255	0
-12.7553749	6.89409971	-0.289250016	0	255	0
-12.7614994	6.89478683	-0.344999999	0	255	0
-12.7492495	6.89478683	-0.317125022	0	255	0
-12.7492495	6.89478683	-0.344999999	0	255	0
-12.7492495	6.89409971	-0.317125022	0	255	0
-12.7492495	6.89409971	-0.344999999	0	255	0
-12.7492495	6.89478683	-0.317125022	0	255	0
-12.7492495	6.89478683	-0.289250016	0	255	0
-12.743124	6.89478683	-0.344999999	0	255	0
-12.743124	6.89478683	-0.344999999	0	255	0
-12.743124	6.89409971	-0.289250016	0	255	0
-12.7492495	6.89409971	-0.317125022	0	255	0
-12.7492495	6.89409971	-0.289250016	0	255	0
-12.7369995	6.89478683	-0.317125022	0	255	0
-12.7369995	6.89478683	-0.344999999	0	255	0
-12.7369995	6.89409971	-0.317125022	0	255	0
-12.7369995	6.89409971	-0.344999999	0	255	0
-12.743124	6.89409971	-0.344999999	0	255	0
-12.7369995	6.89960003	-0.149875	0	255	0
-12.730875	6.89960003	-0.122000001	0	255	0
-12.730875	6.89960003	-0.149875	0	255	0
-12.7369995	6.89891243	-0.122000001	0	255	0
-12.730875	6.89891243	-0.177750006	0	255	0
-12.730875	6.89891243	-0.149875	0	255	0
-12.7369995	6.89891243	-0.149875	0	255	0
-12.7369995	6.89616203	-0.317125022	0	255	0
-12.7369995	6.89616203	-0.344999999	0	255	0
-12.730875	6.89616203	-0.289250016	0	255	0
-12.730875	6.89616203	-0.317125022	0	255	0
-12.730875	6.89616203	-0.289250016	0	255	0
-12.730875	6.89547443	-0.344999999	0	255	0
-12.730875	6.89547443	-0.317125022	0	255	0
-12.7369995	6.89547443	-0.317125022	0	255	0
