-9.1467495	6.63772583	3.18793774	0	255	0
-9.1467495	6.63772583	2.71974993	0	255	0
-9.14212418	6.63772583	3.3440001	0	255	0
-9.14212418	6.63772583	3.18793774	0	255	0
-9.1467495	6.63768816	3.3440001	0	255	0
-9.14212418	6.63768816	3.03187513	0	255	0
-9.14212418	6.63768816	3.18793774	0	255	0
-9.1467495	6.63768816	3.18793774	0	255	0
-9.12825012	6.63780069	3.3440001	0	255	0
-9.12825012	6.63776302	3.3440001	0	255	0
-9.11899948	6.63780069	3.3440001	0	255	0
-9.11899948	6.63776302	3.3440001	0	255	0
-9.12825012	6.63780069	3.03187513	0	255	0
-9.12825012	6.63776302	3.03187513	0	255	0
-9.11899948	6.63776302	3.03187513	0	255	0
-9.12825012	6.63780069	2.56368756	0	255	0
-9.12825012	6.63780069	3.03187513	0	255	0
-9.11899948	6.63780069	2.56368756	0	255	0
-9.12825012	6.63772583	2.09549999	0	255	0
-9.11899948	6.63772583	3.03187513	0	255	0
-9.11899948	6.63772583	2.56368756	0	255	0
-9.12825012	6.63772583	2.56368756	0	255	0
-9.13287544	6.63772583	2.87581253	0	255	0
-9.13287544	6.63772583	2.71974993	0	255	0
-9.12825012	6.63772583	2.87581253	0	255	0
-9.13287544	6.63768816	3.03187513	0	255	0
-9.12825012	6.63768816	2.71974993	0	255	0
-9.12825012	6.63768816	2.87581253	0	255	0
-9.13287544	6.63768816	2.87581253	0	255	0
-9.1236248	6.63772583	3.3440001	0	255	0
-9.12825012	6.63768816	3.3440001	0	255	0
-9.1236248	6.63768816	3.03187513	0	255	0
-9.12825012	6.63768816	3.03187513	0	255	0
-9.11899948	6.63772583	3.18793774	0	255	0
-9.11899948	6.63768816	3.18793774	0	255	0
-9.11899948	6.63768816	3.03187513	0	255	0
-9.13287544	6.63772583	2.87581253	0	255	0
-9.13287544	6.63772583	3.03187513	0	255	0
-9.12825012	6.63772583	2.87581253	0	255	0
-9.13287544	6.63768816	2.71974993	0	255	0
-9.12825012	6.63768816	3.03187513	0	255	0
-9.12825012	6.63768816	2.87581253	0	255	0
-9.13287544	6.63768816	2.87581253	0	255	0
-9.12825012	6.63768816	3.03187513	0	255	0
-9.11899948	6.63768816	3.03187513	0	255	0
-9.13749981	6.63765049	2.09549999	0	255	0
-9.12825012	6.63768816	2.71974993	0	255	0
-9.11899948	6.63772583	2.71974993	0	255	0
-9.11899948	6.63768816	2.71974993	0	255	0
-9.12825012	6.63780069	2.71974993	0	255	0
-9.12825012	6.63780069	2.87581253	0	255	0
-9.11899948	6.63780069	2.87581253	0	255	0
-9.12825012	6.63765049	2.87581253	0	255	0
-9.11899948	6.63765049	2.87581253	0	255	0
-9.11899948	6.63765049	3.3440001	0	255	0
-9.12825012	6.63765049	2.71974993	0	255	0
-9.14212418	6.63761282	2.2515626	0	255	0
-9.14212418	6.63761282	2.40762496	0	255	0
-9.13749981	6.63761282	2.09549999	0	255	0
-9.13749981	6.63761282	2.2515626	0	255	0
-9.14212418	6.63757515	2.09549999	0	255	0
-9.13749981	6.63757515	2.09549999	0	255	0
-9.13749981	6.63757515	2.2515626	0	255	0
-9.14212418	6.63757515	2.2515626	0	255	0
-9.13749981	6.63761282	3.3440001	0	255	0
-9.13287544	6.63761282	3.03187513	0	255	0
-9.12825012	6.63761282	3.3440001	0	255	0
-9.13749981	6.63761282	3.03187513	0	255	0
-9.12825012	6.63761282	3.03187513	0	255	0
-9.12825012	6.63761282	3.03187513	0	255	0
-9.12825012	6.63761282	3.18793774	0	255	0
-9.1236248	6.63761282	3.18793774	0	255	0
-9.12825012	6.63757515	3.18793774	0	255	0
-9.1236248	6.63757515	3.18793774	0	255	0
-9.1236248	6.63757515	3.03187513	0	255	0
-9.13287544	6.63761282	2.71974993	0	255	0
-9.12825012	6.63761282	3.03187513	0	255	0
-9.13287544	6.63757515	3.03187513	0	255	0
-9.12825012	6.63761282	2.71974993	0	255	0
-9.13749981	6.63750029	3.3440001	0	255	0
-9.13287544	6.63757515	2.71974993	0	255	0
-9.12825012	6.63765049	3.3440001	0	255	0
-9.12825012	6.63765049	3.18793774	0	255	0
-9.11899948	6.63765049	3.18793774	0	255	0
-9.11899948	6.63765049	2.71974993	0	255	0
-9.12825012	6.63757515	3.18793774	0	255	0
-9.11899948	6.63757515	3.18793774	0	255	0
-9.11899948	6.63757515	3.3440001	0	255	0
-9.13287544	6.63761282	2.40762496	0	255	0
-9.12825012	6.63761282	2.71974993	0	255	0
-9.13287544	6.63757515	2.71974993	0	255	0
-9.13749981	6.63757515	2.71974993	0	255	0
-9.12825012	6.63761282	2.40762496	0	255	0
-9.13287544	6.63757515	2.40762496	0	255	0
-9.12825012	6.63761282	2.71974993	0	255	0
-9.1236248	6.63761282	2.40762496	0	255	0
-9.1236248	6.63761282	2.40762496	0	255	0
-9.1236248	6.63757515	2.71974993	0	255	0
-9.12825012	6.63761282	2.40762496	0	255	0
-9.11899948	6.63761282	2.56368732	0	255	0
-9.11899948	6.63761282	2.40762496	0	255	0
-9.11899948	6.63757515	2.56368732	0	255	0
-9.11899948	6.63757515	2.40762496	0	255	0
-9.13287544	6.63761282	2.2515626	0	255	0
-9.13287544	6.63761282	2.09549999	0	255	0
-9.12825012	6.63761282	2.40762496	0	255	0
-9.12825012	6.63761282	2.2515626	0	255	0
-9.13287544	6.63757515	2.40762496	0	255	0
-9.12825012	6.63757515	2.2515626	0	255	0
-9.13287544	6.63757515	2.2515626	0	255	0
-9.12825012	6.63765049	2.71974993	0	255	0
-9.12825012	6.63765049	2.56368732	0	255	0
-9.11899948	6.63765049	2.56368732	0	255	0
-9.11899948	6.63765049	2.09549999	0	255	0
-9.12825012	6.63757515	2.56368732	0	255	0
-9.11899948	6.63757515	2.56368732	0	255	0
-9.11899948	6.63757515	2.71974993	0	255	0
-9.11899948	6.63780069	2.87581253	0	255	0
-9.11899948	6.63776302	2.87581253	0	255	0
-9.11899948	6.63776302	2.71974993	0	255	0
-9.10974979	6.63780069	2.87581253	0	255	0
-9.10974979	6.63780069	2.71974993	0	255	0
-9.10974979	6.63776302	2.87581253	0	255	0
-9.10974979	6.63776302	2.71974993	0	255	0
-9.11437416	6.63780069	2.71974993	0	255	0
-9.11899948	6.63776302	2.71974993	0	255	0
-9.11437416	6.63776302	2.40762496	0	255	0
-9.11437416	6.63780069	2.40762496	0	255	0
-9.11899948	6.63772583	2.71974993	0	255	0
-9.11899948	6.63776302	2.40762496	0	255	0
-9.11437416	6.63780069	2.40762496	0	255	0
-9.11899948	6.63776302	2.40762496	0	255	0
-9.11437416	6.63776302	2.09549999	0	255	0
-9.11437416	6.63780069	2.09549999	0	255	0
-9.11899948	6.63772583	2.40762496	0	255	0
-9.11899948	6.63776302	2.09549999	0	255	0
-9.1236248	6.63780069	2.09549999	0	255	0
-9.1236248	6.63776302	1.78337502	0	255	0
-9.11899948	6.63776302	2.09549999	0	255	0
-9.1236248	6.63780069	1.78337502	0	255	0
-9.11899948	6.63776302	1.78337502	0	255	0
-9.12825012	6.63772583	1.47125006	0	255	0
-9.12825012	6.63780069	1.31518745	0	255	0
-9.12825012	6.63780069	1.78337502	0	255	0
-9.11899948	6.63780069	1.31518745	0	255	0
-9.12825012	6.63772583	0.847000003	0	255	0
-9.11899948	6.63772583	1.78337502	0	255	0
-9.11899948	6.63772583	1.31518745	0	255	0
-9.12825012	6.63772583	1.31518745	0	255	0
-9.1236248	6.63772583	2.09549999	0	255	0
-9.11899948	6.63772583	2.09549999	0	255	0
-9.1236248	6.63768816	1.78337502	0	255	0
-9.11899948	6.63768816	2.09549999	0	255	0
-9.1236248	6.63772583	1.78337502	0	255	0
-9.11899948	6.63768816	1.78337502	0	255	0
-9.12825012	6.63765049	2.09549999	0	255	0
-9.1236248	6.63772583	1.78337502	0	255	0
-9.1236248	6.63768816	1.47125006	0	255	0
-9.11899948	6.63768816	1.78337502	0	255	0
-9.1236248	6.63772583	1.47125006	0	255	0
-9.11899948	6.63772583	1.47125006	0	255	0
-9.11899948	6.63768816	1.47125006	0	255	0
-9.12825012	6.63765049	1.78337502	0	255	0
-9.12825012	6.63780069	1.47125006	0	255	0
-9.12825012	6.63780069	1.62731254	0	255	0
-9.11899948	6.63780069	1.62731254	0	255	0
-9.11899948	6.63780069	0.847000003	0	255	0
-9.12825012	6.63765049	1.62731254	0	255	0
-9.11899948	6.63765049	1.62731254	0	255	0
-9.11899948	6.63765049	2.09549999	0	255	0
-9.12825012	6.63765049	1.47125006	0	255	0
-9.12825012	6.63761282	2.09549999	0	255	0
-9.1236248	6.63761282	1.78337502	0	255	0
-9.11899948	6.63761282	2.09549999	0	255	0
-9.11899948	6.63757515	2.09549999	0	255	0
-9.12825012	6.63761282	1.78337502	0	255	0
-9.11899948	6.63761282	1.78337502	0	255	0
-9.11899948	6.63757515	1.78337502	0	255	0
-9.12825012	6.63765049	2.09549999	0	255	0
-9.12825012	6.63765049	1.93943751	0	255	0
-9.11899948	6.63765049	1.93943751	0	255	0
-9.11899948	6.63765049	1.47125006	0	255	0
-9.12825012	6.63757515	1.93943751	0	255	0
-9.11899948	6.63757515	1.93943751	0	255	0
-9.11899948	6.63757515	2.09549999	0	255	0
-9.1236248	6.63761282	1.31518757	0	255	0
-9.1236248	6.63761282	1.15912509	0	255	0
-9.11899948	6.63761282	1.47125006	0	255	0
-9.11899948	6.63761282	1.31518757	0	255	0
-9.1236248	6.63757515	1.47125006	0	255	0
-9.11899948	6.63757515	1.47125006	0	255	0
-9.11899948	6.63757515	1.31518757	0	255	0
-9.1236248	6.63757515	1.31518757	0	255	0
-9.11899948	6.63780069	3.3440001	0	255	0
-9.11899948	6.63780069	2.2515626	0	255	0
-9.10050011	6.63780069	2.2515626	0	255	0
-9.10050011	6.63780069	2.09549999	0	255	0
-9.11899948	6.63765049	2.2515626	0	255	0
-9.10050011	6.63765049	2.2515626	0	255	0
-9.11899948	6.63765049	2.2515626	0	255	0
-9.11899948	6.63757515	2.2515626	0	255	0
-9.11899948	6.63757515	2.09549999	0	255	0
-9.10050011	6.63765049	2.2515626	0	255	0
-9.10050011	6.63757515	2.2515626	0	255	0
-9.10050011	6.63757515	2.09549999	0	255	0
-9.14212418	6.63750029	1.00306249	0	255	0
-9.14212418	6.63750029	0.847000003	0	255	0
-9.13749981	6.63750029	1.00306249	0	255	0
-9.14212418	6.63746262	1.15912509	0	255	0
-9.13749981	6.63746262	0.847000003	0	255	0
-9.13749981	6.63746262	1.00306249	0	255	0
-9.14212418	6.63746262	1.00306249	0	255	0
-9.1467495	6.63742542	1.00306249	0	255	0
-9.1467495	6.63742542	1.47125006	0	255	0
-9.1467495	6.63738775	0.847000003	0	255	0
-9.1467495	6.63738775	1.00306249	0	255	0
-9.13749981	6.63742542	0.847000003	0	255	0
-9.13749981	6.63742542	1.00306249	0	255	0
-9.13749981	6.63738775	0.847000003	0	255	0
-9.13749981	6.63738775	1.00306249	0	255	0
-9.13749981	6.63750029	1.00306249	0	255	0
-9.13749981	6.63746262	0.847000003	0	255	0
-9.13749981	6.63746262	1.00306249	0	255	0
-9.12825012	6.63750029	1.00306249	0	255	0
-9.12825012	6.63746262	0.847000003	0	255	0
-9.12825012	6.63746262	1.00306249	0	255	0
-9.12825012	6.63750029	1.00306249	0	255	0
-9.12825012	6.63746262	0.847000003	0	255	0
-9.12825012	6.63746262	1.00306249	0	255	0
-9.11899948	6.63750029	0.847000003	0	255	0
-9.11899948	6.63750029	1.00306249	0	255	0
-9.11899948	6.63746262	0.847000003	0	255	0
-9.11899948	6.63746262	1.00306249	0	255	0
-9.13749981	6.63742542	1.31518757	0	255	0
-9.13749981	6.63742542	0.847000003	0	255	0
-9.13749981	6.63738775	1.47125006	0	255	0
-9.13749981	6.63738775	1.31518757	0	255	0
-9.12825012	6.63742542	1.31518757	0	255	0
-9.12825012	6.63738775	1.47125006	0	255	0
-9.12825012	6.63738775	1.31518757	0	255	0
-9.12825012	6.63742542	1.00306249	0	255	0
-9.1236248	6.63742542	0.847000003	0	255	0
-9.1236248	6.63742542	1.00306249	0	255	0
-9.12825012	6.63738775	0.847000003	0	255	0
-9.1236248	6.63738775	1.15912509	0	255	0
-9.1236248	6.63738775	1.00306249	0	255	0
-9.12825012	6.63738775	1.00306249	0	255	0
-9.15137482	6.63731241	1.93943751	0	255	0
-9.15137482	6.63731241	1.78337502	0	255	0
-9.1467495	6.63731241	2.09549999	0	255	0
-9.1467495	6.63731241	1.93943751	0	255	0
-9.15137482	6.63727474	2.09549999	0	255	0
-9.1467495	6.63727474	1.47125006	0	255	0
-9.1467495	6.63727474	1.93943751	0	255	0
-9.15137482	6.63727474	1.93943751	0	255	0
-9.1467495	6.63731241	1.93943751	0	255	0
-9.1467495	6.63731241	2.09549999	0	255	0
-9.14212418	6.63731241	1.78337502	0	255	0
-9.1467495	6.63727474	1.93943751	0	255	0
-9.13749981	6.63731241	2.09549999	0	255	0
-9.13749981	6.63731241	1.93943751	0	255	0
-9.13749981	6.63727474	2.09549999	0	255	0
-9.13749981	6.63727474	1.93943751	0	255	0
-9.15600014	6.63723755	1.62731254	0	255	0
-9.15600014	6.63723755	1.47125006	0	255	0
-9.15137482	6.63723755	1.78337502	0	255	0
-9.15600014	6.63719988	1.62731254	0	255	0
-9.1467495	6.63723755	1.47125006	0	255	0
-9.1467495	6.63723755	1.62731254	0	255	0
-9.1467495	6.63719988	2.09549999	0	255	0
-9.1467495	6.63719988	1.62731254	0	255	0
-9.1467495	6.63723755	1.93943751	0	255	0
-9.1467495	6.63723755	2.09549999	0	255	0
-9.14212418	6.63723755	1.78337502	0	255	0
-9.1467495	6.63719988	1.93943751	0	255	0
-9.13749981	6.63723755	2.09549999	0	255	0
-9.13749981	6.63723755	1.93943751	0	255	0
-9.13749981	6.63719988	0.847000003	0	255	0
-9.13749981	6.63719988	1.93943751	0	255	0
-9.13749981	6.63731241	1.00306249	0	255	0
-9.13749981	6.63731241	0.847000003	0	255	0
-9.13287544	6.63731241	1.15912509	0	255	0
-9.13749981	6.63727474	1.00306249	0	255	0
-9.12825012	6.63731241	0.847000003	0	255	0
-9.12825012	6.63731241	1.00306249	0	255	0
-9.12825012	6.63727474	1.47125006	0	255	0
-9.12825012	6.63727474	1.00306249	0	255	0
-9.12825012	6.63731241	1.00306249	0	255	0
-9.12825012	6.63731241	0.847000003	0	255	0
-9.1236248	6.63731241	1.15912509	0	255	0
-9.12825012	6.63727474	1.00306249	0	255	0
-9.11899948	6.63731241	0.847000003	0	255	0
-9.11899948	6.63731241	1.00306249	0	255	0
-9.11899948	6.63727474	0.847000003	0	255	0
-9.11899948	6.63727474	1.00306249	0	255	0
-9.13749981	6.63723755	1.31518757	0	255	0
-9.13749981	6.63723755	1.47125006	0	255	0
-9.13287544	6.63723755	1.15912509	0	255	0
-9.13287544	6.63723755	1.31518757	0	255	0
-9.13287544	6.63723755	1.15912509	0	255	0
-9.13287544	6.63719988	1.47125006	0	255	0
-9.13287544	6.63719988	1.31518757	0	255	0
-9.13749981	6.63719988	1.31518757	0	255	0
-9.13287544	6.63750029	2.09549999	0	255	0
-9.13287544	6.63746262	1.78337502	0	255	0
-9.12825012	6.63746262	2.09549999	0	255	0
-9.13287544	6.63750029	1.78337502	0	255	0
-9.12825012	6.63746262	1.78337502	0	255	0
-9.1236248	6.63750029	2.09549999	0	255	0
-9.12825012	6.63746262	2.09549999	0	255	0
-9.1236248	6.63746262	1.78337502	0	255	0
-9.12825012	6.63746262	1.78337502	0	255	0
-9.11899948	6.63750029	1.93943751	0	255	0
-9.11899948	6.63746262	1.93943751	0	255	0
-9.11899948	6.63746262	1.78337502	0	255	0
-9.12825012	6.63750029	1.31518745	0	255	0
-9.12825012	6.63750029	1.78337502	0	255	0
-9.11899948	6.63750029	1.31518745	0	255	0
-9.12825012	6.63742542	0.847000003	0	255	0
-9.11899948	6.63742542	1.78337502	0	255	0
-9.11899948	6.63742542	1.31518745	0	255	0
-9.12825012	6.63742542	1.31518745	0	255	0
-9.13749981	6.63742542	1.62731254	0	255	0
-9.13749981	6.63738775	1.47125006	0	255	0
-9.13749981	6.63738775	1.62731254	0	255	0
-9.12825012	6.63742542	1.62731254	0	255	0
-9.12825012	6.63738775	1.47125006	0	255	0
-9.12825012	6.63738775	1.62731254	0	255	0
-9.12825012	6.63738775	2.09549999	0	255	0
-9.11899948	6.63742542	2.09549999	0	255	0
-9.11899948	6.63742542	1.93943751	0	255	0
-9.11899948	6.63738775	2.09549999	0	255	0
-9.11899948	6.63738775	1.93943751	0	255	0
-9.1236248	6.63742542	1.78337502	0	255	0
-9.12825012	6.63735008	2.09549999	0	255	0
-9.12825012	6.63738775	1.78337502	0	255	0
-9.13287544	6.63742542	1.78337502	0	255	0
-9.13287544	6.63738775	1.47125006	0	255	0
-9.12825012	6.63738775	1.78337502	0	255	0
-9.13287544	6.63742542	1.47125006	0	255	0
-9.12825012	6.63738775	1.47125006	0	255	0
-9.13749981	6.63735008	1.78337502	0	255	0
-9.12825012	6.63738775	1.78337502	0	255	0
-9.11899948	6.63742542	1.78337502	0	255	0
-9.11899948	6.63738775	1.78337502	0	255	0
-9.12825012	6.63738775	1.47125006	0	255	0
-9.11899948	6.63742542	1.47125006	0	255	0
-9.11899948	6.63738775	1.47125006	0	255	0
-9.12825012	6.63750029	1.47125006	0	255	0
-9.12825012	6.63750029	1.62731254	0	255	0
-9.11899948	6.63750029	1.62731254	0	255	0
-9.15600014	6.63719988	3.3440001	0	255	0
-9.12825012	6.63735008	1.62731254	0	255	0
-9.11899948	6.63735008	1.62731254	0	255	0
-9.11899948	6.63735008	2.09549999	0	255	0
-9.12825012	6.63735008	1.47125006	0	255	0
-9.14212418	6.63731241	1.00306249	0	255	0
-9.14212418	6.63731241	1.15912509	0	255	0
-9.13749981	6.63731241	0.847000003	0	255	0
-9.13749981	6.63731241	1.00306249	0	255	0
-9.14212418	6.63727474	0.847000003	0	255	0
-9.13749981	6.63727474	0.847000003	0	255	0
-9.13749981	6.63727474	1.00306249	0	255	0
-9.14212418	6.63727474	1.00306249	0	255	0
-9.15137482	6.63723755	1.31518757	0	255	0
-9.15137482	6.63723755	1.15912509	0	255	0
-9.1467495	6.63723755	1.47125006	0	255	0
-9.1467495	6.63723755	1.31518757	0	255	0
-9.15137482	6.63719988	1.47125006	0	255	0
-9.1467495	6.63719988	0.847000003	0	255	0
-9.1467495	6.63719988	1.31518757	0	255	0
-9.15137482	6.63719988	1.31518757	0	255	0
-9.14212418	6.63723755	1.00306249	0	255	0
-9.14212418	6.63723755	1.15912509	0	255	0
-9.13749981	6.63723755	0.847000003	0	255	0
-9.13749981	6.63723755	1.00306249	0	255	0
-9.14212418	6.63719988	0.847000003	0	255	0
-9.13749981	6.63719988	1.00306249	0	255	0
-9.14212418	6.63719988	1.00306249	0	255	0
-9.13749981	6.63731241	2.09549999	0	255	0
-9.13287544	6.63731241	1.78337502	0	255	0
-9.12825012	6.63731241	2.09549999	0	255	0
-9.13749981	6.63731241	1.78337502	0	255	0
-9.12825012	6.63731241	1.78337502	0	255	0
-9.12825012	6.63731241	2.09549999	0	255	0
-9.1236248	6.63731241	1.78337502	0	255	0
-9.1236248	6.63731241	1.78337502	0	255	0
-9.1236248	6.63727474	2.09549999	0	255	0
-9.12825012	6.63731241	1.78337502	0	255	0
-9.1236248	6.63727474	1.78337502	0	255	0
-9.13749981	6.63731241	1.62731254	0	255	0
-9.13749981	6.63731241	1.78337502	0	255	0
-9.13287544	6.63731241	1.47125006	0	255	0
-9.13749981	6.63727474	1.62731254	0	255	0
-9.12825012	6.63731241	1.78337502	0	255	0
-9.12825012	6.63731241	1.47125006	0	255	0
-9.13287544	6.63727474	1.47125006	0	255	0
-9.12825012	6.63735008	2.09549999	0	255	0
-9.12825012	6.63735008	1.93943751	0	255	0
-9.11899948	6.63735008	1.93943751	0	255	0
-9.11899948	6.63735008	1.47125006	0	255	0
-9.12825012	6.63727474	1.93943751	0	255	0
-9.11899948	6.63727474	1.93943751	0	255	0
-9.11899948	6.63727474	2.09549999	0	255	0
-9.13749981	6.63723755	1.62731254	0	255	0
-9.13749981	6.63723755	1.47125006	0	255	0
-9.13287544	6.63723755	1.78337502	0	255	0
-9.13749981	6.63719988	1.62731254	0	255	0
-9.12825012	6.63723755	1.47125006	0	255	0
-9.12825012	6.63723755	1.62731254	0	255	0
-9.12825012	6.63719988	2.09549999	0	255	0
-9.12825012	6.63719988	1.62731254	0	255	0
-9.13749981	6.63723755	1.62731254	0	255	0
-9.13749981	6.63723755	1.78337502	0	255	0
-9.13287544	6.63723755	1.47125006	0	255	0
-9.13749981	6.63719988	1.62731254	0	255	0
-9.12825012	6.63723755	1.78337502	0	255	0
-9.13749981	6.63719988	1.78337502	0	255	0
-9.12825012	6.63723755	1.47125006	0	255	0
-9.13287544	6.63719988	1.47125006	0	255	0
-9.12825012	6.63723755	1.47125006	0	255	0
-9.12825012	6.63723755	1.62731254	0	255	0
-9.1236248	6.63723755	1.62731254	0	255	0
-9.12825012	6.63719988	1.62731254	0	255	0
-9.1236248	6.63719988	1.62731254	0	255	0
-9.1236248	6.63719988	1.47125006	0	255	0
-9.14212418	6.63723755	1.31518757	0	255	0
-9.14212418	6.63723755	1.15912509	0	255	0
-9.13749981	6.63723755	1.47125006	0	255	0
-9.13749981	6.63723755	1.31518757	0	255	0
-9.14212418	6.63719988	1.47125006	0	255	0
-9.13749981	6.63719988	1.47125006	0	255	0
-9.13749981	6.63719988	1.31518757	0	255	0
-9.14212418	6.63719988	1.31518757	0	255	0
-9.13749981	6.63731241	1.47125006	0	255	0
-9.13287544	6.63731241	1.15912509	0	255	0
-9.12825012	6.63731241	1.47125006	0	255	0
-9.12825012	6.63731241	1.31518757	0	255	0
-9.12825012	6.63727474	1.31518757	0	255	0
-9.13749981	6.63731241	1.15912509	0	255	0
-9.13749981	6.63727474	1.47125006	0	255	0
-9.13287544	6.63727474	1.15912509	0	255	0
-9.13749981	6.63727474	1.15912509	0	255	0
-9.12825012	6.63731241	1.47125006	0	255	0
-9.1236248	6.63731241	1.15912509	0	255	0
-9.11899948	6.63731241	1.47125006	0	255	0
-9.11899948	6.63727474	1.47125006	0	255	0
-9.12825012	6.63731241	1.15912509	0	255	0
-9.12825012	6.63727474	1.15912509	0	255	0
-9.11899948	6.63731241	1.15912509	0	255	0
-9.11899948	6.63727474	1.15912509	0	255	0
-9.13287544	6.63723755	1.00306249	0	255	0
-9.13287544	6.63723755	1.15912509	0	255	0
-9.12825012	6.63723755	0.847000003	0	255	0
-9.12825012	6.63723755	1.00306249	0	255	0
-9.13287544	6.63719988	0.847000003	0	255	0
-9.12825012	6.63719988	1.00306249	0	255	0
-9.13287544	6.63719988	1.00306249	0	255	0
-9.12825012	6.63723755	1.47125006	0	255	0
-9.1236248	6.63723755	1.15912509	0	255	0
-9.11899948	6.63723755	1.47125006	0	255	0
-9.11899948	6.63719988	1.47125006	0	255	0
-9.12825012	6.63723755	1.15912509	0	255	0
-9.12825012	6.63719988	1.15912509	0	255	0
-9.11899948	6.63723755	1.15912509	0	255	0
-9.1236248	6.63723755	1.00306249	0	255	0
-9.1236248	6.63723755	0.847000003	0	255	0
-9.11899948	6.63723755	1.15912509	0	255	0
-9.11899948	6.63723755	1.00306249	0	255	0
-9.1236248	6.63719988	1.15912509	0	255	0
-9.11899948	6.63719988	1.00306249	0	255	0
-9.1236248	6.63719988	1.00306249	0	255	0
-9.11899948	6.63750029	1.62731254	0	255	0
-9.11437416	6.63750029	1.62731254	0	255	0
-9.11437416	6.63750029	1.47125006	0	255	0
-9.11899948	6.63746262	1.62731254	0	255	0
-9.11437416	6.63746262	1.62731254	0	255	0
-9.11899948	6.63742542	1.78337502	0	255	0
-9.11899948	6.63746262	1.47125006	0	255	0
-9.11437416	6.63750029	1.47125006	0	255	0
-9.11899948	6.63746262	1.47125006	0	255	0
-9.11437416	6.63746262	1.15912509	0	255	0
-9.11437416	6.63750029	1.15912509	0	255	0
-9.11899948	6.63742542	1.47125006	0	255	0
-9.11899948	6.63746262	1.15912509	0	255	0
-9.11899948	6.63746262	1.15912509	0	255	0
-9.10974979	6.63750029	1.15912509	0	255	0
-9.10974979	6.63746262	1.15912509	0	255	0
-9.15600014	6.63719988	3.3440001	0	255	0
-9.11899948	6.63746262	0.847000003	0	255	0
-9.10974979	6.63750029	0.847000003	0	255	0
-9.10974979	6.63746262	0.847000003	0	255	0
-9.10974979	6.63750029	1.47125006	0	255	0
-9.10974979	6.63750029	1.31518757	0	255	0
-9.10050011	6.63750029	1.31518757	0	255	0
-9.10050011	6.63750029	0.847000003	0	255	0
-9.10974979	6.63742542	1.31518757	0	255	0
-9.10050011	6.63742542	1.31518757	0	255	0
-9.10050011	6.63742542	1.47125006	0	255	0
-9.10974979	6.63742542	1.15912509	0	255	0
-9.11437416	6.63742542	1.15912509	0	255	0
-9.11899948	6.63738775	1.15912509	0	255	0
-9.11437416	6.63738775	0.847000003	0	255	0
-9.11899948	6.63742542	0.847000003	0	255	0
-9.11899948	6.63738775	0.847000003	0	255	0
-9.10974979	6.63742542	1.00306249	0	255	0
-9.10974979	6.63738775	1.00306249	0	255	0
-9.10974979	6.63738775	0.847000003	0	255	0
-9.10974979	6.63742542	1.00306249	0	255	0
-9.10974979	6.63738775	1.00306249	0	255	0
-9.10974979	6.63738775	0.847000003	0	255	0
-9.10050011	6.63742542	1.00306249	0	255	0
-9.10050011	6.63742542	0.847000003	0	255	0
-9.10050011	6.63738775	1.00306249	0	255	0
-9.10050011	6.63738775	0.847000003	0	255	0
-9.10050011	6.63735008	1.78337502	0	255	0
-9.09124947	6.63742542	1.62731254	0	255	0
-9.08199978	6.63742542	1.62731254	0	255	0
-9.08199978	6.63742542	1.47125006	0	255	0
-9.09124947	6.63735008	1.62731254	0	255	0
-9.08199978	6.63735008	1.62731254	0	255	0
-9.08199978	6.63735008	2.09549999	0	255	0
-9.09124947	6.63735008	1.47125006	0	255	0
-9.11899948	6.63731241	1.15912509	0	255	0
-9.11899948	6.63731241	1.31518757	0	255	0
-9.11437416	6.63731241	1.31518757	0	255	0
-9.11899948	6.63727474	1.47125006	0	255	0
-9.11899948	6.63727474	1.31518757	0	255	0
-9.11437416	6.63727474	1.31518757	0	255	0
-9.11437416	6.63727474	1.15912509	0	255	0
-9.11899948	6.63731241	1.15912509	0	255	0
-9.11437416	6.63731241	0.847000003	0	255	0
-9.11437416	6.63731241	0.847000003	0	255	0
-9.11437416	6.63727474	1.15912509	0	255	0
-9.11899948	6.63731241	0.847000003	0	255	0
-9.11899948	6.63727474	0.847000003	0	255	0
-9.10974979	6.63731241	1.00306249	0	255	0
-9.10974979	6.63731241	0.847000003	0	255	0
-9.10974979	6.63727474	1.00306249	0	255	0
-9.11899948	6.63719988	1.47125006	0	255	0
-9.10974979	6.63735008	1.47125006	0	255	0
-9.10974979	6.63735008	1.31518757	0	255	0
-9.10050011	6.63735008	1.31518757	0	255	0
-9.11899948	6.63719988	2.09549999	0	255	0
-9.10974979	6.63727474	1.31518757	0	255	0
-9.10050011	6.63727474	1.31518757	0	255	0
-9.10050011	6.63727474	1.47125006	0	255	0
-9.10974979	6.63727474	1.15912509	0	255	0
-9.11899948	6.63723755	1.15912509	0	255	0
-9.11437416	6.63723755	0.847000003	0	255	0
-9.11437416	6.63723755	0.847000003	0	255	0
-9.11437416	6.63719988	1.15912509	0	255	0
-9.11899948	6.63723755	0.847000003	0	255	0
-9.11899948	6.63719988	0.847000003	0	255	0
-9.10974979	6.63723755	1.00306249	0	255	0
-9.10974979	6.63723755	0.847000003	0	255	0
-9.10974979	6.63719988	1.00306249	0	255	0
-9.10974979	6.63719988	0.847000003	0	255	0
