-12.5498753	6.94044971	0.0935000032	0	255	0
-12.5441875	6.94297504	0.134375006	0	255	0
-12.5384998	6.94297504	0.134375006	0	255	0
-12.5384998	6.94297504	0.120750003	0	255	0
-12.5441875	6.94044971	0.134375006	0	255	0
-12.5384998	6.94044971	0.134375006	0	255	0
-12.5384998	6.94044971	0.120750003	0	255	0
-12.5441875	6.94044971	0.120750003	0	255	0
-12.5498753	6.9454999	0.0798750073	0	255	0
-12.5498753	6.9454999	0.120750003	0	255	0
-12.5384998	6.9454999	0.120750003	0	255	0
-12.5384998	6.9454999	0.0798750073	0	255	0
-12.5498753	6.94044971	0.0390000045	0	255	0
-12.5384998	6.94044971	0.120750003	0	255	0
-12.5384998	6.94044971	0.0798750073	0	255	0
-12.5498753	6.94044971	0.0798750073	0	255	0
-12.5498753	6.94044971	0.120750003	0	255	0
-12.5441875	6.94044971	0.120750003	0	255	0
-12.5498753	6.93792486	0.120750003	0	255	0
-12.5441875	6.93792486	0.0935000032	0	255	0
-12.5612497	6.93540001	0.0390000045	0	255	0
-12.5441875	6.94044971	0.0935000032	0	255	0
-12.5498753	6.93540001	0.107124999	0	255	0
-12.5498753	6.93540001	0.0935000032	0	255	0
-12.5384998	6.93792486	0.107124999	0	255	0
-12.5384998	6.93792486	0.0935000032	0	255	0
-12.5384998	6.93540001	0.107124999	0	255	0
-12.5498753	6.9454999	0.0935000032	0	255	0
-12.5498753	6.9454999	0.107124999	0	255	0
-12.5384998	6.9454999	0.107124999	0	255	0
-12.5384998	6.9454999	0.0390000045	0	255	0
-12.5498753	6.93540001	0.107124999	0	255	0
-12.5384998	6.93540001	0.107124999	0	255	0
-12.5384998	6.93540001	0.148000002	0	255	0
-12.5498753	6.93540001	0.0935000032	0	255	0
-12.5669365	6.93034983	0.0526250042	0	255	0
-12.5669365	6.93034983	0.0390000045	0	255	0
-12.5612497	6.93034983	0.0390000045	0	255	0
-12.5612497	6.93034983	0.0526250042	0	255	0
-12.5669365	6.92782497	0.0662500039	0	255	0
-12.5612497	6.92782497	0.0390000045	0	255	0
-12.5612497	6.92782497	0.0526250042	0	255	0
-12.5669365	6.92782497	0.0526250042	0	255	0
-12.5498753	6.93540001	0.148000002	0	255	0
-12.5498753	6.93540001	0.134375006	0	255	0
-12.5384998	6.93540001	0.134375006	0	255	0
-12.5498753	6.93034983	0.134375006	0	255	0
-12.5384998	6.93034983	0.134375006	0	255	0
-12.5384998	6.93034983	0.148000002	0	255	0
-12.5498753	6.93034983	0.120750003	0	255	0
-12.5612497	6.93034983	0.107124999	0	255	0
-12.5612497	6.93034983	0.148000002	0	255	0
-12.555563	6.93034983	0.0935000032	0	255	0
-12.555563	6.93034983	0.107124999	0	255	0
-12.5612497	6.92782497	0.0935000032	0	255	0
-12.555563	6.92782497	0.120750003	0	255	0
-12.555563	6.92782497	0.107124999	0	255	0
-12.5612497	6.92782497	0.107124999	0	255	0
-12.5498753	6.92782497	0.120750003	0	255	0
-12.5498753	6.92782497	0.134375006	0	255	0
-12.5441875	6.92782497	0.134375006	0	255	0
-12.5498753	6.92529964	0.148000002	0	255	0
-12.5498753	6.92529964	0.134375006	0	255	0
-12.5441875	6.92529964	0.134375006	0	255	0
-12.5441875	6.92529964	0.120750003	0	255	0
-12.555563	6.93034983	0.0935000032	0	255	0
-12.555563	6.93034983	0.107124999	0	255	0
-12.5498753	6.93034983	0.107124999	0	255	0
-12.5612497	6.92529964	0.148000002	0	255	0
-12.555563	6.92529964	0.107124999	0	255	0
-12.5498753	6.92529964	0.107124999	0	255	0
-12.555563	6.92529964	0.0935000032	0	255	0
-12.5441875	6.93034983	0.0935000032	0	255	0
-12.5441875	6.93034983	0.107124999	0	255	0
-12.5384998	6.93034983	0.107124999	0	255	0
-12.5384998	6.93034983	0.0935000032	0	255	0
-12.5498753	6.92782497	0.0935000032	0	255	0
-12.5498753	6.92782497	0.107124999	0	255	0
-12.5498753	6.92529964	0.107124999	0	255	0
-12.5384998	6.92529964	0.107124999	0	255	0
-12.5441875	6.93540001	0.0662500039	0	255	0
-12.5441875	6.93540001	0.0798750073	0	255	0
-12.5384998	6.93540001	0.0798750073	0	255	0
-12.5384998	6.93540001	0.0662500039	0	255	0
-12.5441875	6.93287468	0.0662500039	0	255	0
-12.5384998	6.93287468	0.0935000032	0	255	0
-12.5441875	6.93034983	0.0935000032	0	255	0
-12.5384998	6.93034983	0.0662500039	0	255	0
-12.5441875	6.93034983	0.0662500039	0	255	0
-12.5498753	6.93540001	0.0935000032	0	255	0
-12.5498753	6.93540001	0.0798750073	0	255	0
-12.5384998	6.93540001	0.0798750073	0	255	0
-12.5384998	6.93540001	0.0390000045	0	255	0
-12.5498753	6.93034983	0.0798750073	0	255	0
-12.5384998	6.93034983	0.0798750073	0	255	0
-12.5384998	6.93034983	0.0935000032	0	255	0
-12.5498753	6.93034983	0.0662500039	0	255	0
-12.555563	6.93034983	0.0526250042	0	255	0
-12.555563	6.93034983	0.0390000045	0	255	0
-12.5498753	6.93034983	0.0526250042	0	255	0
-12.5498753	6.92782497	0.0390000045	0	255	0
-12.5498753	6.92782497	0.0526250042	0	255	0
-12.5612497	6.92782497	0.0526250042	0	255	0
-12.5612497	6.92782497	0.0390000045	0	255	0
-12.555563	6.92782497	0.0662500039	0	255	0
-12.555563	6.92529964	0.0390000045	0	255	0
-12.555563	6.92529964	0.0526250042	0	255	0
-12.5612497	6.92529964	0.0526250042	0	255	0
-12.5498753	6.93034983	0.0798750073	0	255	0
-12.5498753	6.92782497	0.0935000032	0	255	0
-12.5498753	6.92782497	0.0798750073	0	255	0
-12.5384998	6.93034983	0.0798750073	0	255	0
-12.5441875	6.92529964	0.0935000032	0	255	0
-12.5384998	6.92529964	0.0798750073	0	255	0
-12.5441875	6.92529964	0.0798750073	0	255	0
-12.5328121	6.9454999	0.120750003	0	255	0
-12.5328121	6.9454999	0.134375006	0	255	0
-12.5271244	6.9454999	0.134375006	0	255	0
-12.5328121	6.94297504	0.134375006	0	255	0
-12.5271244	6.94297504	0.134375006	0	255	0
-12.5271244	6.94297504	0.120750003	0	255	0
-12.5384998	6.94044971	0.148000002	0	255	0
-12.5271244	6.9454999	0.148000002	0	255	0
-12.5214367	6.9454999	0.148000002	0	255	0
-12.5271244	6.94297504	0.148000002	0	255	0
-12.5214367	6.94297504	0.120750003	0	255	0
-12.5157499	6.9454999	0.134375006	0	255	0
-12.5157499	6.9454999	0.120750003	0	255	0
-12.5271244	6.94044971	0.134375006	0	255	0
-12.5157499	6.94044971	0.134375006	0	255	0
-12.5157499	6.94044971	0.120750003	0	255	0
-12.5384998	6.9454999	0.120750003	0	255	0
-12.5328121	6.9454999	0.120750003	0	255	0
-12.5384998	6.9454999	0.0935000032	0	255	0
-12.5271244	6.9454999	0.107124999	0	255	0
-12.5271244	6.9454999	0.0935000032	0	255	0
-12.5328121	6.94297504	0.0935000032	0	255	0
-12.5271244	6.94297504	0.120750003	0	255	0
-12.5271244	6.9454999	0.148000002	0	255	0
-12.5271244	6.9454999	0.134375006	0	255	0
-12.5157499	6.9454999	0.134375006	0	255	0
-12.5271244	6.94044971	0.134375006	0	255	0
-12.5157499	6.94044971	0.134375006	0	255	0
-12.5157499	6.94044971	0.148000002	0	255	0
-12.5328121	6.94044971	0.120750003	0	255	0
-12.5384998	6.93792486	0.120750003	0	255	0
-12.5328121	6.93792486	0.0935000032	0	255	0
-12.5384998	6.93792486	0.0935000032	0	255	0
-12.5271244	6.94044971	0.107124999	0	255	0
-12.5271244	6.93792486	0.107124999	0	255	0
-12.5271244	6.93792486	0.0935000032	0	255	0
-12.5214367	6.94044971	0.120750003	0	255	0
-12.5271244	6.93792486	0.120750003	0	255	0
-12.5214367	6.93792486	0.0935000032	0	255	0
-12.5157499	6.94044971	0.107124999	0	255	0
-12.5157499	6.94044971	0.0935000032	0	255	0
-12.5157499	6.93792486	0.107124999	0	255	0
-12.5157499	6.93792486	0.0935000032	0	255	0
-12.5271244	6.93540001	0.107124999	0	255	0
-12.5214367	6.93540001	0.107124999	0	255	0
-12.5214367	6.93540001	0.0935000032	0	255	0
-12.5271244	6.93540001	0.0935000032	0	255	0
-12.5157499	6.9454999	0.120750003	0	255	0
-12.5157499	6.9454999	0.134375006	0	255	0
-12.5100632	6.9454999	0.134375006	0	255	0
-12.5100632	6.9454999	0.120750003	0	255	0
-12.5157499	6.94044971	0.134375006	0	255	0
-12.5100632	6.94044971	0.134375006	0	255	0
-12.5100632	6.94044971	0.120750003	0	255	0
-12.5157499	6.9454999	0.107124999	0	255	0
-12.5100632	6.9454999	0.107124999	0	255	0
-12.5100632	6.9454999	0.0935000032	0	255	0
-12.5157499	6.94044971	0.107124999	0	255	0
-12.5157499	6.94044971	0.0935000032	0	255	0
-12.5043755	6.94297504	0.107124999	0	255	0
-12.5043755	6.94297504	0.0935000032	0	255	0
-12.5043755	6.94044971	0.107124999	0	255	0
-12.5157499	6.93540001	0.0390000045	0	255	0
-12.5384998	6.9454999	0.0662500039	0	255	0
-12.5384998	6.9454999	0.0798750073	0	255	0
-12.5271244	6.9454999	0.0798750073	0	255	0
-12.5384998	6.94044971	0.0798750073	0	255	0
-12.5384998	6.94044971	0.0662500039	0	255	0
-12.5271244	6.94044971	0.0798750073	0	255	0
-12.5214367	6.9454999	0.0935000032	0	255	0
-12.5157499	6.9454999	0.0798750073	0	255	0
-12.5271244	6.9454999	0.0798750073	0	255	0
-12.5214367	6.9454999	0.0662500039	0	255	0
-12.5271244	6.94297504	0.0935000032	0	255	0
-12.5214367	6.94297504	0.0662500039	0	255	0
-12.5157499	6.94297504	0.0662500039	0	255	0
-12.5384998	6.94044971	0.0526250042	0	255	0
-12.5271244	6.94044971	0.0526250042	0	255	0
-12.5328121	6.93792486	0.0662500039	0	255	0
-12.5384998	6.93540001	0.0526250042	0	255	0
-12.5271244	6.93540001	0.0526250042	0	255	0
-12.5271244	6.94044971	0.0798750073	0	255	0
-12.5214367	6.94044971	0.0662500039	0	255	0
-12.5157499	6.93792486	0.0662500039	0	255	0
-12.5214367	6.93792486	0.0662500039	0	255	0
-12.5271244	6.93540001	0.0798750073	0	255	0
-12.5157499	6.93540001	0.0798750073	0	255	0
-12.5328121	6.94044971	0.0526250042	0	255	0
-12.5328121	6.94044971	0.0662500039	0	255	0
-12.5271244	6.94044971	0.0526250042	0	255	0
-12.5384998	6.93792486	0.0526250042	0	255	0
-12.5384998	6.93792486	0.0662500039	0	255	0
-12.5328121	6.93792486	0.0390000045	0	255	0
-12.5384998	6.93540001	0.0526250042	0	255	0
-12.5271244	6.93540001	0.0662500039	0	255	0
-12.5271244	6.93540001	0.0526250042	0	255	0
-12.5271244	6.94044971	0.0526250042	0	255	0
-12.5157499	6.94044971	0.0526250042	0	255	0
-12.5214367	6.93792486	0.0390000045	0	255	0
-12.5271244	6.93540001	0.0526250042	0	255	0
-12.5157499	6.93540001	0.0662500039	0	255	0
-12.5157499	6.93540001	0.0526250042	0	255	0
-12.5157499	6.9454999	0.0526250005	0	255	0
-12.5157499	6.9454999	0.0935000032	0	255	0
-12.493	6.9454999	0.0935000032	0	255	0
-12.493	6.94044971	0.0935000032	0	255	0
-12.5043755	6.9454999	0.0117499977	0	255	0
-12.493	6.9454999	0.0117499977	0	255	0
-12.493	6.94044971	0.0117499977	0	255	0
-12.5157499	6.93540001	-0.0700000003	0	255	0
-12.5043755	6.94044971	0.0117499977	0	255	0
-12.5043755	6.93540001	0.0935000032	0	255	0
-12.5043755	6.93540001	0.0526250005	0	255	0
-12.5157499	6.93540001	0.0526250005	0	255	0
-12.5328121	6.93540001	0.0526250042	0	255	0
-12.5328121	6.93540001	0.0390000045	0	255	0
-12.5271244	6.93540001	0.0390000045	0	255	0
-12.5271244	6.93540001	0.0526250042	0	255	0
-12.5384998	6.93287468	0.0526250042	0	255	0
-12.5384998	6.93287468	0.0390000045	0	255	0
-12.5328121	6.93287468	0.0662500039	0	255	0
-12.5384998	6.93034983	0.0526250042	0	255	0
-12.5271244	6.93034983	0.0526250042	0	255	0
-12.5384998	6.93034983	0.0798750073	0	255	0
-12.5384998	6.93034983	0.0390000045	0	255	0
-12.5271244	6.93034983	0.0798750073	0	255	0
-12.5328121	6.92782497	0.0662500039	0	255	0
-12.5384998	6.92529964	0.0798750073	0	255	0
-12.5271244	6.92529964	0.0390000045	0	255	0
-12.5271244	6.92529964	0.0798750073	0	255	0
-12.5271244	6.93034983	0.0526250042	0	255	0
-12.5214367	6.93034983	0.0390000045	0	255	0
-12.5214367	6.93034983	0.0526250042	0	255	0
-12.5271244	6.92782497	0.0390000045	0	255	0
-12.5214367	6.92782497	0.0662500039	0	255	0
-12.5214367	6.92782497	0.0526250042	0	255	0
-12.5271244	6.92782497	0.0526250042	0	255	0
-12.5100632	6.93540001	0.0935000032	0	255	0
-12.5100632	6.93540001	0.107124999	0	255	0
-12.5043755	6.93540001	0.107124999	0	255	0
-12.5043755	6.93540001	0.0935000032	0	255	0
-12.5100632	6.93287468	0.107124999	0	255	0
-12.5043755	6.93287468	0.107124999	0	255	0
-12.5043755	6.93287468	0.0935000032	0	255	0
-12.5157499	6.93034983	0.120750003	0	255	0
-12.5384998	6.93540001	0.0935000032	0	255	0
-12.5271244	6.93287468	0.0662500039	0	255	0
-12.5328121	6.93287468	0.0662500039	0	255	0
-12.5271244	6.93034983	0.0390000045	0	255	0
-12.5271244	6.93034983	0.0798750073	0	255	0
-12.5328121	6.93034983	0.0662500039	0	255	0
-12.5384998	6.93034983	0.0662500039	0	255	0
-12.5271244	6.93540001	0.0798750073	0	255	0
-12.5271244	6.93287468	0.0935000032	0	255	0
-12.5271244	6.93287468	0.0798750073	0	255	0
-12.5157499	6.93540001	0.0798750073	0	255	0
-12.5157499	6.93287468	0.0935000032	0	255	0
-12.5157499	6.93287468	0.0798750073	0	255	0
-12.5384998	6.93540001	0.0526250042	0	255	0
-12.5271244	6.93540001	0.0526250042	0	255	0
-12.5328121	6.93287468	0.0390000045	0	255	0
-12.5384998	6.93034983	0.0526250042	0	255	0
-12.5271244	6.93034983	0.0526250042	0	255	0
-12.5271244	6.93540001	0.0935000032	0	255	0
-12.5271244	6.93540001	0.0798750073	0	255	0
-12.5157499	6.93540001	0.0798750073	0	255	0
-12.5271244	6.93034983	0.0798750073	0	255	0
-12.5157499	6.93034983	0.0798750073	0	255	0
-12.5157499	6.93034983	0.0935000032	0	255	0
-12.5384998	6.93034983	0.0526250042	0	255	0
-12.5328121	6.93034983	0.0390000045	0	255	0
-12.5328121	6.93034983	0.0526250042	0	255	0
-12.5328121	6.92782497	0.0662500039	0	255	0
-12.5384998	6.92529964	0.0526250042	0	255	0
-12.5271244	6.92782497	0.0390000045	0	255	0
-12.5271244	6.92782497	0.0526250042	0	255	0
-12.5271244	6.92529964	0.0935000032	0	255	0
-12.5271244	6.92529964	0.0526250042	0	255	0
-12.5498753	6.94044971	-0.0154999979	0	255	0
-12.5441875	6.94297504	0.0253750049	0	255	0
-12.5384998	6.94297504	0.0253750049	0	255	0
-12.5384998	6.94297504	0.0117500033	0	255	0
-12.5441875	6.94044971	0.0253750049	0	255	0
-12.5384998	6.94044971	0.0253750049	0	255	0
-12.5384998	6.94044971	0.0117500033	0	255	0
-12.5441875	6.94044971	0.0117500033	0	255	0
-12.5498753	6.93792486	-0.00187499728	0	255	0
-12.5498753	6.93792486	0.0117500033	0	255	0
-12.5441875	6.93792486	-0.0154999979	0	255	0
-12.5498753	6.93540001	-0.00187499728	0	255	0
-12.5384998	6.93792486	0.0117500033	0	255	0
-12.5384998	6.93792486	-0.00187499728	0	255	0
-12.5384998	6.93540001	0.0117500033	0	255	0
-12.5384998	6.93540001	-0.00187499728	0	255	0
-12.5384998	6.9454999	0.148000002	0	255	0
-12.5384998	6.9454999	0.0526250042	0	255	0
-12.5157499	6.9454999	0.0526250042	0	255	0
-12.5157499	6.9454999	0.0390000045	0	255	0
-12.5384998	6.93540001	0.0526250042	0	255	0
-12.5384998	6.93540001	0.0390000045	0	255	0
-12.5157499	6.93540001	0.0526250042	0	255	0
-12.5157499	6.9454999	0.0935000032	0	255	0
-12.5157499	6.9454999	0.0798750073	0	255	0
-12.493	6.9454999	0.0798750073	0	255	0
-12.493	6.9454999	-0.0700000003	0	255	0
-12.5157499	6.93540001	0.0798750073	0	255	0
-12.493	6.93540001	0.0798750073	0	255	0
-12.493	6.93540001	0.0935000032	0	255	0
-12.5157499	6.93540001	0.0662500039	0	255	0
-12.5271244	6.93540001	0.0390000045	0	255	0
-12.5271244	6.93540001	0.0526250042	0	255	0
-12.5157499	6.93540001	0.0526250042	0	255	0
-12.5271244	6.93034983	0.0526250042	0	255	0
-12.5157499	6.93034983	0.0526250042	0	255	0
-12.5157499	6.93034983	0.0390000045	0	255	0
-12.5384998	6.92529964	0.0662500039	0	255	0
-12.5726242	6.92277479	-0.0563750006	0	255	0
-12.5726242	6.92277479	-0.0700000003	0	255	0
-12.5669365	6.92277479	-0.042750001	0	255	0
-12.5669365	6.92277479	-0.0563750006	0	255	0
-12.5669365	6.92277479	-0.042750001	0	255	0
-12.5669365	6.92024994	-0.0700000003	0	255	0
-12.5669365	6.92024994	-0.0563750006	0	255	0
-12.5726242	6.92024994	-0.0563750006	0	255	0
-12.5669365	6.91772461	-0.0563750006	0	255	0
-12.5669365	6.91772461	-0.042750001	0	255	0
-12.5612497	6.91772461	-0.0700000003	0	255	0
-12.5612497	6.91772461	-0.0563750006	0	255	0
-12.5669365	6.91519976	-0.0700000003	0	255	0
-12.5612497	6.91519976	-0.0563750006	0	255	0
-12.5669365	6.91519976	-0.0563750006	0	255	0
-12.5612497	6.92529964	-0.0563750006	0	255	0
-12.5612497	6.92529964	-0.0700000003	0	255	0
-12.5498753	6.92529964	-0.0563750006	0	255	0
-12.555563	6.92277479	-0.042750001	0	255	0
-12.5612497	6.92024994	-0.0563750006	0	255	0
-12.5498753	6.92024994	-0.0563750006	0	255	0
-12.5498753	6.92529964	-0.0563750006	0	255	0
-12.5384998	6.92529964	-0.0563750006	0	255	0
-12.5441875	6.92277479	-0.042750001	0	255	0
-12.5498753	6.92024994	-0.0563750006	0	255	0
-12.5384998	6.92024994	-0.0563750006	0	255	0
-12.5612497	6.92024994	-0.0291249994	0	255	0
-12.5612497	6.92024994	-0.0700000003	0	255	0
-12.5498753	6.92024994	-0.0291249994	0	255	0
-12.555563	6.91772461	-0.042750001	0	255	0
-12.5612497	6.91519976	-0.0291249994	0	255	0
-12.5498753	6.91519976	-0.0700000003	0	255	0
-12.5498753	6.91519976	-0.0291249994	0	255	0
-12.5498753	6.92024994	-0.0563750006	0	255	0
-12.5384998	6.92024994	-0.0563750006	0	255	0
-12.5441875	6.91772461	-0.042750001	0	255	0
-12.5498753	6.91519976	-0.0563750006	0	255	0
-12.5384998	6.91519976	-0.0563750006	0	255	0
-12.5783119	6.9126749	0.0253750049	0	255	0
-12.5783119	6.9126749	0.0117500033	0	255	0
-12.5726242	6.9126749	0.0390000045	0	255	0
-12.5726242	6.9126749	0.0253750049	0	255	0
-12.5783119	6.91014957	0.0390000045	0	255	0
-12.5726242	6.91014957	0.0253750049	0	255	0
-12.5783119	6.91014957	0.0253750049	0	255	0
-12.5726242	6.91519976	0.0253750049	0	255	0
-12.5726242	6.91519976	0.0390000045	0	255	0
-12.5612497	6.91519976	0.0253750049	0	255	0
-12.5669365	6.9126749	0.0117500033	0	255	0
-12.5726242	6.91014957	0.0253750049	0	255	0
-12.5612497	6.91014957	0.0253750049	0	255	0
-12.5839996	6.91014957	-0.00187499728	0	255	0
-12.5839996	6.91014957	0.0390000045	0	255	0
-12.5783119	6.91014957	-0.0154999979	0	255	0
-12.5783119	6.91014957	-0.00187499728	0	255	0
-12.5839996	6.90762472	-0.0154999979	0	255	0
-12.5783119	6.90762472	0.0117500033	0	255	0
-12.5783119	6.90762472	-0.00187499728	0	255	0
-12.5839996	6.90762472	-0.00187499728	0	255	0
-12.5726242	6.91014957	0.0253750049	0	255	0
-12.5612497	6.91014957	0.0253750049	0	255	0
-12.5669365	6.90762472	0.0117500033	0	255	0
-12.5726242	6.90509987	0.0253750049	0	255	0
-12.5612497	6.90509987	-0.0700000003	0	255	0
-12.5612497	6.90509987	0.0253750049	0	255	0
-12.5612497	6.91519976	-0.0563750006	0	255	0
-12.5498753	6.91519976	-0.0563750006	0	255	0
-12.555563	6.9126749	-0.042750001	0	255	0
-12.5612497	6.91014957	-0.0563750006	0	255	0
-12.5498753	6.91014957	-0.0563750006	0	255	0
-12.5498753	6.91519976	-0.0563750006	0	255	0
-12.5384998	6.91519976	-0.0563750006	0	255	0
-12.5441875	6.9126749	-0.042750001	0	255	0
-12.5498753	6.91014957	-0.0563750006	0	255	0
-12.5384998	6.91014957	-0.0563750006	0	255	0
-12.5612497	6.91014957	-0.0291249994	0	255	0
-12.5612497	6.91014957	-0.0700000003	0	255	0
-12.5498753	6.91014957	-0.0291249994	0	255	0
-12.555563	6.90762472	-0.042750001	0	255	0
-12.5612497	6.90509987	-0.0291249994	0	255	0
-12.5498753	6.90509987	-0.0700000003	0	255	0
-12.5498753	6.90509987	-0.0291249994	0	255	0
-12.5498753	6.91014957	-0.0563750006	0	255	0
-12.5384998	6.91014957	-0.0563750006	0	255	0
-12.5441875	6.90762472	-0.042750001	0	255	0
-12.5498753	6.90509987	-0.0563750006	0	255	0
-12.5384998	6.90509987	-0.0563750006	0	255	0
-12.5384998	6.92529964	0.107124999	0	255	0
-12.5271244	6.92529964	0.107124999	0	255	0
-12.5271244	6.92529964	0.0935000032	0	255	0
-12.5384998	6.92024994	0.107124999	0	255	0
-12.5271244	6.92024994	0.107124999	0	255	0
-12.5271244	6.92529964	0.148000002	0	255	0
-12.5271244	6.92529964	0.134375006	0	255	0
-12.5157499	6.92529964	0.134375006	0	255	0
-12.5271244	6.92024994	0.134375006	0	255	0
-12.5157499	6.92024994	0.134375006	0	255	0
-12.5157499	6.92024994	0.148000002	0	255	0
-12.5384998	6.91772461	0.107124999	0	255	0
-12.5384998	6.91772461	0.0935000032	0	255	0
-12.5328121	6.91772461	0.120750003	0	255	0
-12.5384998	6.91519976	0.107124999	0	255	0
-12.5271244	6.91772461	0.0935000032	0	255	0
-12.5271244	6.91772461	0.107124999	0	255	0
-12.5271244	6.91519976	0.148000002	0	255	0
-12.5271244	6.91519976	0.107124999	0	255	0
-12.5271244	6.92024994	0.107124999	0	255	0
-12.5271244	6.91772461	0.120750003	0	255	0
-12.5328121	6.92024994	0.0935000032	0	255	0
-12.5328121	6.91772461	0.0935000032	0	255	0
-12.5328121	6.91519976	0.120750003	0	255	0
-12.5384998	6.91519976	0.0935000032	0	255	0
-12.5271244	6.91772461	0.0935000032	0	255	0
-12.5271244	6.91519976	0.107124999	0	255	0
-12.5271244	6.91519976	0.0935000032	0	255	0
-12.5271244	6.92024994	0.107124999	0	255	0
-12.5214367	6.92024994	0.120750003	0	255	0
-12.5214367	6.92024994	0.107124999	0	255	0
-12.5271244	6.91772461	0.120750003	0	255	0
-12.5214367	6.91772461	0.0935000032	0	255	0
-12.5214367	6.91772461	0.107124999	0	255	0
-12.5271244	6.91772461	0.107124999	0	255	0
-12.5384998	6.92529964	0.0798750073	0	255	0
-12.5271244	6.92529964	0.0798750073	0	255	0
-12.5328121	6.92277479	0.0662500039	0	255	0
-12.5384998	6.92024994	0.0798750073	0	255	0
-12.5271244	6.92024994	0.0798750073	0	255	0
-12.5271244	6.92529964	0.0798750073	0	255	0
-12.5157499	6.92529964	0.0798750073	0	255	0
-12.5157499	6.92277479	0.0935000032	0	255	0
-12.5157499	6.92277479	0.0798750073	0	255	0
-12.5214367	6.92277479	0.0662500039	0	255	0
-12.5214367	6.92024994	0.0935000032	0	255	0
-12.5214367	6.92024994	0.0798750073	0	255	0
-12.5271244	6.92024994	0.0798750073	0	255	0
-12.5384998	6.92277479	0.0526250042	0	255	0
-12.5384998	6.92277479	0.0662500039	0	255	0
-12.5328121	6.92277479	0.0390000045	0	255	0
-12.5384998	6.92024994	0.0526250042	0	255	0
-12.5271244	6.92277479	0.0662500039	0	255	0
-12.5271244	6.92277479	0.0526250042	0	255	0
-12.5271244	6.92024994	0.0526250042	0	255	0
-12.5271244	6.92529964	0.0935000032	0	255	0
-12.5271244	6.92529964	0.0798750073	0	255	0
-12.5157499	6.92529964	0.0798750073	0	255	0
-12.5157499	6.92529964	0.0390000045	0	255	0
-12.5271244	6.92024994	0.0798750073	0	255	0
-12.5157499	6.92024994	0.0798750073	0	255	0
-12.5157499	6.92024994	0.0935000032	0	255	0
-12.5384998	6.92024994	0.0526250042	0	255	0
-12.5384998	6.92024994	0.0935000032	0	255	0
-12.5271244	6.92024994	0.0526250042	0	255	0
-12.5328121	6.91772461	0.0662500039	0	255	0
-12.5384998	6.91519976	0.0526250042	0	255	0
-12.5271244	6.91519976	0.0935000032	0	255	0
-12.5271244	6.91519976	0.0526250042	0	255	0
-12.5271244	6.92024994	0.0798750073	0	255	0
-12.5214367	6.92024994	0.0935000032	0	255	0
-12.5214367	6.92024994	0.0798750073	0	255	0
-12.5271244	6.91772461	0.0935000032	0	255	0
-12.5214367	6.91772461	0.0662500039	0	255	0
-12.5214367	6.91772461	0.0798750073	0	255	0
-12.5271244	6.91772461	0.0798750073	0	255	0
-12.5384998	6.92024994	0.0526250042	0	255	0
-12.5384998	6.92024994	0.0662500039	0	255	0
-12.5271244	6.92024994	0.0526250042	0	255	0
-12.5328121	6.91772461	0.0390000045	0	255	0
-12.5271244	6.91519976	0.0662500039	0	255	0
-12.5271244	6.91519976	0.0526250042	0	255	0
-12.5384998	6.91772461	0.0390000045	0	255	0
-12.5384998	6.91519976	0.0662500039	0	255	0
-12.5328121	6.91519976	0.0390000045	0	255	0
-12.5271244	6.92024994	0.0526250042	0	255	0
-12.5214367	6.92024994	0.0662500039	0	255	0
-12.5214367	6.92024994	0.0526250042	0	255	0
-12.5214367	6.91772461	0.0390000045	0	255	0
-12.5214367	6.91519976	0.0662500039	0	255	0
-12.5214367	6.91519976	0.0526250042	0	255	0
-12.5271244	6.91519976	0.0526250042	0	255	0
-12.5384998	6.91519976	0.0526250042	0	255	0
-12.5271244	6.91519976	0.0390000045	0	255	0
-12.5271244	6.91519976	0.0526250042	0	255	0
-12.5271244	6.9126749	0.0390000045	0	255	0
-12.5271244	6.9126749	0.0526250042	0	255	0
-12.5328121	6.9126749	0.0662500039	0	255	0
-12.5328121	6.91014957	0.0390000045	0	255	0
-12.5328121	6.91014957	0.0526250042	0	255	0
-12.5384998	6.91014957	0.0526250042	0	255	0
-12.5271244	6.9126749	0.0526250042	0	255	0
-12.5271244	6.9126749	0.0390000045	0	255	0
-12.5214367	6.9126749	0.0662500039	0	255	0
-12.5214367	6.9126749	0.0526250042	0	255	0
-12.5214367	6.9126749	0.0662500039	0	255	0
-12.5214367	6.91014957	0.0390000045	0	255	0
-12.5214367	6.91014957	0.0526250042	0	255	0
-12.5271244	6.91014957	0.0526250042	0	255	0
-12.5384998	6.90762472	0.0798750073	0	255	0
-12.5384998	6.90762472	0.0935000032	0	255	0
-12.5328121	6.90762472	0.0662500039	0	255	0
-12.5328121	6.90762472	0.0798750073	0	255	0
-12.5328121	6.90762472	0.0662500039	0	255	0
-12.5328121	6.90509987	0.0935000032	0	255	0
-12.5328121	6.90509987	0.0798750073	0	255	0
-12.5384998	6.90509987	0.0798750073	0	255	0
-12.5384998	6.91519976	0.0662500039	0	255	0
-12.5384998	6.91519976	0.0798750073	0	255	0
-12.5328121	6.91519976	0.0798750073	0	255	0
-12.5328121	6.91519976	0.0662500039	0	255	0
-12.5384998	6.9126749	0.0662500039	0	255	0
-12.5384998	6.9126749	0.0935000032	0	255	0
-12.5328121	6.9126749	0.0662500039	0	255	0
-12.5328121	6.9126749	0.0662500039	0	255	0
-12.5328121	6.91014957	0.0935000032	0	255	0
-12.5328121	6.91014957	0.0798750073	0	255	0
-12.5384998	6.91014957	0.0798750073	0	255	0
-12.5328121	6.91519976	0.0662500039	0	255	0
-12.5271244	6.91519976	0.0662500039	0	255	0
-12.5328121	6.9126749	0.0390000045	0	255	0
-12.5271244	6.9126749	0.0662500039	0	255	0
-12.5384998	6.91519976	0.0526250042	0	255	0
-12.5384998	6.9126749	0.0526250042	0	255	0
-12.5384998	6.9126749	0.0390000045	0	255	0
-12.5271244	6.91519976	0.0390000045	0	255	0
-12.5328121	6.91014957	0.0526250042	0	255	0
-12.5271244	6.91014957	0.0526250042	0	255	0
-12.5384998	6.90509987	0.0935000032	0	255	0
-12.5328121	6.91014957	0.0390000045	0	255	0
-12.5271244	6.91519976	0.0935000032	0	255	0
-12.5271244	6.91519976	0.0798750073	0	255	0
-12.5157499	6.91519976	0.0798750073	0	255	0
-12.5271244	6.91014957	0.0798750073	0	255	0
-12.5157499	6.91014957	0.0798750073	0	255	0
-12.5157499	6.91014957	0.0935000032	0	255	0
-12.5271244	6.91014957	0.0662500039	0	255	0
-12.5384998	6.91014957	0.0526250042	0	255	0
-12.5328121	6.91014957	0.0390000045	0	255	0
-12.5328121	6.91014957	0.0526250042	0	255	0
-12.5328121	6.90762472	0.0662500039	0	255	0
-12.5328121	6.90509987	0.0390000045	0	255	0
-12.5328121	6.90509987	0.0526250042	0	255	0
-12.5384998	6.90509987	0.0526250042	0	255	0
-12.5384998	6.90762472	0.0390000045	0	255	0
-12.5384998	6.90762472	0.0526250042	0	255	0
-12.5328121	6.90762472	0.0526250042	0	255	0
-12.5384998	6.90509987	0.0662500039	0	255	0
-12.5384998	6.90509987	0.0526250042	0	255	0
-12.5328121	6.90509987	0.0526250042	0	255	0
-12.5328121	6.90509987	0.0390000045	0	255	0
-12.5498753	6.92277479	0.0117500033	0	255	0
-12.5498753	6.92277479	0.0253750049	0	255	0
-12.5498753	6.92024994	0.0253750049	0	255	0
-12.5384998	6.92277479	0.0253750049	0	255	0
-12.5384998	6.92277479	0.0117500033	0	255	0
-12.5384998	6.92024994	0.0253750049	0	255	0
-12.5498753	6.92529964	-0.0291249994	0	255	0
-12.5498753	6.92529964	0.0117500033	0	255	0
-12.5384998	6.92529964	0.0117500033	0	255	0
-12.5384998	6.92529964	-0.0291249994	0	255	0
-12.5498753	6.92024994	-0.0700000003	0	255	0
-12.5384998	6.92024994	0.0117500033	0	255	0
-12.5384998	6.92024994	-0.0291249994	0	255	0
-12.5498753	6.92024994	-0.0291249994	0	255	0
-12.555563	6.92024994	-0.00187499728	0	255	0
-12.555563	6.92024994	-0.0154999979	0	255	0
-12.5498753	6.92024994	-0.00187499728	0	255	0
-12.555563	6.91772461	0.0117500033	0	255	0
-12.5498753	6.91772461	-0.0154999979	0	255	0
-12.5498753	6.91772461	-0.00187499728	0	255	0
-12.555563	6.91772461	-0.00187499728	0	255	0
-12.5498753	6.92024994	0.0253750049	0	255	0
-12.5498753	6.91772461	0.0253750049	0	255	0
-12.5498753	6.91772461	0.0117500033	0	255	0
-12.5384998	6.92024994	0.0253750049	0	255	0
-12.5384998	6.91772461	0.0253750049	0	255	0
-12.5384998	6.91772461	0.0117500033	0	255	0
-12.555563	6.92024994	-0.0154999979	0	255	0
-12.555563	6.92024994	-0.00187499728	0	255	0
-12.5498753	6.92024994	-0.00187499728	0	255	0
-12.5612497	6.91519976	-0.0700000003	0	255	0
-12.5498753	6.91772461	-0.0154999979	0	255	0
-12.5612497	6.91519976	0.0117500033	0	255	0
-12.5612497	6.91772461	-0.00187499728	0	255	0
-12.5612497	6.91772461	0.0117500033	0	255	0
-12.555563	6.91772461	-0.0154999979	0	255	0
-12.5612497	6.91519976	-0.00187499728	0	255	0
-12.5498753	6.91772461	0.0117500033	0	255	0
-12.5498753	6.91519976	-0.00187499728	0	255	0
-12.5441875	6.92024994	-0.0154999979	0	255	0
-12.5441875	6.92024994	-0.00187499728	0	255	0
-12.5384998	6.92024994	-0.00187499728	0	255	0
-12.5384998	6.92024994	-0.0154999979	0	255	0
-12.5384998	6.91772461	-0.0154999979	0	255	0
-12.5441875	6.91772461	-0.0154999979	0	255	0
-12.5384998	6.91772461	0.0117500033	0	255	0
-12.5441875	6.91519976	0.0117500033	0	255	0
-12.5384998	6.91519976	0.0117500033	0	255	0
-12.5384998	6.91519976	-0.00187499728	0	255	0
-12.5441875	6.91519976	-0.00187499728	0	255	0
-12.5783119	6.90762472	-0.0291249994	0	255	0
-12.5783119	6.90762472	-0.042750001	0	255	0
-12.5726242	6.90762472	-0.0154999979	0	255	0
-12.5726242	6.90762472	-0.0291249994	0	255	0
-12.5783119	6.90509987	-0.0154999979	0	255	0
-12.5726242	6.90509987	-0.0700000003	0	255	0
-12.5726242	6.90509987	-0.0291249994	0	255	0
-12.5783119	6.90509987	-0.0291249994	0	255	0
-12.5669365	6.91014957	-0.0563750006	0	255	0
-12.5669365	6.91014957	-0.0700000003	0	255	0
-12.5612497	6.91014957	-0.0700000003	0	255	0
-12.5612497	6.91014957	-0.0563750006	0	255	0
-12.5612497	6.90762472	-0.0700000003	0	255	0
-12.5612497	6.90762472	-0.0563750006	0	255	0
-12.5726242	6.90762472	-0.0563750006	0	255	0
-12.5726242	6.90762472	-0.0700000003	0	255	0
-12.5669365	6.90762472	-0.042750001	0	255	0
-12.5669365	6.90509987	-0.0700000003	0	255	0
-12.5669365	6.90509987	-0.0563750006	0	255	0
-12.5726242	6.90509987	-0.0563750006	0	255	0
-12.5612497	6.9126749	0.0253750049	0	255	0
-12.5612497	6.9126749	0.0390000045	0	255	0
-12.555563	6.9126749	0.0117500033	0	255	0
-12.5612497	6.91014957	0.0253750049	0	255	0
-12.5498753	6.9126749	0.0390000045	0	255	0
-12.5498753	6.9126749	0.0253750049	0	255	0
-12.5498753	6.91014957	0.0253750049	0	255	0
-12.5498753	6.9126749	0.0253750049	0	255	0
-12.5498753	6.9126749	0.0390000045	0	255	0
-12.5441875	6.9126749	0.0117500033	0	255	0
-12.5498753	6.91014957	0.0253750049	0	255	0
-12.5384998	6.9126749	0.0390000045	0	255	0
-12.5384998	6.9126749	0.0253750049	0	255	0
-12.5384998	6.91014957	0.0253750049	0	255	0
-12.5498753	6.91519976	0.0390000045	0	255	0
-12.5498753	6.91519976	0.0253750049	0	255	0
-12.5384998	6.91519976	0.0253750049	0	255	0
-12.5384998	6.91519976	-0.0154999979	0	255	0
-12.5498753	6.91014957	0.0253750049	0	255	0
-12.5384998	6.91014957	0.0253750049	0	255	0
-12.5384998	6.91014957	0.0390000045	0	255	0
-12.5498753	6.91014957	0.0117500033	0	255	0
-12.5612497	6.91014957	-0.00187499728	0	255	0
-12.5612497	6.91014957	0.0390000045	0	255	0
-12.5498753	6.91014957	-0.00187499728	0	255	0
-12.555563	6.90762472	0.0117500033	0	255	0
-12.5612497	6.90509987	-0.00187499728	0	255	0
-12.5498753	6.90509987	-0.00187499728	0	255	0
-12.5498753	6.91014957	0.0253750049	0	255	0
-12.5384998	6.91014957	0.0253750049	0	255	0
-12.5441875	6.90762472	0.0117500033	0	255	0
-12.5384998	6.90509987	0.0253750049	0	255	0
-12.5498753	6.90762472	0.0117500033	0	255	0
-12.5441875	6.90509987	0.0117500033	0	255	0
-12.5498753	6.90509987	0.0117500033	0	255	0
-12.5783119	6.91014957	-0.0563750006	0	255	0
-12.5783119	6.91014957	-0.0700000003	0	255	0
-12.5726242	6.91014957	-0.0700000003	0	255	0
-12.5726242	6.91014957	-0.0563750006	0	255	0
-12.5783119	6.90762472	-0.042750001	0	255	0
-12.5726242	6.90762472	-0.0700000003	0	255	0
-12.5726242	6.90762472	-0.0563750006	0	255	0
-12.5783119	6.90762472	-0.0563750006	0	255	0
-12.5726242	6.90762472	-0.0291249994	0	255	0
-12.5726242	6.90762472	-0.0154999979	0	255	0
-12.5669365	6.90762472	-0.042750001	0	255	0
-12.5669365	6.90762472	-0.0291249994	0	255	0
-12.5669365	6.90762472	-0.042750001	0	255	0
-12.5669365	6.90509987	-0.0154999979	0	255	0
-12.5669365	6.90509987	-0.0291249994	0	255	0
-12.5726242	6.90509987	-0.0291249994	0	255	0
-12.5612497	6.90762472	-0.0563750006	0	255	0
-12.5612497	6.90762472	-0.0700000003	0	255	0
-12.555563	6.90762472	-0.042750001	0	255	0
-12.5612497	6.90509987	-0.0563750006	0	255	0
-12.5498753	6.90762472	-0.0700000003	0	255	0
-12.5498753	6.90762472	-0.0563750006	0	255	0
-12.5498753	6.90509987	-0.0563750006	0	255	0
-12.5498753	6.90762472	-0.0154999979	0	255	0
-12.5441875	6.90762472	-0.042750001	0	255	0
-12.5384998	6.90762472	-0.0154999979	0	255	0
-12.5384998	6.90509987	-0.0154999979	0	255	0
-12.5498753	6.90762472	-0.042750001	0	255	0
-12.5384998	6.90762472	-0.042750001	0	255	0
-12.5384998	6.90509987	-0.042750001	0	255	0
-12.5612497	6.90762472	-0.042750001	0	255	0
-12.555563	6.90762472	-0.0700000003	0	255	0
-12.5498753	6.90762472	-0.042750001	0	255	0
-12.5498753	6.90762472	-0.0563750006	0	255	0
-12.5498753	6.90509987	-0.0563750006	0	255	0
-12.5612497	6.90762472	-0.0700000003	0	255	0
-12.5612497	6.90509987	-0.042750001	0	255	0
-12.555563	6.90509987	-0.0700000003	0	255	0
-12.5612497	6.90509987	-0.0700000003	0	255	0
-12.5498753	6.90762472	-0.042750001	0	255	0
-12.5441875	6.90762472	-0.0700000003	0	255	0
-12.5441875	6.90762472	-0.0700000003	0	255	0
-12.5441875	6.90509987	-0.042750001	0	255	0
-12.5498753	6.90762472	-0.0700000003	0	255	0
-12.5498753	6.90509987	-0.0700000003	0	255	0
-12.5384998	6.90762472	-0.0563750006	0	255	0
-12.5384998	6.90762472	-0.0700000003	0	255	0
-12.5384998	6.90509987	-0.0563750006	0	255	0
-12.5384998	6.90509987	-0.0700000003	0	255	0
-12.5384998	6.92277479	0.0117500033	0	255	0
-12.5384998	6.92277479	0.0253750049	0	255	0
-12.5384998	6.92024994	0.0253750049	0	255	0
-12.5271244	6.92277479	0.0253750049	0	255	0
-12.5271244	6.92277479	0.0117500033	0	255	0
-12.5271244	6.92024994	0.0253750049	0	255	0
-12.5384998	6.92277479	-0.0154999979	0	255	0
-12.5384998	6.92277479	-0.00187499728	0	255	0
-12.5328121	6.92277479	-0.00187499728	0	255	0
-12.5384998	6.92024994	-0.00187499728	0	255	0
-12.5328121	6.92024994	-0.00187499728	0	255	0
-12.5328121	6.92024994	-0.0154999979	0	255	0
-12.5384998	6.92024994	-0.00187499728	0	255	0
-12.5384998	6.91772461	-0.0154999979	0	255	0
-12.5384998	6.91772461	-0.00187499728	0	255	0
-12.5271244	6.92024994	-0.0154999979	0	255	0
-12.5271244	6.92024994	-0.00187499728	0	255	0
-12.5328121	6.91519976	-0.0154999979	0	255	0
-12.5271244	6.91519976	-0.00187499728	0	255	0
-12.5328121	6.91519976	-0.00187499728	0	255	0
-12.5271244	6.92024994	0.0253750049	0	255	0
-12.5157499	6.92024994	0.0253750049	0	255	0
-12.5157499	6.92024994	0.0117500033	0	255	0
-12.5157499	6.91772461	0.0253750049	0	255	0
-12.5157499	6.91772461	0.0117500033	0	255	0
-12.5271244	6.91519976	0.0253750049	0	255	0
-12.5214367	6.91519976	0.0253750049	0	255	0
-12.5214367	6.91519976	0.0117500033	0	255	0
-12.5384998	6.92024994	-0.00187499728	0	255	0
-12.5384998	6.91772461	-0.0154999979	0	255	0
-12.5271244	6.92024994	-0.00187499728	0	255	0
-12.5384998	6.91772461	0.0117500033	0	255	0
-12.5328121	6.91772461	-0.0154999979	0	255	0
-12.5328121	6.91772461	-0.0154999979	0	255	0
-12.5328121	6.91519976	0.0117500033	0	255	0
-12.5384998	6.91519976	-0.00187499728	0	255	0
-12.5271244	6.91519976	-0.00187499728	0	255	0
-12.5271244	6.91519976	-0.0154999979	0	255	0
-12.5328121	6.91519976	-0.0154999979	0	255	0
-12.5271244	6.92024994	-0.00187499728	0	255	0
-12.5214367	6.92024994	-0.00187499728	0	255	0
-12.5214367	6.92024994	-0.0154999979	0	255	0
-12.5271244	6.91772461	-0.00187499728	0	255	0
-12.5214367	6.91772461	-0.00187499728	0	255	0
-12.5271244	6.91772461	-0.0154999979	0	255	0
-12.5157499	6.92277479	0.0117500033	0	255	0
-12.5157499	6.92277479	0.0253750049	0	255	0
-12.5100632	6.92277479	0.0253750049	0	255	0
-12.5157499	6.92024994	0.0390000045	0	255	0
-12.5157499	6.92024994	0.0253750049	0	255	0
-12.5100632	6.92024994	0.0253750049	0	255	0
-12.5100632	6.92024994	0.0117500033	0	255	0
-12.5157499	6.92024994	0.0117500033	0	255	0
-12.5271244	6.92277479	-0.0291249994	0	255	0
-12.5271244	6.92277479	-0.0154999979	0	255	0
-12.5214367	6.92277479	-0.042750001	0	255	0
-12.5214367	6.92277479	-0.0291249994	0	255	0
-12.5214367	6.92277479	-0.042750001	0	255	0
-12.5214367	6.92024994	-0.0154999979	0	255	0
-12.5214367	6.92024994	-0.0291249994	0	255	0
-12.5271244	6.92024994	-0.0291249994	0	255	0
-12.5384998	6.92024994	-0.0563750006	0	255	0
-12.5384998	6.92024994	-0.0154999979	0	255	0
-12.5384998	6.91772461	-0.0700000003	0	255	0
-12.5384998	6.91772461	-0.0563750006	0	255	0
-12.5271244	6.92024994	-0.0563750006	0	255	0
-12.5271244	6.91772461	-0.0700000003	0	255	0
-12.5271244	6.91772461	-0.0563750006	0	255	0
-12.5271244	6.92024994	-0.0291249994	0	255	0
-12.5214367	6.92024994	-0.0154999979	0	255	0
-12.5214367	6.92024994	-0.0291249994	0	255	0
-12.5271244	6.91772461	-0.0154999979	0	255	0
-12.5214367	6.91772461	-0.042750001	0	255	0
-12.5214367	6.91772461	-0.0291249994	0	255	0
-12.5271244	6.91772461	-0.0291249994	0	255	0
-12.5271244	6.91519976	-0.0563750006	0	255	0
-12.5271244	6.91519976	-0.0700000003	0	255	0
-12.5214367	6.91519976	-0.0700000003	0	255	0
-12.5214367	6.91519976	-0.0563750006	0	255	0
-12.5271244	6.9126749	-0.0700000003	0	255	0
-12.5214367	6.9126749	-0.042750001	0	255	0
-12.5214367	6.9126749	-0.0563750006	0	255	0
-12.5271244	6.9126749	-0.0563750006	0	255	0
-12.5384998	6.90762472	-0.0291249994	0	255	0
-12.5384998	6.90762472	-0.0154999979	0	255	0
-12.5328121	6.90762472	-0.042750001	0	255	0
-12.5328121	6.90762472	-0.0291249994	0	255	0
-12.5328121	6.90762472	-0.042750001	0	255	0
-12.5328121	6.90509987	-0.0154999979	0	255	0
-12.5328121	6.90509987	-0.0291249994	0	255	0
-12.5384998	6.90509987	-0.0291249994	0	255	0
-12.5271244	6.90762472	-0.0563750006	0	255	0
-12.5271244	6.90762472	-0.0700000003	0	255	0
-12.5214367	6.90762472	-0.042750001	0	255	0
-12.5214367	6.90762472	-0.0563750006	0	255	0
-12.5214367	6.90762472	-0.042750001	0	255	0
-12.5214367	6.90509987	-0.0700000003	0	255	0
-12.5214367	6.90509987	-0.0563750006	0	255	0
-12.5271244	6.90509987	-0.0563750006	0	255	0
-12.5384998	6.90762472	-0.0563750006	0	255	0
-12.5384998	6.90762472	-0.0700000003	0	255	0
-12.5328121	6.90762472	-0.042750001	0	255	0
-12.5384998	6.90509987	-0.0563750006	0	255	0
-12.5271244	6.90762472	-0.0700000003	0	255	0
-12.5271244	6.90762472	-0.0563750006	0	255	0
-12.5271244	6.90509987	-0.0563750006	0	255	0
-12.5271244	6.90762472	-0.042750001	0	255	0
-12.5271244	6.90762472	-0.0291249994	0	255	0
-12.5214367	6.90762472	-0.0291249994	0	255	0
-12.5271244	6.90509987	-0.0291249994	0	255	0
-12.5214367	6.90509987	-0.0291249994	0	255	0
-12.5214367	6.90509987	-0.042750001	0	255	0
-12.5271244	6.90762472	-0.0700000003	0	255	0
-12.5271244	6.90762472	-0.0563750006	0	255	0
-12.5214367	6.90762472	-0.0563750006	0	255	0
-12.5271244	6.90509987	-0.0563750006	0	255	0
-12.5214367	6.90509987	-0.0563750006	0	255	0
-12.5214367	6.90509987	-0.0700000003	0	255	0
-12.5271244	6.90509987	-0.0700000003	0	255	0
-12.5100632	6.90762472	-0.0563750006	0	255	0
-12.5100632	6.90762472	-0.0700000003	0	255	0
-12.5043755	6.90762472	-0.042750001	0	255	0
-12.5043755	6.90762472	-0.0563750006	0	255	0
-12.5100632	6.90509987	-0.042750001	0	255	0
-12.5043755	6.90509987	-0.042750001	0	255	0
-12.5043755	6.90509987	-0.0563750006	0	255	0
-12.5100632	6.90509987	-0.0563750006	0	255	0
