-2.96224999	6.73304939	2.48924994	0	255	0
-2.96224999	6.73304939	2.33699989	0	255	0
-2.92799997	6.73304939	2.6415	0	255	0
-2.92799997	6.73304939	2.48924994	0	255	0
-2.96224999	6.73289967	2.6415	0	255	0
-2.92799997	6.73289967	2.6415	0	255	0
-2.92799997	6.73289967	2.48924994	0	255	0
-2.96224999	6.73289967	2.48924994	0	255	0
-2.89374995	6.7333498	2.48924994	0	255	0
-2.89374995	6.7333498	2.33699989	0	255	0
-2.85949993	6.7333498	2.6415	0	255	0
-2.85949993	6.7333498	2.48924994	0	255	0
-2.89374995	6.7331996	2.6415	0	255	0
-2.85949993	6.7331996	2.6415	0	255	0
-2.85949993	6.7331996	2.48924994	0	255	0
-2.89374995	6.7331996	2.48924994	0	255	0
-2.82524991	6.73304939	2.48924994	0	255	0
-2.82524991	6.73304939	2.33699989	0	255	0
-2.79099989	6.73304939	2.6415	0	255	0
-2.79099989	6.73304939	2.48924994	0	255	0
-2.82524991	6.73289967	2.6415	0	255	0
-2.79099989	6.73289967	2.6415	0	255	0
-2.79099989	6.73289967	2.48924994	0	255	0
-2.82524991	6.73289967	2.48924994	0	255	0
-2.99650002	6.73394966	2.33699989	0	255	0
-2.96224999	6.73394966	2.03249979	0	255	0
-2.92799997	6.73394966	2.33699989	0	255	0
-2.92799997	6.73379993	2.33699989	0	255	0
-2.99650002	6.73394966	2.03249979	0	255	0
-2.99650002	6.73379993	2.03249979	0	255	0
-2.92799997	6.73394966	2.03249979	0	255	0
-2.92799997	6.73379993	2.03249979	0	255	0
-2.99650002	6.73409986	1.57574987	0	255	0
-2.99650002	6.73409986	2.03249979	0	255	0
-2.92799997	6.73409986	2.03249979	0	255	0
-2.92799997	6.73409986	1.57574987	0	255	0
-2.99650002	6.73379993	1.11899996	0	255	0
-2.92799997	6.73379993	2.03249979	0	255	0
-2.92799997	6.73379993	1.57574987	0	255	0
-2.99650002	6.73379993	1.57574987	0	255	0
-3.03075004	6.73364973	1.88024986	0	255	0
-3.03075004	6.73364973	2.03249979	0	255	0
-2.99650002	6.73364973	1.72799993	0	255	0
-2.99650002	6.73364973	1.88024986	0	255	0
-3.03075004	6.73349953	1.72799993	0	255	0
-2.99650002	6.73349953	2.33699989	0	255	0
-2.99650002	6.73349953	1.88024986	0	255	0
-3.03075004	6.73349953	1.88024986	0	255	0
-3.09925008	6.73349953	1.27125001	0	255	0
-3.09925008	6.73349953	1.11899996	0	255	0
-3.06500006	6.73349953	1.11899996	0	255	0
-3.06500006	6.73349953	1.27125001	0	255	0
-3.09925008	6.7331996	1.11899996	0	255	0
-3.06500006	6.7331996	1.11899996	0	255	0
-3.06500006	6.7331996	1.27125001	0	255	0
-3.09925008	6.7331996	1.27125001	0	255	0
-3.03075004	6.73349953	1.88024986	0	255	0
-3.03075004	6.73349953	2.03249979	0	255	0
-2.99650002	6.73349953	2.03249979	0	255	0
-2.99650002	6.73349953	1.88024986	0	255	0
-3.03075004	6.7331996	2.03249979	0	255	0
-2.99650002	6.7331996	1.88024986	0	255	0
-3.03075004	6.7331996	1.88024986	0	255	0
-2.99650002	6.73349953	2.33699989	0	255	0
-2.99650002	6.73349953	2.18474984	0	255	0
-2.92799997	6.73349953	2.18474984	0	255	0
-2.92799997	6.73349953	1.72799993	0	255	0
-2.99650002	6.7331996	2.18474984	0	255	0
-2.92799997	6.7331996	2.18474984	0	255	0
-2.92799997	6.7331996	2.33699989	0	255	0
-2.92799997	6.73409986	3.55500007	0	255	0
-2.92799997	6.73409986	2.48924994	0	255	0
-2.79099989	6.73409986	2.48924994	0	255	0
-2.79099989	6.73409986	2.33699989	0	255	0
-2.92799997	6.73349953	2.48924994	0	255	0
-2.79099989	6.73349953	2.48924994	0	255	0
-2.92799997	6.73289967	2.9460001	0	255	0
-2.79099989	6.73409986	2.9460001	0	255	0
-2.79099989	6.73409986	2.79375005	0	255	0
-2.65400004	6.73409986	2.79375005	0	255	0
-2.65400004	6.73409986	1.11899996	0	255	0
-2.79099989	6.73349953	2.79375005	0	255	0
-2.65400004	6.73349953	2.79375005	0	255	0
-2.65400004	6.73349953	2.9460001	0	255	0
-2.79099989	6.73349953	2.6415	0	255	0
-2.92799997	6.73349953	2.48924994	0	255	0
-2.85949993	6.73349953	2.48924994	0	255	0
-2.85949993	6.73349953	2.33699989	0	255	0
-2.92799997	6.7331996	2.48924994	0	255	0
-2.85949993	6.7331996	2.48924994	0	255	0
-2.92799997	6.73289967	2.6415	0	255	0
-2.92799997	6.7331996	2.33699989	0	255	0
-2.72249985	6.73349953	2.33699989	0	255	0
-2.72249985	6.73349953	2.48924994	0	255	0
-2.65400004	6.73349953	2.48924994	0	255	0
-2.65400004	6.73349953	2.33699989	0	255	0
-2.72249985	6.7331996	2.48924994	0	255	0
-2.65400004	6.7331996	2.48924994	0	255	0
-2.65400004	6.7331996	2.33699989	0	255	0
-2.79099989	6.73289967	2.6415	0	255	0
-3.16774988	6.73215008	2.18474984	0	255	0
-3.16774988	6.73215008	2.03249979	0	255	0
-3.1335001	6.73215008	2.33699989	0	255	0
-3.1335001	6.73215008	2.18474984	0	255	0
-3.16774988	6.73199987	2.33699989	0	255	0
-3.1335001	6.73199987	2.18474984	0	255	0
-3.16774988	6.73199987	2.18474984	0	255	0
-3.1335001	6.73215008	2.18474984	0	255	0
-3.1335001	6.73215008	2.33699989	0	255	0
-3.09925008	6.73215008	2.03249979	0	255	0
-3.1335001	6.73199987	2.18474984	0	255	0
-3.06500006	6.73215008	2.33699989	0	255	0
-3.06500006	6.73215008	2.18474984	0	255	0
-3.06500006	6.73199987	2.33699989	0	255	0
-3.06500006	6.73199987	2.18474984	0	255	0
-3.2019999	6.73199987	1.88024986	0	255	0
-3.2019999	6.73199987	2.33699989	0	255	0
-3.2019999	6.73184967	1.72799993	0	255	0
-3.2019999	6.73184967	1.88024986	0	255	0
-3.1335001	6.73199987	1.88024986	0	255	0
-3.1335001	6.73184967	1.72799993	0	255	0
-3.1335001	6.73184967	1.88024986	0	255	0
-3.1335001	6.73199987	2.18474984	0	255	0
-3.09925008	6.73199987	2.33699989	0	255	0
-3.09925008	6.73199987	2.18474984	0	255	0
-3.1335001	6.73184967	2.33699989	0	255	0
-3.09925008	6.73184967	2.03249979	0	255	0
-3.09925008	6.73184967	2.18474984	0	255	0
-3.1335001	6.73184967	2.18474984	0	255	0
-3.06500006	6.73215008	1.27125001	0	255	0
-3.06500006	6.73215008	1.11899996	0	255	0
-3.03075004	6.73215008	1.42349994	0	255	0
-3.03075004	6.73215008	1.27125001	0	255	0
-3.03075004	6.73215008	1.42349994	0	255	0
-3.03075004	6.73199987	1.11899996	0	255	0
-3.03075004	6.73199987	1.27125001	0	255	0
-3.06500006	6.73199987	1.27125001	0	255	0
-2.85949993	6.73259974	3.40275002	0	255	0
-2.85949993	6.73259974	2.9460001	0	255	0
-2.79099989	6.73259974	3.55500007	0	255	0
-2.79099989	6.73259974	3.40275002	0	255	0
-2.82524991	6.73244953	3.2505002	0	255	0
-2.85949993	6.7322998	3.40275002	0	255	0
-2.79099989	6.7322998	3.40275002	0	255	0
-2.79099989	6.73259974	3.09825015	0	255	0
-2.79099989	6.73259974	3.55500007	0	255	0
-2.72249985	6.73259974	2.9460001	0	255	0
-2.72249985	6.73259974	3.09825015	0	255	0
-2.75674987	6.73244953	3.2505002	0	255	0
-2.79099989	6.7322998	3.09825015	0	255	0
-2.72249985	6.7322998	3.55500007	0	255	0
-2.72249985	6.7322998	3.09825015	0	255	0
-2.79099989	6.73259974	3.2505002	0	255	0
-2.72249985	6.73259974	3.2505002	0	255	0
-2.79099989	6.73259974	2.9460001	0	255	0
-2.75674987	6.73244953	2.9460001	0	255	0
-2.72249985	6.7322998	3.2505002	0	255	0
-2.72249985	6.7322998	2.9460001	0	255	0
-2.79099989	6.73289967	3.55500007	0	255	0
-2.79099989	6.73289967	3.09825015	0	255	0
-2.65400004	6.73289967	3.09825015	0	255	0
-2.65400004	6.73289967	2.33699989	0	255	0
-2.79099989	6.7322998	3.09825015	0	255	0
-2.65400004	6.7322998	3.09825015	0	255	0
-2.65400004	6.7322998	3.55500007	0	255	0
-2.72249985	6.7322998	2.9460001	0	255	0
-2.72249985	6.7322998	2.79375005	0	255	0
-2.65400004	6.7322998	2.79375005	0	255	0
-2.65400004	6.7322998	2.33699989	0	255	0
-2.72249985	6.73199987	2.79375005	0	255	0
-2.65400004	6.73199987	2.79375005	0	255	0
-2.65400004	6.73199987	2.9460001	0	255	0
-2.72249985	6.73199987	2.6415	0	255	0
-3.09925008	6.73215008	1.27125001	0	255	0
-3.09925008	6.73215008	1.42349994	0	255	0
-3.06500006	6.73215008	1.11899996	0	255	0
-3.06500006	6.73215008	1.27125001	0	255	0
-3.09925008	6.73199987	1.11899996	0	255	0
-3.06500006	6.73199987	1.11899996	0	255	0
-3.06500006	6.73199987	1.27125001	0	255	0
-3.09925008	6.73199987	1.27125001	0	255	0
-3.06500006	6.73215008	2.18474984	0	255	0
-3.06500006	6.73215008	2.33699989	0	255	0
-3.03075004	6.73215008	2.03249979	0	255	0
-3.06500006	6.73199987	2.18474984	0	255	0
-2.99650002	6.73215008	2.33699989	0	255	0
-2.99650002	6.73215008	2.18474984	0	255	0
-2.99650002	6.73199987	2.18474984	0	255	0
-2.99650002	6.73215008	2.18474984	0	255	0
-2.99650002	6.73215008	2.33699989	0	255	0
-2.96224999	6.73215008	2.03249979	0	255	0
-2.99650002	6.73199987	2.18474984	0	255	0
-2.92799997	6.73215008	2.33699989	0	255	0
-2.92799997	6.73215008	2.18474984	0	255	0
-2.92799997	6.73199987	2.18474984	0	255	0
-3.03075004	6.73199987	1.88024986	0	255	0
-3.03075004	6.73199987	1.72799993	0	255	0
-2.99650002	6.73199987	1.88024986	0	255	0
-3.06500006	6.73184967	1.88024986	0	255	0
-3.06500006	6.73184967	1.72799993	0	255	0
-3.03075004	6.73184967	2.03249979	0	255	0
-3.06500006	6.73169994	1.88024986	0	255	0
-2.99650002	6.73169994	2.33699989	0	255	0
-2.99650002	6.73169994	1.88024986	0	255	0
-2.99650002	6.73199987	2.18474984	0	255	0
-2.99650002	6.73184967	2.33699989	0	255	0
-2.99650002	6.73184967	2.18474984	0	255	0
-2.92799997	6.73199987	2.18474984	0	255	0
-2.92799997	6.73184967	2.33699989	0	255	0
-2.92799997	6.73184967	2.18474984	0	255	0
-2.99650002	6.73184967	1.72799993	0	255	0
-2.99650002	6.73184967	1.88024986	0	255	0
-2.99650002	6.73169994	1.88024986	0	255	0
-2.99650002	6.73169994	1.72799993	0	255	0
-2.92799997	6.73184967	1.88024986	0	255	0
-2.92799997	6.73184967	1.72799993	0	255	0
-2.92799997	6.73169994	1.88024986	0	255	0
-2.92799997	6.73169994	1.72799993	0	255	0
-2.72249985	6.73289967	1.57574987	0	255	0
-2.72249985	6.73289967	2.03249979	0	255	0
-2.65400004	6.73289967	2.03249979	0	255	0
-2.65400004	6.73289967	1.57574987	0	255	0
-2.72249985	6.73259974	1.11899996	0	255	0
-2.65400004	6.73259974	2.03249979	0	255	0
-2.65400004	6.73259974	1.57574987	0	255	0
-2.72249985	6.73259974	1.57574987	0	255	0
-2.75674987	6.73259974	1.88024986	0	255	0
-2.75674987	6.73259974	1.72799993	0	255	0
-2.72249985	6.73259974	1.88024986	0	255	0
-2.79099989	6.73244953	1.88024986	0	255	0
-2.79099989	6.73244953	1.72799993	0	255	0
-2.75674987	6.73244953	2.03249979	0	255	0
-2.79099989	6.7322998	1.88024986	0	255	0
-2.72249985	6.7322998	1.88024986	0	255	0
-2.68825006	6.73259974	2.33699989	0	255	0
-2.72249985	6.73244953	2.33699989	0	255	0
-2.68825006	6.73244953	2.03249979	0	255	0
-2.68825006	6.73259974	2.03249979	0	255	0
-2.72249985	6.73244953	2.03249979	0	255	0
-2.75674987	6.73259974	1.88024986	0	255	0
-2.75674987	6.73259974	2.03249979	0	255	0
-2.72249985	6.73259974	1.88024986	0	255	0
-2.75674987	6.7322998	2.03249979	0	255	0
-2.79099989	6.7322998	2.03249979	0	255	0
-2.72249985	6.73244953	1.72799993	0	255	0
-2.75674987	6.7322998	1.72799993	0	255	0
-2.72249985	6.73244953	2.03249979	0	255	0
-2.65400004	6.73259974	2.03249979	0	255	0
-2.65400004	6.73244953	2.03249979	0	255	0
-2.79099989	6.7322998	1.11899996	0	255	0
-2.65400004	6.73259974	1.72799993	0	255	0
-2.65400004	6.73244953	1.72799993	0	255	0
-2.72249985	6.7322998	1.88024986	0	255	0
-2.68825006	6.7322998	1.88024986	0	255	0
-2.68825006	6.7322998	1.72799993	0	255	0
-2.79099989	6.73259974	1.72799993	0	255	0
-2.79099989	6.73259974	1.88024986	0	255	0
-2.79099989	6.7322998	1.88024986	0	255	0
-2.79099989	6.7322998	1.72799993	0	255	0
-2.65400004	6.73259974	1.88024986	0	255	0
-2.65400004	6.73259974	1.72799993	0	255	0
-2.65400004	6.7322998	1.88024986	0	255	0
-2.65400004	6.7322998	2.33699989	0	255	0
-2.92799997	6.73215008	1.27125001	0	255	0
-2.92799997	6.73215008	1.11899996	0	255	0
-2.89374995	6.73215008	1.42349994	0	255	0
-2.92799997	6.73199987	1.27125001	0	255	0
-2.85949993	6.73215008	1.11899996	0	255	0
-2.85949993	6.73215008	1.27125001	0	255	0
-2.85949993	6.73199987	1.27125001	0	255	0
-2.85949993	6.73215008	1.27125001	0	255	0
-2.85949993	6.73215008	1.11899996	0	255	0
-2.82524991	6.73215008	1.42349994	0	255	0
-2.85949993	6.73199987	1.27125001	0	255	0
-2.79099989	6.73215008	1.11899996	0	255	0
-2.79099989	6.73215008	1.27125001	0	255	0
-2.79099989	6.73199987	1.27125001	0	255	0
-2.92799997	6.73199987	1.57574987	0	255	0
-2.92799997	6.73199987	1.11899996	0	255	0
-2.85949993	6.73199987	1.57574987	0	255	0
-2.89374995	6.73184967	1.42349994	0	255	0
-2.92799997	6.73169994	1.57574987	0	255	0
-2.85949993	6.73169994	1.11899996	0	255	0
-2.85949993	6.73169994	1.57574987	0	255	0
-2.85949993	6.73199987	1.27125001	0	255	0
-2.85949993	6.73184967	1.11899996	0	255	0
-2.85949993	6.73184967	1.27125001	0	255	0
-2.79099989	6.73199987	1.27125001	0	255	0
-2.79099989	6.73184967	1.11899996	0	255	0
-2.79099989	6.73184967	1.27125001	0	255	0
-2.72249985	6.7322998	2.33699989	0	255	0
-2.72249985	6.7322998	2.18474984	0	255	0
-2.65400004	6.7322998	2.18474984	0	255	0
-2.65400004	6.7322998	1.72799993	0	255	0
-2.72249985	6.73199987	2.18474984	0	255	0
-2.65400004	6.73199987	2.18474984	0	255	0
-2.65400004	6.73199987	2.33699989	0	255	0
-2.72249985	6.73199987	2.03249979	0	255	0
