-2.97318745	7.00034952	3.14875007	0	255	0
-2.95624995	7.00034952	3.4920001	0	255	0
-2.97318745	7.00029945	3.4920001	0	255	0
-2.95624995	7.00029945	2.11899996	0	255	0
-2.99012494	7.00029945	3.4920001	0	255	0
-2.95624995	7.00034952	3.14875007	0	255	0
-2.97318745	7.00029945	3.14875007	0	255	0
-2.97318745	7.00034952	2.80550003	0	255	0
-2.95624995	7.00034952	3.14875007	0	255	0
-2.97318745	7.00029945	3.14875007	0	255	0
-2.99012494	7.00029945	3.14875007	0	255	0
-2.95624995	7.00034952	2.80550003	0	255	0
-2.97318745	7.00029945	2.80550003	0	255	0
-2.97318745	7.00044966	2.63387489	0	255	0
-2.97318745	7.00044966	2.46224999	0	255	0
-2.95624995	7.00044966	2.80550003	0	255	0
-2.95624995	7.00044966	2.63387489	0	255	0
-2.97318745	7.00039959	2.80550003	0	255	0
-2.95624995	7.00039959	2.80550003	0	255	0
-2.95624995	7.00039959	2.63387489	0	255	0
-2.97318745	7.00039959	2.63387489	0	255	0
-2.97318745	7.00034952	2.63387489	0	255	0
-2.97318745	7.00034952	2.46224999	0	255	0
-2.95624995	7.00034952	2.80550003	0	255	0
-2.95624995	7.00034952	2.63387489	0	255	0
-2.97318745	7.00029945	2.80550003	0	255	0
-2.95624995	7.00029945	2.63387489	0	255	0
-2.97318745	7.00029945	2.63387489	0	255	0
-2.95624995	7.00049973	3.4920001	0	255	0
-2.95624995	7.00049973	2.97712517	0	255	0
-2.88849998	7.00049973	2.97712517	0	255	0
-2.88849998	7.00049973	2.11899996	0	255	0
-2.88849998	7.00039959	2.97712517	0	255	0
-2.88849998	7.00039959	2.80550003	0	255	0
-2.95624995	7.00029945	2.97712517	0	255	0
-2.92237496	7.00029945	2.97712517	0	255	0
-2.92237496	7.00029945	2.80550003	0	255	0
-2.95624995	7.00024939	3.4920001	0	255	0
-2.93931246	7.00024939	3.14875007	0	255	0
-2.92237496	7.00024939	3.4920001	0	255	0
-2.92237496	7.00019932	2.80550003	0	255	0
-2.95624995	7.00024939	3.14875007	0	255	0
-2.92237496	7.00024939	3.14875007	0	255	0
-2.95624995	7.00024939	3.14875007	0	255	0
-2.93931246	7.00024939	2.80550003	0	255	0
-2.92237496	7.00024939	3.14875007	0	255	0
-2.95624995	7.00024939	2.80550003	0	255	0
-2.95624995	7.00019932	2.80550003	0	255	0
-2.92237496	7.00024939	2.80550003	0	255	0
-2.95624995	7.00009966	3.4920001	0	255	0
-2.93931246	7.00014973	2.97712517	0	255	0
-2.93931246	7.00014973	3.14875007	0	255	0
-2.92237496	7.00014973	2.80550003	0	255	0
-2.92237496	7.00014973	2.97712517	0	255	0
-2.93931246	7.00009966	2.80550003	0	255	0
-2.92237496	7.00009966	3.4920001	0	255	0
-2.92237496	7.00009966	2.97712517	0	255	0
-2.93931246	7.00009966	2.97712517	0	255	0
-2.92237496	7.00014973	2.80550003	0	255	0
-2.92237496	7.00014973	2.97712517	0	255	0
-2.92237496	7.00009966	2.97712517	0	255	0
-2.92237496	7.00009966	2.80550003	0	255	0
-2.88849998	7.00014973	2.97712517	0	255	0
-2.88849998	7.00014973	2.80550003	0	255	0
-2.88849998	7.00009966	2.97712517	0	255	0
-2.88849998	7.00009966	2.80550003	0	255	0
-2.95624995	7.00024939	2.46224999	0	255	0
-2.95624995	7.00024939	2.63387489	0	255	0
-2.95624995	7.00019932	2.63387489	0	255	0
-2.92237496	7.00024939	2.63387489	0	255	0
-2.92237496	7.00024939	2.46224999	0	255	0
-2.92237496	7.00019932	2.63387489	0	255	0
-2.95624995	7.00024939	2.2906251	0	255	0
-2.95624995	7.00024939	2.46224999	0	255	0
-2.93931246	7.00024939	2.11899996	0	255	0
-2.95624995	7.00019932	2.2906251	0	255	0
-2.92237496	7.00024939	2.46224999	0	255	0
-2.92237496	7.00024939	2.11899996	0	255	0
-2.95624995	7.00009966	2.80550003	0	255	0
-2.93931246	7.00019932	2.11899996	0	255	0
-2.92237496	7.00029945	2.80550003	0	255	0
-2.92237496	7.00029945	2.63387489	0	255	0
-2.88849998	7.00029945	2.63387489	0	255	0
-2.88849998	7.00029945	2.11899996	0	255	0
-2.92237496	7.00019932	2.63387489	0	255	0
-2.88849998	7.00019932	2.63387489	0	255	0
-2.88849998	7.00019932	2.80550003	0	255	0
-2.88849998	7.00044966	2.46224999	0	255	0
-2.88849998	7.00044966	2.63387489	0	255	0
-2.88849998	7.00039959	2.63387489	0	255	0
-2.85462499	7.00044966	2.63387489	0	255	0
-2.85462499	7.00044966	2.46224999	0	255	0
-2.85462499	7.00039959	2.63387489	0	255	0
-2.88849998	7.00044966	2.46224999	0	255	0
-2.87156248	7.00044966	2.11899996	0	255	0
-2.85462499	7.00044966	2.46224999	0	255	0
-2.88849998	7.00044966	2.11899996	0	255	0
-2.88849998	7.00039959	2.11899996	0	255	0
-2.85462499	7.00044966	2.11899996	0	255	0
-2.88849998	7.00029945	2.80550003	0	255	0
-2.88849998	7.00034952	2.2906251	0	255	0
-2.88849998	7.00034952	2.11899996	0	255	0
-2.87156248	7.00034952	2.46224999	0	255	0
-2.88849998	7.00029945	2.2906251	0	255	0
-2.85462499	7.00034952	2.11899996	0	255	0
-2.85462499	7.00034952	2.2906251	0	255	0
-2.85462499	7.00029945	2.80550003	0	255	0
-2.85462499	7.00029945	2.2906251	0	255	0
-2.88849998	7.00034952	2.46224999	0	255	0
-2.87156248	7.00034952	2.11899996	0	255	0
-2.85462499	7.00034952	2.46224999	0	255	0
-2.85462499	7.00029945	2.46224999	0	255	0
-2.88849998	7.00034952	2.11899996	0	255	0
-2.88849998	7.00029945	2.11899996	0	255	0
-2.85462499	7.00034952	2.11899996	0	255	0
-2.85462499	7.00029945	2.11899996	0	255	0
-2.97318745	7.00049973	1.77574992	0	255	0
-2.97318745	7.00049973	1.94737494	0	255	0
-2.95624995	7.00049973	1.94737494	0	255	0
-2.95624995	7.00049973	1.77574992	0	255	0
-2.97318745	7.00044966	1.94737494	0	255	0
-2.95624995	7.00044966	1.94737494	0	255	0
-2.95624995	7.00044966	1.77574992	0	255	0
-2.99012494	7.00039959	1.4325	0	255	0
-2.99012494	7.00049973	2.11899996	0	255	0
-2.99012494	7.00049973	1.94737494	0	255	0
-2.95624995	7.00049973	1.94737494	0	255	0
-2.95624995	7.00049973	1.4325	0	255	0
-2.99012494	7.00039959	1.94737494	0	255	0
-2.95624995	7.00039959	1.94737494	0	255	0
-2.95624995	7.00039959	2.11899996	0	255	0
-2.99012494	7.00039959	1.77574992	0	255	0
-2.90543747	7.00044966	1.94737494	0	255	0
-2.90543747	7.00044966	1.77574992	0	255	0
-2.88849998	7.00044966	2.11899996	0	255	0
-2.88849998	7.00044966	1.94737494	0	255	0
-2.90543747	7.00039959	2.11899996	0	255	0
-2.88849998	7.00039959	2.11899996	0	255	0
-2.88849998	7.00039959	1.94737494	0	255	0
-2.90543747	7.00039959	1.94737494	0	255	0
-2.90543747	7.00034952	1.60412502	0	255	0
-2.90543747	7.00034952	1.4325	0	255	0
-2.88849998	7.00034952	1.77574992	0	255	0
-2.88849998	7.00034952	1.60412502	0	255	0
-2.90543747	7.00029945	1.77574992	0	255	0
-2.88849998	7.00029945	1.77574992	0	255	0
-2.88849998	7.00029945	1.60412502	0	255	0
-2.90543747	7.00029945	1.60412502	0	255	0
-2.95624995	7.00029945	1.77574992	0	255	0
-2.92237496	7.00039959	1.60412502	0	255	0
-2.88849998	7.00039959	1.60412502	0	255	0
-2.88849998	7.00039959	1.4325	0	255	0
-2.92237496	7.00029945	1.60412502	0	255	0
-2.88849998	7.00029945	1.60412502	0	255	0
-2.88849998	7.00029945	2.11899996	0	255	0
-2.92237496	7.00029945	1.4325	0	255	0
-3.02399993	7.00014973	1.26087499	0	255	0
-3.02399993	7.00014973	1.4325	0	255	0
-3.00706244	7.00014973	1.08924997	0	255	0
-3.02399993	7.00009966	1.26087499	0	255	0
-2.99012494	7.00014973	1.4325	0	255	0
-2.99012494	7.00014973	1.26087499	0	255	0
-2.99012494	7.00009966	0.745999992	0	255	0
-2.99012494	7.00009966	1.26087499	0	255	0
-2.97318745	7.00014973	0.91762495	0	255	0
-2.97318745	7.00014973	1.08924997	0	255	0
-2.95624995	7.00014973	0.745999992	0	255	0
-2.95624995	7.00014973	0.91762495	0	255	0
-2.97318745	7.00009966	0.745999992	0	255	0
-2.95624995	7.00009966	2.11899996	0	255	0
-2.95624995	7.00009966	0.91762495	0	255	0
-2.97318745	7.00009966	0.91762495	0	255	0
-2.93931246	7.00024939	1.94737494	0	255	0
-2.93931246	7.00024939	1.77574992	0	255	0
-2.92237496	7.00024939	2.11899996	0	255	0
-2.92237496	7.00024939	1.94737494	0	255	0
-2.93931246	7.00019932	2.11899996	0	255	0
-2.92237496	7.00019932	1.94737494	0	255	0
-2.93931246	7.00019932	1.94737494	0	255	0
-2.92237496	7.00024939	2.11899996	0	255	0
-2.90543747	7.00024939	1.77574992	0	255	0
-2.90543747	7.00024939	1.77574992	0	255	0
-2.90543747	7.00019932	2.11899996	0	255	0
-2.92237496	7.00024939	1.77574992	0	255	0
-2.88849998	7.00024939	1.94737494	0	255	0
-2.88849998	7.00024939	1.77574992	0	255	0
-2.88849998	7.00019932	1.94737494	0	255	0
-2.88849998	7.00019932	1.77574992	0	255	0
-2.92237496	7.00029945	2.11899996	0	255	0
-2.92237496	7.00029945	1.94737494	0	255	0
-2.88849998	7.00029945	1.94737494	0	255	0
-2.88849998	7.00029945	1.4325	0	255	0
-2.92237496	7.00019932	1.94737494	0	255	0
-2.88849998	7.00019932	1.94737494	0	255	0
-2.88849998	7.00019932	2.11899996	0	255	0
-2.95624995	7.00014973	1.60412502	0	255	0
-2.95624995	7.00014973	1.4325	0	255	0
-2.93931246	7.00014973	1.77574992	0	255	0
-2.95624995	7.00009966	1.60412502	0	255	0
-2.92237496	7.00014973	1.4325	0	255	0
-2.92237496	7.00014973	1.60412502	0	255	0
-2.92237496	7.00009966	1.60412502	0	255	0
-2.92237496	7.00014973	1.77574992	0	255	0
-2.92237496	7.00014973	1.94737494	0	255	0
-2.92237496	7.00009966	1.94737494	0	255	0
-2.88849998	7.00014973	1.94737494	0	255	0
-2.88849998	7.00014973	1.77574992	0	255	0
-2.88849998	7.00009966	1.94737494	0	255	0
-2.88849998	7.00009966	1.77574992	0	255	0
-2.92237496	7.00014973	1.77574992	0	255	0
-2.90543747	7.00014973	1.4325	0	255	0
-2.90543747	7.00014973	1.4325	0	255	0
-2.90543747	7.00009966	1.77574992	0	255	0
-2.92237496	7.00014973	1.4325	0	255	0
-2.92237496	7.00009966	1.4325	0	255	0
-2.88849998	7.00014973	1.60412502	0	255	0
-2.88849998	7.00014973	1.4325	0	255	0
-2.88849998	7.00009966	1.60412502	0	255	0
-2.90543747	7.00024939	1.08924997	0	255	0
-2.88849998	7.00024939	1.4325	0	255	0
-2.90543747	7.00019932	1.4325	0	255	0
-2.88849998	7.00019932	1.4325	0	255	0
-2.92237496	7.00019932	0.745999992	0	255	0
-2.88849998	7.00024939	1.08924997	0	255	0
-2.88849998	7.00019932	1.08924997	0	255	0
-2.90543747	7.00019932	1.08924997	0	255	0
-2.92237496	7.00029945	1.4325	0	255	0
-2.92237496	7.00029945	1.26087499	0	255	0
-2.88849998	7.00029945	1.26087499	0	255	0
-2.88849998	7.00029945	0.745999992	0	255	0
-2.92237496	7.00019932	1.26087499	0	255	0
-2.88849998	7.00019932	1.26087499	0	255	0
-2.88849998	7.00019932	1.4325	0	255	0
-2.92237496	7.00019932	1.08924997	0	255	0
-2.92237496	7.00014973	1.4325	0	255	0
-2.90543747	7.00014973	1.08924997	0	255	0
-2.88849998	7.00014973	1.4325	0	255	0
-2.92237496	7.00014973	1.08924997	0	255	0
-2.88849998	7.00014973	1.08924997	0	255	0
-2.90543747	7.00014973	0.745999992	0	255	0
-2.88849998	7.00014973	1.08924997	0	255	0
-2.90543747	7.00009966	1.08924997	0	255	0
-2.92237496	7.00014973	0.745999992	0	255	0
-2.92237496	7.00014973	0.91762495	0	255	0
-2.92237496	7.00009966	0.91762495	0	255	0
-2.92237496	7.00009966	0.745999992	0	255	0
-2.88849998	7.00014973	0.745999992	0	255	0
-3.02399993	6.99969959	3.4920001	0	255	0
-2.88849998	7.00049973	3.4920001	0	255	0
-2.88849998	7.00049973	2.2906251	0	255	0
-2.85462499	7.00049973	2.2906251	0	255	0
-2.85462499	7.00049973	2.11899996	0	255	0
-2.88849998	7.00029945	2.2906251	0	255	0
-2.82075	7.00039959	2.2906251	0	255	0
-2.82075	7.00039959	2.11899996	0	255	0
-2.82075	7.00029945	2.2906251	0	255	0
-2.88849998	7.00009966	2.80550003	0	255	0
-2.88849998	7.00029945	2.2906251	0	255	0
-2.85462499	7.00029945	2.2906251	0	255	0
-2.85462499	7.00029945	2.11899996	0	255	0
-2.88849998	7.00019932	2.2906251	0	255	0
-2.85462499	7.00019932	2.2906251	0	255	0
-2.88849998	7.00009966	2.46224999	0	255	0
-2.88849998	7.00019932	2.11899996	0	255	0
-2.95624995	7.00009966	2.11899996	0	255	0
-2.95624995	7.00009966	1.60412502	0	255	0
-2.88849998	7.00009966	1.60412502	0	255	0
-3.02399993	6.99969959	3.4920001	0	255	0
-2.95624995	6.99989986	1.60412502	0	255	0
-2.95624995	6.99989986	1.4325	0	255	0
-2.88849998	6.99989986	1.60412502	0	255	0
-2.88849998	6.99989986	2.11899996	0	255	0
-2.92237496	6.99989986	1.4325	0	255	0
-2.92237496	6.99989986	1.26087499	0	255	0
-2.88849998	6.99989986	1.26087499	0	255	0
-2.88849998	6.99989986	0.745999992	0	255	0
-2.92237496	6.99979973	1.26087499	0	255	0
-2.88849998	6.99979973	1.26087499	0	255	0
-2.88849998	6.99979973	1.4325	0	255	0
-2.92237496	6.99979973	1.08924997	0	255	0
-2.92237496	6.99974966	0.745999992	0	255	0
-2.92237496	6.99974966	0.91762495	0	255	0
-2.92237496	6.99969959	0.91762495	0	255	0
-2.92237496	6.99969959	0.745999992	0	255	0
-2.88849998	6.99974966	0.91762495	0	255	0
-2.88849998	6.99974966	0.745999992	0	255	0
-2.88849998	6.99969959	0.91762495	0	255	0
-2.88849998	6.99969959	0.745999992	0	255	0
-2.88849998	6.99994993	0.745999992	0	255	0
-2.88849998	6.99994993	0.91762495	0	255	0
-2.88849998	6.99989986	0.91762495	0	255	0
-2.88849998	6.99989986	0.745999992	0	255	0
-2.85462499	6.99994993	0.91762495	0	255	0
-2.85462499	6.99994993	0.745999992	0	255	0
-2.85462499	6.99989986	0.91762495	0	255	0
-2.85462499	6.99994993	0.745999992	0	255	0
-2.85462499	6.99994993	0.91762495	0	255	0
-2.85462499	6.99989986	0.91762495	0	255	0
-2.82075	6.99994993	0.91762495	0	255	0
-2.82075	6.99994993	0.745999992	0	255	0
-2.82075	6.99989986	0.91762495	0	255	0
-2.88849998	6.99969959	2.11899996	0	255	0
-2.82075	7	1.4325	0	255	0
-2.82075	7	1.60412502	0	255	0
-2.82075	6.99989986	1.60412502	0	255	0
-2.82075	6.99989986	1.4325	0	255	0
-2.75300002	7	1.60412502	0	255	0
-2.75300002	7	1.4325	0	255	0
-2.75300002	6.99989986	1.60412502	0	255	0
-2.75300002	6.99989986	2.11899996	0	255	0
