10.323	6.82460022	0.0540000014	0	255	0
10.3934994	6.82460022	0.0540000014	0	255	0
10.3934994	6.82460022	-0.0407500006	0	255	0
10.3934994	6.82102489	-0.0407500006	0	255	0
10.4639997	6.82102489	0.0540000014	0	255	0
10.4639997	6.82102489	-0.0407500006	0	255	0
10.323	6.82460022	-0.0881250054	0	255	0
10.3934994	6.82460022	-0.0407500006	0	255	0
10.3934994	6.82460022	-0.0881250054	0	255	0
10.3934994	6.82102489	-0.135499999	0	255	0
10.323	6.81745005	-0.0881250054	0	255	0
10.4639997	6.82102489	-0.0407500006	0	255	0
10.4639997	6.82102489	-0.0881250054	0	255	0
10.4639997	6.81745005	-0.0881250054	0	255	0
10.323	6.81745005	-0.0881249979	0	255	0
10.323	6.8138752	-0.135499999	0	255	0
10.323	6.8138752	-0.0881249979	0	255	0
10.4639997	6.81745005	-0.0881249979	0	255	0
10.3934994	6.81029987	-0.135499999	0	255	0
10.4639997	6.81029987	-0.0881249979	0	255	0
10.3934994	6.81029987	-0.0881249979	0	255	0
10.4639997	6.8138752	-0.0407500006	0	255	0
10.4639997	6.8138752	0.00662500039	0	255	0
10.5345001	6.8138752	0.00662500039	0	255	0
10.4639997	6.81029987	0.00662500039	0	255	0
10.5345001	6.81029987	0.00662500039	0	255	0
10.5345001	6.81029987	-0.0407500006	0	255	0
10.323	6.8138752	-0.0407500006	0	255	0
10.323	6.81745005	-0.135499999	0	255	0
10.323	6.8138752	-0.135499999	0	255	0
10.323	6.81029987	0.0540000014	0	255	0
10.3934994	6.81029987	-0.0407500006	0	255	0
10.3934994	6.81029987	-0.135499999	0	255	0
10.4639997	6.8138752	-0.0407500006	0	255	0
10.5345001	6.8138752	-0.135499999	0	255	0
10.5345001	6.8138752	-0.135499999	0	255	0
10.5345001	6.81029987	-0.0407500006	0	255	0
10.4639997	6.8138752	-0.135499999	0	255	0
10.5345001	6.81029987	-0.135499999	0	255	0
10.3934994	6.81745005	-0.277625024	0	255	0
10.3934994	6.81745005	-0.325000018	0	255	0
10.4639997	6.81745005	-0.325000018	0	255	0
10.4639997	6.81745005	-0.277625024	0	255	0
10.3934994	6.81029987	-0.325000018	0	255	0
10.4639997	6.81029987	-0.277625024	0	255	0
10.3934994	6.81029987	-0.277625024	0	255	0
10.4639997	6.8138752	-0.135499999	0	255	0
10.5345001	6.8138752	-0.230250001	0	255	0
10.5345001	6.8138752	-0.230250001	0	255	0
10.5345001	6.81029987	-0.135499999	0	255	0
10.4639997	6.8138752	-0.230250001	0	255	0
10.5345001	6.81029987	-0.230250001	0	255	0
10.4639997	6.81029987	-0.230250001	0	255	0
10.4639997	6.81029987	-0.277625024	0	255	0
10.4639997	6.81029987	-0.325000018	0	255	0
10.6049995	6.81029987	-0.325000018	0	255	0
10.6049995	6.81029987	-0.277625024	0	255	0
10.5345001	6.80672503	-0.230250001	0	255	0
10.4639997	6.80315018	-0.277625024	0	255	0
10.6049995	6.80315018	-0.277625024	0	255	0
10.5345001	6.80315018	-0.277625024	0	255	0
10.5345001	6.80315018	-0.325000018	0	255	0
10.6049995	6.80315018	-0.277625024	0	255	0
10.5345001	6.79957485	-0.230250001	0	255	0
10.6049995	6.79957485	-0.325000018	0	255	0
10.6049995	6.79957485	-0.277625024	0	255	0
10.5345001	6.79957485	-0.277625024	0	255	0
10.6049995	6.80315018	-0.135499999	0	255	0
10.6049995	6.80315018	-0.0881250054	0	255	0
10.6754999	6.80315018	-0.0881250054	0	255	0
10.6754999	6.80315018	-0.135499999	0	255	0
10.6049995	6.79957485	-0.0881250054	0	255	0
10.6754999	6.79957485	-0.0881250054	0	255	0
10.6049995	6.796	-0.0407500006	0	255	0
10.6049995	6.79957485	-0.135499999	0	255	0
10.3934994	6.81029987	-0.182875007	0	255	0
10.3934994	6.81029987	-0.135499999	0	255	0
10.4639997	6.81029987	-0.182875007	0	255	0
10.3934994	6.80672503	-0.230250001	0	255	0
10.4639997	6.80672503	-0.135499999	0	255	0
10.4639997	6.80672503	-0.182875007	0	255	0
10.3934994	6.80672503	-0.182875007	0	255	0
10.6049995	6.81029987	-0.135499999	0	255	0
10.4639997	6.81029987	-0.230250001	0	255	0
10.6049995	6.81029987	-0.230250001	0	255	0
10.5345001	6.80672503	-0.230250001	0	255	0
10.4639997	6.81029987	-0.135499999	0	255	0
10.4639997	6.81029987	-0.182875007	0	255	0
10.6049995	6.81029987	-0.182875007	0	255	0
10.323	6.796	0.0540000014	0	255	0
10.4639997	6.80315018	-0.182875007	0	255	0
10.6049995	6.80315018	-0.182875007	0	255	0
10.6049995	6.80315018	-0.135499999	0	255	0
10.5345001	6.80315018	-0.135499999	0	255	0
10.5345001	6.79957485	-0.230250001	0	255	0
10.6049995	6.79957485	-0.135499999	0	255	0
10.5345001	6.80315018	-0.230250001	0	255	0
10.6049995	6.79957485	-0.230250001	0	255	0
10.4639997	6.796	-0.135499999	0	255	0
10.5345001	6.80315018	-0.230250001	0	255	0
10.5345001	6.79957485	-0.325000018	0	255	0
10.6049995	6.79957485	-0.230250001	0	255	0
10.5345001	6.80315018	-0.325000018	0	255	0
10.6049995	6.80315018	-0.325000018	0	255	0
10.6049995	6.79957485	-0.325000018	0	255	0
10.4639997	6.796	-0.230250001	0	255	0
10.6049995	6.80315018	-0.277625024	0	255	0
10.6049995	6.80315018	-0.135499999	0	255	0
10.6754999	6.80315018	-0.325000018	0	255	0
10.6754999	6.80315018	-0.277625024	0	255	0
10.6754999	6.79957485	-0.230250001	0	255	0
10.6049995	6.796	-0.277625024	0	255	0
10.7460003	6.79957485	-0.325000018	0	255	0
10.7460003	6.79957485	-0.277625024	0	255	0
10.7460003	6.796	-0.135499999	0	255	0
10.7460003	6.796	-0.277625024	0	255	0
10.6049995	6.80315018	-0.230250001	0	255	0
10.6754999	6.80315018	-0.230250001	0	255	0
10.6049995	6.80315018	-0.325000018	0	255	0
10.6754999	6.80315018	-0.325000018	0	255	0
10.6754999	6.79957485	-0.325000018	0	255	0
10.7460003	6.79957485	-0.230250001	0	255	0
10.7460003	6.796	-0.230250001	0	255	0
10.6049995	6.796	-0.325000018	0	255	0
10.7460003	6.79957485	-0.325000018	0	255	0
10.7460003	6.796	-0.325000018	0	255	0
10.6754999	6.79957485	-0.467125028	0	255	0
10.6754999	6.79957485	-0.419750035	0	255	0
10.7460003	6.79957485	-0.514500022	0	255	0
10.7460003	6.79957485	-0.467125028	0	255	0
10.6754999	6.796	-0.514500022	0	255	0
10.7460003	6.796	-0.325000018	0	255	0
10.7460003	6.796	-0.467125028	0	255	0
10.6754999	6.796	-0.467125028	0	255	0
10.6754999	6.796	-0.656625032	0	255	0
10.6754999	6.796	-0.703999996	0	255	0
10.7460003	6.796	-0.656625032	0	255	0
10.6754999	6.79242516	-0.609250009	0	255	0
10.7460003	6.79242516	-0.703999996	0	255	0
10.7460003	6.79242516	-0.656625032	0	255	0
10.6754999	6.79242516	-0.656625032	0	255	0
10.7460003	6.796	-0.656625032	0	255	0
10.8164997	6.796	-0.703999996	0	255	0
10.8164997	6.796	-0.656625032	0	255	0
10.8164997	6.79242516	-0.609250009	0	255	0
10.7460003	6.78884983	-0.656625032	0	255	0
10.8870001	6.79242516	-0.703999996	0	255	0
10.8870001	6.79242516	-0.656625032	0	255	0
10.8870001	6.78884983	-0.656625032	0	255	0
10.8164997	6.78884983	-0.656625032	0	255	0
10.8164997	6.78884983	-0.703999996	0	255	0
10.8870001	6.78884983	-0.656625032	0	255	0
10.8164997	6.78527498	-0.609250009	0	255	0
10.8870001	6.78527498	-0.703999996	0	255	0
10.8870001	6.78527498	-0.656625032	0	255	0
10.8164997	6.78527498	-0.656625032	0	255	0
10.8870001	6.78884983	-0.325000018	0	255	0
10.8870001	6.78884983	-0.277625024	0	255	0
10.9575005	6.78884983	-0.277625024	0	255	0
10.9575005	6.78884983	-0.325000018	0	255	0
10.8870001	6.78170013	-0.277625024	0	255	0
10.9575005	6.78170013	-0.277625024	0	255	0
10.9575005	6.78170013	-0.325000018	0	255	0
10.8870001	6.78170013	-0.325000018	0	255	0
10.6754999	6.796	-0.372375011	0	255	0
10.6754999	6.796	-0.325000018	0	255	0
10.7460003	6.796	-0.372375011	0	255	0
10.6754999	6.79242516	-0.419750035	0	255	0
10.7460003	6.79242516	-0.325000018	0	255	0
10.7460003	6.79242516	-0.372375011	0	255	0
10.6754999	6.79242516	-0.372375011	0	255	0
10.7460003	6.796	-0.372375011	0	255	0
10.8164997	6.796	-0.325000018	0	255	0
10.8164997	6.796	-0.372375011	0	255	0
10.8164997	6.79242516	-0.419750035	0	255	0
10.8870001	6.79242516	-0.325000018	0	255	0
10.7460003	6.79242516	-0.419750035	0	255	0
10.7460003	6.78884983	-0.419750035	0	255	0
10.8870001	6.79242516	-0.419750035	0	255	0
10.7460003	6.796	-0.561874986	0	255	0
10.7460003	6.796	-0.419750035	0	255	0
10.8870001	6.796	-0.419750035	0	255	0
10.8870001	6.796	-0.561874986	0	255	0
10.7460003	6.78884983	-0.703999996	0	255	0
10.8870001	6.78884983	-0.419750035	0	255	0
10.8870001	6.78884983	-0.561874986	0	255	0
10.7460003	6.78884983	-0.561874986	0	255	0
10.8164997	6.78884983	-0.325000018	0	255	0
10.8164997	6.78527498	-0.419750035	0	255	0
10.8870001	6.78527498	-0.325000018	0	255	0
10.8164997	6.78884983	-0.419750035	0	255	0
10.8870001	6.78527498	-0.419750035	0	255	0
10.7460003	6.78170013	-0.325000018	0	255	0
10.8164997	6.78884983	-0.419750035	0	255	0
10.8164997	6.78527498	-0.514500022	0	255	0
10.8870001	6.78527498	-0.419750035	0	255	0
10.8164997	6.78884983	-0.514500022	0	255	0
10.8870001	6.78884983	-0.514500022	0	255	0
10.8870001	6.78527498	-0.514500022	0	255	0
10.7460003	6.78170013	-0.419750035	0	255	0
10.8870001	6.78884983	-0.467125028	0	255	0
10.8870001	6.78884983	-0.325000018	0	255	0
10.9575005	6.78884983	-0.514500022	0	255	0
10.9575005	6.78884983	-0.467125028	0	255	0
10.9575005	6.78527498	-0.419750035	0	255	0
10.8870001	6.78170013	-0.467125028	0	255	0
11.0279999	6.78527498	-0.514500022	0	255	0
11.0279999	6.78527498	-0.467125028	0	255	0
11.0279999	6.78170013	-0.325000018	0	255	0
11.0279999	6.78170013	-0.467125028	0	255	0
10.8870001	6.78884983	-0.467125028	0	255	0
10.8870001	6.78884983	-0.419750035	0	255	0
10.9575005	6.78884983	-0.419750035	0	255	0
10.9575005	6.78884983	-0.467125028	0	255	0
10.9575005	6.78527498	-0.514500022	0	255	0
11.0279999	6.78527498	-0.419750035	0	255	0
11.0279999	6.78170013	-0.419750035	0	255	0
10.8870001	6.78527498	-0.514500022	0	255	0
10.8870001	6.78170013	-0.514500022	0	255	0
11.0279999	6.78527498	-0.514500022	0	255	0
11.0279999	6.78170013	-0.514500022	0	255	0
10.8870001	6.78527498	-0.656625032	0	255	0
10.8870001	6.78527498	-0.703999996	0	255	0
10.9575005	6.78527498	-0.609250009	0	255	0
10.9575005	6.78527498	-0.656625032	0	255	0
10.9575005	6.78527498	-0.609250009	0	255	0
10.9575005	6.78170013	-0.703999996	0	255	0
10.9575005	6.78170013	-0.656625032	0	255	0
10.8870001	6.78170013	-0.656625032	0	255	0
10.9575005	6.78170013	-0.656625032	0	255	0
10.9575005	6.78170013	-0.703999996	0	255	0
11.0279999	6.78170013	-0.656625032	0	255	0
10.9575005	6.77812481	-0.609250009	0	255	0
11.0279999	6.77812481	-0.703999996	0	255	0
11.0279999	6.77812481	-0.656625032	0	255	0
10.9575005	6.77812481	-0.656625032	0	255	0
11.0279999	6.78170013	-0.656625032	0	255	0
11.0985003	6.78170013	-0.703999996	0	255	0
11.0985003	6.78170013	-0.656625032	0	255	0
11.0985003	6.77812481	-0.609250009	0	255	0
11.0279999	6.77454996	-0.656625032	0	255	0
11.1690006	6.77812481	-0.703999996	0	255	0
11.1690006	6.77812481	-0.656625032	0	255	0
11.1690006	6.77454996	-0.703999996	0	255	0
11.1690006	6.77454996	-0.656625032	0	255	0
11.1690006	6.77812481	-0.514500022	0	255	0
11.1690006	6.77812481	-0.467125028	0	255	0
11.2395	6.77812481	-0.467125028	0	255	0
11.1690006	6.77454996	-0.467125028	0	255	0
11.2395	6.77454996	-0.467125028	0	255	0
11.2395	6.77454996	-0.514500022	0	255	0
11.1690006	6.77454996	-0.514500022	0	255	0
11.1690006	6.77454996	-0.467125028	0	255	0
11.2395	6.77454996	-0.419750035	0	255	0
11.1690006	6.77097511	-0.419750035	0	255	0
11.2395	6.77097511	-0.514500022	0	255	0
11.1690006	6.77097511	-0.467125028	0	255	0
11.2395	6.77454996	-0.514500022	0	255	0
11.3100004	6.77454996	-0.467125028	0	255	0
11.1690006	6.76739979	-0.325000018	0	255	0
11.2395	6.76739979	-0.467125028	0	255	0
11.3100004	6.76739979	-0.467125028	0	255	0
11.3100004	6.76739979	-0.514500022	0	255	0
11.2395	6.76739979	-0.514500022	0	255	0
10.9575005	6.78170013	-0.561874986	0	255	0
10.9575005	6.78170013	-0.514500022	0	255	0
11.0279999	6.78170013	-0.561874986	0	255	0
10.9575005	6.77812481	-0.609250009	0	255	0
11.0279999	6.77812481	-0.514500022	0	255	0
11.0279999	6.77812481	-0.561874986	0	255	0
10.9575005	6.77812481	-0.561874986	0	255	0
11.0279999	6.78170013	-0.561874986	0	255	0
11.1690006	6.78170013	-0.514500022	0	255	0
11.1690006	6.78170013	-0.561874986	0	255	0
11.0985003	6.77812481	-0.609250009	0	255	0
11.0279999	6.77454996	-0.561874986	0	255	0
11.1690006	6.77454996	-0.514500022	0	255	0
11.0279999	6.77454996	-0.703999996	0	255	0
11.1690006	6.77812481	-0.609250009	0	255	0
11.1690006	6.77454996	-0.609250009	0	255	0
11.0985003	6.77454996	-0.609250009	0	255	0
11.0279999	6.78170013	-0.514500022	0	255	0
11.0279999	6.78170013	-0.561874986	0	255	0
11.1690006	6.78170013	-0.561874986	0	255	0
10.8870001	6.76739979	-0.325000018	0	255	0
11.0279999	6.77454996	-0.561874986	0	255	0
11.1690006	6.77454996	-0.561874986	0	255	0
11.1690006	6.77454996	-0.514500022	0	255	0
11.0279999	6.77454996	-0.609250009	0	255	0
11.1690006	6.77812481	-0.561874986	0	255	0
11.1690006	6.77812481	-0.514500022	0	255	0
11.2395	6.77812481	-0.609250009	0	255	0
11.2395	6.77812481	-0.561874986	0	255	0
11.2395	6.77812481	-0.609250009	0	255	0
11.2395	6.77454996	-0.514500022	0	255	0
11.2395	6.77454996	-0.561874986	0	255	0
11.1690006	6.77454996	-0.561874986	0	255	0
11.1690006	6.77454996	-0.656625032	0	255	0
11.1690006	6.77454996	-0.514500022	0	255	0
11.1690006	6.77097511	-0.703999996	0	255	0
11.1690006	6.77097511	-0.656625032	0	255	0
11.3100004	6.77454996	-0.703999996	0	255	0
11.3100004	6.77454996	-0.656625032	0	255	0
11.2395	6.76739979	-0.703999996	0	255	0
11.3100004	6.76739979	-0.656625032	0	255	0
11.2395	6.76739979	-0.656625032	0	255	0
11.3100004	6.77454996	-0.561874986	0	255	0
11.3805008	6.77454996	-0.561874986	0	255	0
11.3805008	6.77454996	-0.609250009	0	255	0
11.3100004	6.77097511	-0.514500022	0	255	0
11.3805008	6.77097511	-0.609250009	0	255	0
11.3805008	6.77097511	-0.609250009	0	255	0
11.3805008	6.76739979	-0.514500022	0	255	0
11.4510002	6.77097511	-0.561874986	0	255	0
11.4510002	6.77097511	-0.609250009	0	255	0
11.4510002	6.76739979	-0.561874986	0	255	0
11.1690006	6.77454996	-0.656625032	0	255	0
11.1690006	6.77454996	-0.609250009	0	255	0
11.1690006	6.77097511	-0.609250009	0	255	0
11.1690006	6.77097511	-0.656625032	0	255	0
11.3100004	6.77454996	-0.656625032	0	255	0
11.3100004	6.77097511	-0.609250009	0	255	0
11.3100004	6.77097511	-0.656625032	0	255	0
11.3100004	6.77097511	-0.609250009	0	255	0
11.3805008	6.77097511	-0.703999996	0	255	0
11.4510002	6.77097511	-0.609250009	0	255	0
11.3100004	6.77097511	-0.703999996	0	255	0
11.3100004	6.76739979	-0.703999996	0	255	0
11.4510002	6.77097511	-0.703999996	0	255	0
11.4510002	6.76739979	-0.703999996	0	255	0
