-5.06475019	6.67237473	0.121000007	0	255	0
-5.0383749	6.67711258	0.187000006	0	255	0
-5.01200008	6.67711258	0.187000006	0	255	0
-5.01200008	6.67711258	0.165000007	0	255	0
-5.0383749	6.67237473	0.187000006	0	255	0
-5.01200008	6.67237473	0.187000006	0	255	0
-5.0383749	6.67237473	0.165000007	0	255	0
-5.09112549	6.66763735	0.143000007	0	255	0
-5.09112549	6.66763735	0.165000007	0	255	0
-5.06475019	6.66763735	0.121000007	0	255	0
-5.06475019	6.66763735	0.143000007	0	255	0
-5.09112549	6.66289997	0.121000007	0	255	0
-5.06475019	6.66289997	0.143000007	0	255	0
-5.09112549	6.66289997	0.143000007	0	255	0
-5.06475019	6.67237473	0.187000006	0	255	0
-5.01200008	6.67237473	0.187000006	0	255	0
-5.06475019	6.66289997	0.187000006	0	255	0
-5.01200008	6.66289997	0.187000006	0	255	0
-5.01200008	6.66289997	0.165000007	0	255	0
-5.09112549	6.66763735	0.121000007	0	255	0
-5.06475019	6.66763735	0.165000007	0	255	0
-5.09112549	6.66289997	0.165000007	0	255	0
-5.11750031	6.66289997	0.165000007	0	255	0
-5.06475019	6.66763735	0.121000007	0	255	0
-5.09112549	6.66289997	0.121000007	0	255	0
-5.06475019	6.67237473	0.143000007	0	255	0
-5.01200008	6.66763735	0.165000007	0	255	0
-5.0383749	6.67237473	0.121000007	0	255	0
-5.01200008	6.67237473	0.121000007	0	255	0
-5.0383749	6.66763735	0.121000007	0	255	0
-5.0383749	6.66289997	0.165000007	0	255	0
-5.06475019	6.66763735	0.121000007	0	255	0
-5.01200008	6.66289997	0.143000007	0	255	0
-5.0383749	6.67711258	0.077000007	0	255	0
-5.01200008	6.67711258	0.121000007	0	255	0
-5.0383749	6.67237473	0.121000007	0	255	0
-5.01200008	6.67711258	0.077000007	0	255	0
-5.0383749	6.67237473	0.077000007	0	255	0
-5.06475019	6.68184996	0.121000007	0	255	0
-5.06475019	6.68184996	0.0990000069	0	255	0
-5.01200008	6.68184996	0.0990000069	0	255	0
-5.01200008	6.68184996	0.0330000073	0	255	0
-5.06475019	6.67237473	0.0990000069	0	255	0
-5.01200008	6.67237473	0.0990000069	0	255	0
-5.01200008	6.67237473	0.121000007	0	255	0
-5.09112549	6.67237473	0.0550000072	0	255	0
-5.09112549	6.67237473	0.0330000073	0	255	0
-5.06475019	6.67237473	0.0550000072	0	255	0
-5.11750031	6.66763735	0.0550000072	0	255	0
-5.11750031	6.66763735	0.0330000073	0	255	0
-5.09112549	6.66763735	0.077000007	0	255	0
-5.11750031	6.66289997	0.0550000072	0	255	0
-5.06475019	6.66289997	0.0550000072	0	255	0
-5.06475019	6.66763735	0.077000007	0	255	0
-5.01200008	6.66763735	0.077000007	0	255	0
-5.0383749	6.66763735	0.077000007	0	255	0
-5.06475019	6.66289997	0.0990000069	0	255	0
-5.01200008	6.66289997	0.0990000069	0	255	0
-5.09112549	6.67237473	0.077000007	0	255	0
-5.09112549	6.67237473	0.0330000073	0	255	0
-5.11750031	6.66763735	0.077000007	0	255	0
-5.09112549	6.66763735	0.0330000073	0	255	0
-5.11750031	6.66763735	0.0330000073	0	255	0
-5.11750031	6.66289997	0.0330000073	0	255	0
-5.06475019	6.66289997	0.0330000073	0	255	0
-5.01200008	6.66763735	0.077000007	0	255	0
-5.06475019	6.66763735	0.0330000073	0	255	0
-5.01200008	6.67237473	0.0330000073	0	255	0
-5.01200008	6.66763735	0.0330000073	0	255	0
-5.0383749	6.66763735	0.0330000073	0	255	0
-5.0383749	6.66289997	0.077000007	0	255	0
-5.0383749	6.66289997	0.0550000072	0	255	0
-5.06475019	6.66289997	0.0550000072	0	255	0
-4.93287468	6.69132519	0.165000007	0	255	0
-4.93287468	6.69132519	0.187000006	0	255	0
-4.90649986	6.69132519	0.187000006	0	255	0
-4.90649986	6.69132519	0.165000007	0	255	0
-4.95924997	6.68658733	0.209000006	0	255	0
-4.93287468	6.68658733	0.165000007	0	255	0
-4.90649986	6.68658733	0.209000006	0	255	0
-4.95924997	6.68658733	0.165000007	0	255	0
-4.95924997	6.68658733	0.165000007	0	255	0
-4.93287468	6.68658733	0.121000007	0	255	0
-4.90649986	6.68658733	0.165000007	0	255	0
-4.95924997	6.68658733	0.121000007	0	255	0
-4.95924997	6.68184996	0.121000007	0	255	0
-4.90649986	6.68658733	0.121000007	0	255	0
-4.88012505	6.69606256	0.165000007	0	255	0
-4.85375023	6.69606256	0.209000006	0	255	0
-4.88012505	6.69132519	0.209000006	0	255	0
-4.85375023	6.69606256	0.165000007	0	255	0
-4.88012505	6.69132519	0.165000007	0	255	0
-4.85375023	6.70079994	0.209000006	0	255	0
-4.80100012	6.70079994	0.209000006	0	255	0
-4.80100012	6.69606256	0.209000006	0	255	0
-4.85375023	6.70079994	0.165000007	0	255	0
-4.80100012	6.69606256	0.165000007	0	255	0
-4.82737541	6.69606256	0.165000007	0	255	0
-4.82737541	6.69132519	0.209000006	0	255	0
-4.82737541	6.69132519	0.165000007	0	255	0
-4.88012505	6.69606256	0.121000007	0	255	0
-4.85375023	6.69606256	0.165000007	0	255	0
-4.88012505	6.69132519	0.165000007	0	255	0
-4.90649986	6.69606256	0.121000007	0	255	0
-4.90649986	6.69606256	0.143000007	0	255	0
-4.90649986	6.69132519	0.143000007	0	255	0
-4.85375023	6.69606256	0.121000007	0	255	0
-4.85375023	6.70079994	0.0990000069	0	255	0
-4.85375023	6.70079994	0.165000007	0	255	0
-4.80100012	6.70079994	0.0990000069	0	255	0
-4.85375023	6.69132519	0.0330000073	0	255	0
-4.80100012	6.69132519	0.165000007	0	255	0
-4.80100012	6.69132519	0.0990000069	0	255	0
-4.85375023	6.69132519	0.0990000069	0	255	0
-4.90649986	6.69132519	0.143000007	0	255	0
-4.85375023	6.69132519	0.143000007	0	255	0
-4.85375023	6.68658733	0.121000007	0	255	0
-4.85375023	6.68658733	0.143000007	0	255	0
-4.88012505	6.68658733	0.165000007	0	255	0
-4.88012505	6.68184996	0.121000007	0	255	0
-4.88012505	6.68184996	0.143000007	0	255	0
-4.90649986	6.68184996	0.143000007	0	255	0
-4.85375023	6.68658733	0.165000007	0	255	0
-4.85375023	6.68658733	0.121000007	0	255	0
-4.88012505	6.68658733	0.121000007	0	255	0
-4.88012505	6.68184996	0.165000007	0	255	0
-4.88012505	6.68184996	0.121000007	0	255	0
-4.98562527	6.68658733	0.0550000072	0	255	0
-4.98562527	6.68658733	0.077000007	0	255	0
-4.95924997	6.68658733	0.0330000073	0	255	0
-4.95924997	6.68658733	0.0550000072	0	255	0
-4.98562527	6.68184996	0.0330000073	0	255	0
-4.95924997	6.68184996	0.0550000072	0	255	0
-4.98562527	6.68184996	0.0550000072	0	255	0
-4.93287468	6.69132519	0.121000007	0	255	0
-4.90649986	6.69132519	0.121000007	0	255	0
-4.93287468	6.69132519	0.077000007	0	255	0
-4.95924997	6.68658733	0.121000007	0	255	0
-4.93287468	6.68658733	0.077000007	0	255	0
-4.95924997	6.68658733	0.077000007	0	255	0
-4.98562527	6.68658733	0.0550000072	0	255	0
-4.98562527	6.68658733	0.0330000073	0	255	0
-4.95924997	6.68658733	0.077000007	0	255	0
-4.95924997	6.68658733	0.0550000072	0	255	0
-4.98562527	6.68184996	0.077000007	0	255	0
-4.95924997	6.68184996	0.0550000072	0	255	0
-4.98562527	6.68184996	0.0550000072	0	255	0
-4.93287468	6.69132519	0.0550000072	0	255	0
-4.93287468	6.69132519	0.077000007	0	255	0
-4.90649986	6.69132519	0.0550000072	0	255	0
-4.95924997	6.68658733	0.077000007	0	255	0
-4.93287468	6.68658733	0.0330000073	0	255	0
-4.90649986	6.68184996	0.0550000072	0	255	0
-4.95924997	6.68658733	0.0330000073	0	255	0
-4.93287468	6.68184996	0.0330000073	0	255	0
-4.95924997	6.68184996	0.0330000073	0	255	0
-4.90649986	6.70079994	0.121000007	0	255	0
-4.80100012	6.70079994	0.121000007	0	255	0
-4.80100012	6.70079994	0.0550000072	0	255	0
-4.80100012	6.69132519	0.121000007	0	255	0
-4.80100012	6.69132519	0.0550000072	0	255	0
-4.90649986	6.70079994	-0.0109999925	0	255	0
-4.85375023	6.70079994	-0.0109999925	0	255	0
-4.85375023	6.69132519	-0.0109999925	0	255	0
-4.85375023	6.68184996	0.121000007	0	255	0
-4.85375023	6.68184996	-0.0109999925	0	255	0
-4.90649986	6.68184996	-0.0109999925	0	255	0
-5.01200008	6.68184996	0.0550000072	0	255	0
-5.01200008	6.68184996	0.209000006	0	255	0
-4.95924997	6.68184996	0.0550000072	0	255	0
-4.98562527	6.67711258	0.077000007	0	255	0
-5.01200008	6.67237473	0.0550000072	0	255	0
-4.95924997	6.67237473	0.121000007	0	255	0
-4.95924997	6.67237473	0.0550000072	0	255	0
-4.95924997	6.68184996	0.0550000072	0	255	0
-4.95924997	6.67711258	0.0330000073	0	255	0
-4.95924997	6.67711258	0.0550000072	0	255	0
-4.90649986	6.68184996	0.0550000072	0	255	0
-4.90649986	6.67711258	0.0330000073	0	255	0
-4.90649986	6.67711258	0.0550000072	0	255	0
-5.01200008	6.67237473	0.0990000069	0	255	0
-5.01200008	6.67237473	0.0330000073	0	255	0
-4.98562527	6.67237473	0.121000007	0	255	0
-4.98562527	6.67237473	0.0990000069	0	255	0
-5.01200008	6.66763735	0.121000007	0	255	0
-4.98562527	6.66763735	0.077000007	0	255	0
-4.98562527	6.66763735	0.0990000069	0	255	0
-5.01200008	6.66763735	0.0990000069	0	255	0
-5.01200008	6.68184996	0.121000007	0	255	0
-4.95924997	6.67711258	0.077000007	0	255	0
-4.98562527	6.67711258	0.077000007	0	255	0
-4.95924997	6.67237473	0.0990000069	0	255	0
-4.98562527	6.67237473	0.077000007	0	255	0
-4.93287468	6.68184996	0.121000007	0	255	0
-4.95924997	6.67711258	0.121000007	0	255	0
-4.93287468	6.67711258	0.077000007	0	255	0
-4.93287468	6.68184996	0.077000007	0	255	0
-4.95924997	6.67711258	0.077000007	0	255	0
-5.01200008	6.68184996	0.0550000072	0	255	0
-4.95924997	6.67711258	0.077000007	0	255	0
-4.98562527	6.68184996	0.0330000073	0	255	0
-4.95924997	6.68184996	0.0330000073	0	255	0
-4.95924997	6.67711258	0.0330000073	0	255	0
-4.98562527	6.67711258	0.0330000073	0	255	0
-4.98562527	6.67237473	0.077000007	0	255	0
-5.01200008	6.67711258	0.0330000073	0	255	0
-4.98562527	6.67237473	0.0330000073	0	255	0
-5.01200008	6.67237473	0.0330000073	0	255	0
-4.95924997	6.68184996	0.121000007	0	255	0
-4.95924997	6.68184996	0.0990000069	0	255	0
-4.90649986	6.68184996	0.0990000069	0	255	0
-5.01200008	6.66289997	-0.143000007	0	255	0
-4.95924997	6.67237473	0.0990000069	0	255	0
-4.90649986	6.67237473	0.0990000069	0	255	0
-4.90649986	6.67237473	0.121000007	0	255	0
-4.95924997	6.67237473	0.077000007	0	255	0
-5.01200008	6.67237473	0.0550000072	0	255	0
-4.98562527	6.67237473	0.0330000073	0	255	0
-4.98562527	6.67237473	0.0550000072	0	255	0
-5.01200008	6.66763735	0.0330000073	0	255	0
-4.98562527	6.66763735	0.077000007	0	255	0
-4.98562527	6.66763735	0.0550000072	0	255	0
-5.01200008	6.66763735	0.0550000072	0	255	0
-5.06475019	6.68184996	0.0330000073	0	255	0
-5.06475019	6.68184996	0.0110000055	0	255	0
-5.01200008	6.68184996	0.0110000055	0	255	0
-5.01200008	6.68184996	-0.0549999997	0	255	0
-5.06475019	6.67237473	0.0110000055	0	255	0
-5.01200008	6.67237473	0.0110000055	0	255	0
-5.01200008	6.67237473	0.0330000073	0	255	0
-5.06475019	6.67237473	-0.0109999962	0	255	0
-5.09112549	6.66763735	-0.0329999998	0	255	0
-5.09112549	6.66763735	-0.0109999962	0	255	0
-5.06475019	6.66763735	-0.0549999997	0	255	0
-5.06475019	6.66763735	-0.0329999998	0	255	0
-5.09112549	6.66289997	-0.0549999997	0	255	0
-5.06475019	6.66289997	0.0330000073	0	255	0
-5.06475019	6.66289997	-0.0329999998	0	255	0
-5.09112549	6.66289997	-0.0329999998	0	255	0
-4.90649986	6.70079994	0.121000007	0	255	0
-4.90649986	6.70079994	0.0990000069	0	255	0
-4.80100012	6.70079994	0.0990000069	0	255	0
-4.80100012	6.70079994	-0.143000007	0	255	0
-4.90649986	6.68184996	0.0990000069	0	255	0
-4.80100012	6.68184996	0.0990000069	0	255	0
-4.80100012	6.68184996	0.121000007	0	255	0
-4.90649986	6.68184996	0.077000007	0	255	0
-5.01200008	6.68184996	0.0330000073	0	255	0
-5.01200008	6.68184996	0.0550000072	0	255	0
-4.95924997	6.68184996	0.0550000072	0	255	0
-4.95924997	6.68184996	0.0330000073	0	255	0
-5.01200008	6.66289997	0.0550000072	0	255	0
-4.95924997	6.66289997	0.0550000072	0	255	0
-4.95924997	6.66289997	0.0330000073	0	255	0
-5.01200008	6.66289997	0.0330000073	0	255	0
-5.14387512	6.66289997	-0.121000007	0	255	0
-5.14387512	6.66289997	-0.143000007	0	255	0
-5.11750031	6.66289997	-0.121000007	0	255	0
-5.17024994	6.65816259	-0.121000007	0	255	0
-5.17024994	6.65816259	-0.143000007	0	255	0
-5.14387512	6.65816259	-0.0990000069	0	255	0
-5.17024994	6.65342522	-0.121000007	0	255	0
-5.11750031	6.65342522	-0.121000007	0	255	0
-5.19662476	6.65342522	-0.077000007	0	255	0
-5.19662476	6.65342522	-0.0549999997	0	255	0
-5.17024994	6.65342522	-0.077000007	0	255	0
-5.22300005	6.64868736	-0.077000007	0	255	0
-5.22300005	6.64868736	-0.0549999997	0	255	0
-5.19662476	6.64868736	-0.0990000069	0	255	0
-5.22300005	6.64394999	-0.077000007	0	255	0
-5.17024994	6.64394999	-0.143000007	0	255	0
-5.17024994	6.64394999	-0.077000007	0	255	0
-5.17024994	6.65342522	-0.121000007	0	255	0
-5.11750031	6.65342522	-0.121000007	0	255	0
-5.14387512	6.64868736	-0.0990000069	0	255	0
-5.17024994	6.64394999	-0.121000007	0	255	0
-5.11750031	6.64394999	0.0330000073	0	255	0
-5.11750031	6.64394999	-0.121000007	0	255	0
-5.11750031	6.66289997	-0.121000007	0	255	0
-5.06475019	6.66289997	-0.143000007	0	255	0
-5.06475019	6.66289997	-0.121000007	0	255	0
-5.06475019	6.65816259	-0.143000007	0	255	0
-5.06475019	6.65816259	-0.121000007	0	255	0
-5.09112549	6.65816259	-0.0990000069	0	255	0
-5.09112549	6.65342522	-0.143000007	0	255	0
-5.09112549	6.65342522	-0.121000007	0	255	0
-5.11750031	6.65342522	-0.121000007	0	255	0
-5.19662476	6.64394999	0.0110000055	0	255	0
-5.19662476	6.64394999	0.0330000073	0	255	0
-5.17024994	6.64394999	0.0110000055	0	255	0
-5.22300005	6.63921261	0.0110000055	0	255	0
-5.22300005	6.63921261	0.0330000073	0	255	0
-5.19662476	6.63921261	-0.0109999962	0	255	0
-5.22300005	6.63447475	0.0110000055	0	255	0
-5.17024994	6.63447475	0.0110000055	0	255	0
-5.17024994	6.64394999	0.0110000055	0	255	0
-5.14387512	6.64394999	0.0330000073	0	255	0
-5.14387512	6.64394999	0.0110000055	0	255	0
-5.14387512	6.63921261	-0.0109999962	0	255	0
-5.14387512	6.63447475	0.0330000073	0	255	0
-5.14387512	6.63447475	0.0110000055	0	255	0
-5.17024994	6.63447475	0.0110000055	0	255	0
-5.22300005	6.63447475	-0.0329999998	0	255	0
-5.22300005	6.63447475	0.0330000073	0	255	0
-5.17024994	6.63447475	-0.0329999998	0	255	0
-5.19662476	6.62973738	-0.0109999962	0	255	0
-5.22300005	6.625	-0.0329999998	0	255	0
-5.17024994	6.625	0.0330000073	0	255	0
-5.17024994	6.625	-0.0329999998	0	255	0
-5.17024994	6.63447475	0.0110000055	0	255	0
-5.14387512	6.63447475	0.0330000073	0	255	0
-5.14387512	6.63447475	0.0110000055	0	255	0
-5.17024994	6.62973738	0.0330000073	0	255	0
-5.14387512	6.62973738	-0.0109999962	0	255	0
-5.14387512	6.62973738	0.0110000055	0	255	0
-5.17024994	6.62973738	0.0110000055	0	255	0
-5.14387512	6.66289997	0.0110000055	0	255	0
-5.14387512	6.66289997	0.0330000073	0	255	0
-5.11750031	6.66289997	0.0110000055	0	255	0
-5.11750031	6.65816259	0.0330000073	0	255	0
-5.11750031	6.65816259	0.0110000055	0	255	0
-5.17024994	6.65816259	0.0330000073	0	255	0
-5.14387512	6.65816259	-0.0109999962	0	255	0
-5.14387512	6.65342522	0.0330000073	0	255	0
-5.17024994	6.65816259	-0.0109999962	0	255	0
-5.14387512	6.65342522	-0.0109999962	0	255	0
-5.19662476	6.65342522	-0.0329999998	0	255	0
-5.19662476	6.65342522	-0.0549999997	0	255	0
-5.17024994	6.65342522	-0.0329999998	0	255	0
-5.22300005	6.64868736	-0.0329999998	0	255	0
-5.22300005	6.64868736	-0.0549999997	0	255	0
-5.19662476	6.64868736	-0.0109999962	0	255	0
-5.22300005	6.64394999	-0.0329999998	0	255	0
-5.17024994	6.64394999	-0.0329999998	0	255	0
-5.14387512	6.65342522	0.0330000073	0	255	0
-5.14387512	6.65342522	-0.0109999962	0	255	0
-5.14387512	6.64868736	-0.0109999962	0	255	0
-5.14387512	6.64394999	0.0330000073	0	255	0
-5.14387512	6.64394999	-0.0109999962	0	255	0
-5.19662476	6.64868736	-0.0329999998	0	255	0
-5.19662476	6.64868736	-0.0549999997	0	255	0
-5.17024994	6.64868736	-0.0109999962	0	255	0
-5.17024994	6.64868736	-0.0329999998	0	255	0
-5.19662476	6.64394999	-0.0109999962	0	255	0
-5.17024994	6.64394999	-0.0329999998	0	255	0
-5.19662476	6.64394999	-0.0329999998	0	255	0
-5.17024994	6.65342522	-0.0329999998	0	255	0
-5.14387512	6.65342522	-0.0109999962	0	255	0
-5.14387512	6.65342522	-0.0329999998	0	255	0
-5.17024994	6.64868736	-0.0109999962	0	255	0
-5.14387512	6.64868736	-0.0549999997	0	255	0
-5.14387512	6.64868736	-0.0329999998	0	255	0
-5.17024994	6.64868736	-0.0329999998	0	255	0
-5.11750031	6.66289997	0.0110000055	0	255	0
-5.09112549	6.66289997	0.0330000073	0	255	0
-5.09112549	6.66289997	0.0110000055	0	255	0
-5.11750031	6.65816259	0.0330000073	0	255	0
-5.09112549	6.65816259	-0.0109999962	0	255	0
-5.09112549	6.65816259	0.0110000055	0	255	0
-5.11750031	6.65816259	0.0110000055	0	255	0
-5.09112549	6.66289997	-0.0329999998	0	255	0
-5.09112549	6.66289997	-0.0109999962	0	255	0
-5.06475019	6.66289997	-0.0109999962	0	255	0
-5.06475019	6.66289997	-0.0329999998	0	255	0
-5.09112549	6.65816259	-0.0549999997	0	255	0
-5.06475019	6.65816259	-0.0109999962	0	255	0
-5.06475019	6.65816259	-0.0329999998	0	255	0
-5.09112549	6.65816259	-0.0329999998	0	255	0
-5.22300005	6.64394999	-0.121000007	0	255	0
-5.22300005	6.64394999	0.0330000073	0	255	0
-5.17024994	6.64394999	-0.143000007	0	255	0
-5.17024994	6.64394999	-0.121000007	0	255	0
-5.19662476	6.63921261	-0.0990000069	0	255	0
-5.22300005	6.63447475	-0.121000007	0	255	0
-5.17024994	6.63447475	-0.121000007	0	255	0
-5.22300005	6.63447475	-0.077000007	0	255	0
-5.22300005	6.63447475	-0.143000007	0	255	0
-5.17024994	6.63447475	-0.077000007	0	255	0
-5.19662476	6.62973738	-0.0990000069	0	255	0
-5.22300005	6.625	-0.077000007	0	255	0
-5.17024994	6.625	-0.143000007	0	255	0
-5.17024994	6.625	-0.077000007	0	255	0
-5.22300005	6.63447475	-0.121000007	0	255	0
-5.22300005	6.63447475	-0.0549999997	0	255	0
-5.19662476	6.63447475	-0.143000007	0	255	0
-5.19662476	6.63447475	-0.121000007	0	255	0
-5.19662476	6.62973738	-0.0990000069	0	255	0
-5.22300005	6.625	-0.121000007	0	255	0
-5.17024994	6.62973738	-0.143000007	0	255	0
-5.17024994	6.62973738	-0.121000007	0	255	0
-5.17024994	6.625	-0.0549999997	0	255	0
-5.17024994	6.625	-0.121000007	0	255	0
-5.22300005	6.625	-0.0990000069	0	255	0
-5.19662476	6.62973738	-0.121000007	0	255	0
-5.17024994	6.62973738	-0.121000007	0	255	0
-5.17024994	6.62973738	-0.143000007	0	255	0
-5.19662476	6.625	-0.121000007	0	255	0
-5.17024994	6.625	-0.121000007	0	255	0
-5.17024994	6.625	-0.143000007	0	255	0
-5.19662476	6.625	-0.143000007	0	255	0
