0.409000009	-0.185310006	-1.22839999	75	95	0
0.410919994	-0.185179994	-1.22749996	75	95	0
0.41049999	-0.183829993	-1.22679996	75	95	0
0.410919994	-0.182720006	-1.22790003	75	95	0
0.410919994	-0.18141	-1.22809994	75	95	0
0.412420005	-0.181150004	-1.2263	75	95	0
0.413910002	-0.180889994	-1.22449994	75	95	0
0.413489997	-0.179419994	-1.22379994	75	95	0
0.413489997	-0.178169996	-1.22399998	75	95	0
0.413069993	-0.176829994	-1.22329998	75	95	0
0.413069993	-0.175669998	-1.22350001	75	95	0
0.413489997	-0.174649999	-1.22449994	75	95	0
0.415399998	-0.174520001	-1.22360003	75	95	0
0.415399998	-0.175669998	-1.22350001	75	95	0
0.415399998	-0.176840007	-1.22329998	75	95	0
0.417730004	-0.176840007	-1.22329998	75	95	0
0.417730004	-0.175669998	-1.22350001	75	95	0
0.417309999	-0.174390003	-1.2227	75	95	0
0.416880012	-0.173050001	-1.222	75	95	0
0.416460007	-0.171680003	-1.22130001	75	95	0
0.41602999	-0.170320004	-1.22060001	75	95	0
0.415600002	-0.168970004	-1.21990001	75	95	0
0.415600002	-0.167720005	-1.22000003	75	95	0
0.415600002	-0.166429996	-1.22019994	75	95	0
0.41328001	-0.166429996	-1.22019994	75	95	0
0.41328001	-0.167710006	-1.22000003	75	95	0
0.413700014	-0.169100001	-1.22070003	75	95	0
0.414130002	-0.170440003	-1.22150004	75	95	0
0.414130002	-0.171670005	-1.22130001	75	95	0
0.414550006	-0.173050001	-1.222	75	95	0
0.411799997	-0.172920004	-1.22109997	75	95	0
0.410950005	-0.171419993	-1.21949995	75	95	0
0.417930007	-0.166429996	-1.22019994	75	95	0
0.417510003	-0.167590007	-1.2191	75	95	0
0.417930007	-0.168970004	-1.21990001	75	95	0
0.420260012	-0.168970004	-1.21990001	75	95	0
0.420260012	-0.167720005	-1.22000003	75	95	0
0.420260012	-0.166429996	-1.22019994	75	95	0
0.422589988	-0.167720005	-1.22000003	75	95	0
0.422589988	-0.168970004	-1.21990001	75	95	0
0.423449993	-0.170440003	-1.22150004	75	95	0
0.421119988	-0.170440003	-1.22150004	75	95	0
0.419209987	-0.170570001	-1.22239995	75	95	0
0.420069993	-0.172049999	-1.22399998	75	95	0
0.419640005	-0.173179999	-1.22290003	75	95	0
0.42050001	-0.174649999	-1.22449994	75	95	0
0.42050001	-0.175799996	-1.22440004	75	95	0
0.420920014	-0.177100003	-1.22510004	75	95	0
0.421350002	-0.178440005	-1.22580004	75	95	0
0.423260003	-0.178310007	-1.22490001	75	95	0
0.423689991	-0.17723	-1.22599995	75	95	0
0.425610006	-0.177100003	-1.22510004	75	95	0
0.425610006	-0.178299993	-1.22490001	75	95	0
0.427520007	-0.178169996	-1.22399998	75	95	0
0.427520007	-0.176960006	-1.22420001	75	95	0
0.427949995	-0.175929993	-1.22520006	75	95	0
0.430299997	-0.177090004	-1.22510004	75	95	0
0.430299997	-0.178299993	-1.22490001	75	95	0
0.430729985	-0.179680005	-1.2256	75	95	0
0.431160003	-0.181150004	-1.2263	75	95	0
0.42881	-0.181150004	-1.2263	75	95	0
0.42881	-0.179810002	-1.22650003	75	95	0
0.426470011	-0.179810002	-1.22650003	75	95	0
0.426899999	-0.181290001	-1.22720003	75	95	0
0.427329987	-0.182720006	-1.22790003	75	95	0
0.429250002	-0.182589993	-1.227	75	95	0
0.428189993	-0.18423	-1.22950006	75	95	0
0.428620011	-0.185589999	-1.23020005	75	95	0
0.426699996	-0.185719997	-1.23109996	75	95	0
0.426270008	-0.184369996	-1.23039997	75	95	0
0.424980015	-0.182720006	-1.22790003	75	95	0
0.424980015	-0.181419998	-1.22809994	75	95	0
0.424980015	-0.180079997	-1.22829998	75	95	0
0.422630012	-0.180079997	-1.22829998	75	95	0
0.422210008	-0.181290001	-1.22720003	75	95	0
0.42306	-0.182860002	-1.22880006	75	95	0
0.422630012	-0.183970004	-1.2277	75	95	0
0.422210008	-0.185049996	-1.22669995	75	95	0
0.420709997	-0.184100002	-1.22860003	75	95	0
0.418790013	-0.184239998	-1.22950006	75	95	0
0.418370008	-0.182860002	-1.22880006	75	95	0
0.417939991	-0.185179994	-1.22759998	75	95	0
0.416020006	-0.185320005	-1.22839999	75	95	0
0.416020006	-0.184100002	-1.22860003	75	95	0
0.415600002	-0.182720006	-1.22790003	75	95	0
0.413260013	-0.182720006	-1.22790003	75	95	0
0.414099991	-0.18423	-1.22950006	75	95	0
0.414099991	-0.185450003	-1.22930002	75	95	0
0.413260013	-0.180069998	-1.22829998	75	95	0
0.417519987	-0.179949999	-1.22739995	75	95	0
0.417100012	-0.178570002	-1.22669995	75	95	0
0.418590009	-0.178310007	-1.22490001	75	95	0
0.419440001	-0.179820001	-1.22650003	75	95	0
0.419440001	-0.181160003	-1.2263	75	95	0
0.41624999	-0.180889994	-1.22449994	75	95	0
0.419440001	-0.184909999	-1.22580004	75	95	0
0.421570003	-0.183119997	-1.2306	75	95	0
0.430979997	-0.184359998	-1.23039997	75	95	0
0.431840003	-0.185849994	-1.23199999	75	95	0
0.433329999	-0.18558	-1.23020005	75	95	0
0.433329999	-0.184359998	-1.23039997	75	95	0
0.435250014	-0.184220001	-1.22950006	75	95	0
0.435689986	-0.18558	-1.23020005	75	95	0
0.43761	-0.185440004	-1.22920001	75	95	0
0.438490003	-0.184489995	-1.23119998	75	95	0
0.43761	-0.182970002	-1.22959995	75	95	0
0.437169999	-0.181539997	-1.22889996	75	95	0
0.437169999	-0.180189997	-1.22909999	75	95	0
0.439090014	-0.17881	-1.22839999	75	95	0
0.439090014	-0.181400001	-1.22800004	75	95	0
0.442330003	-0.181659997	-1.22969997	75	95	0
0.443210006	-0.180570006	-1.23169994	75	95	0
0.443210006	-0.179319993	-1.23189998	75	95	0
0.44084999	-0.180580005	-1.23169994	75	95	0
0.441720009	-0.183500007	-1.23310006	75	95	0
0.44216001	-0.184880003	-1.23380005	75	95	0
0.441289991	-0.185829997	-1.23189998	75	95	0
0.444689989	-0.177839994	-1.23020005	75	95	0
0.440569997	-0.176159993	-1.22689998	75	95	0
0.44145	-0.175260007	-1.22880006	75	95	0
0.438659996	-0.175139993	-1.22800004	75	95	0
0.439689994	-0.173539996	-1.22549999	75	95	0
0.44205001	-0.173539996	-1.22539997	75	95	0
0.441599995	-0.172150001	-1.22469997	75	95	0
0.441599995	-0.170919999	-1.22490001	75	95	0
0.442629993	-0.169320002	-1.22230005	75	95	0
0.439839989	-0.169200003	-1.22150004	75	95	0
0.439399987	-0.167820007	-1.22080004	75	95	0
0.439399987	-0.166529998	-1.22099996	75	95	0
0.438950002	-0.164049998	-1.22039998	75	95	0
0.438950002	-0.162829995	-1.22049999	75	95	0
0.437050015	-0.162949994	-1.22150004	75	95	0
0.436170012	-0.163939998	-1.21949995	75	95	0
0.436170012	-0.165099993	-1.21940005	75	95	0
0.436610013	-0.166419998	-1.22010005	75	95	0
0.436610013	-0.167699993	-1.21990001	75	95	0
0.436610013	-0.168960005	-1.21969998	75	95	0
0.437050015	-0.170300007	-1.22049999	75	95	0
0.434709996	-0.169090003	-1.22070003	75	95	0
0.434269994	-0.167710006	-1.22000003	75	95	0
0.432810009	-0.167950004	-1.22179997	75	95	0
0.432810009	-0.169210002	-1.22160006	75	95	0
0.432810009	-0.170430005	-1.22140002	75	95	0
0.432810009	-0.171670005	-1.22119999	75	95	0
0.433239996	-0.173050001	-1.222	75	95	0
0.431769997	-0.173299998	-1.22379994	75	95	0
0.429430008	-0.173299998	-1.22379994	75	95	0
0.430299997	-0.174769998	-1.22539997	75	95	0
0.430729985	-0.176050007	-1.22609997	75	95	0
0.433079988	-0.176050007	-1.22609997	75	95	0
0.433079988	-0.174899995	-1.2263	75	95	0
0.434989989	-0.174769998	-1.22529995	75	95	0
0.434549987	-0.175789997	-1.22430003	75	95	0
0.434549987	-0.176960006	-1.22409999	75	95	0
0.433079988	-0.177220002	-1.22590005	75	95	0
0.433510005	-0.178560004	-1.22660005	75	95	0
0.435860008	-0.178550005	-1.22660005	75	95	0
0.434379995	-0.180069998	-1.22819996	75	95	0
0.434819996	-0.181539997	-1.22889996	75	95	0
0.434379995	-0.182710007	-1.22790003	75	95	0
0.43246001	-0.182850003	-1.22880006	75	95	0
0.437339991	-0.175909996	-1.22520006	75	95	0
0.43689999	-0.173419997	-1.22459996	75	95	0
0.436459988	-0.172040001	-1.22389996	75	95	0
0.43603	-0.170680001	-1.22319996	75	95	0
0.438369989	-0.171910003	-1.22300005	75	95	0
0.439689994	-0.177080005	-1.22490001	75	95	0
0.43603	-0.176689997	-1.22230005	75	95	0
0.428559989	-0.171800002	-1.22220004	75	95	0
0.42622	-0.171800002	-1.22220004	75	95	0
0.425790012	-0.170440003	-1.22150004	75	95	0
0.425359994	-0.169100001	-1.22070003	75	95	0
0.424930006	-0.167720005	-1.22000003	75	95	0
0.427260011	-0.167710006	-1.22000003	75	95	0
0.427260011	-0.168970004	-1.2198	75	95	0
0.427689999	-0.170320004	-1.22060001	75	95	0
0.43046999	-0.170440003	-1.22140002	75	95	0
0.430900007	-0.16934	-1.22249997	75	95	0
0.430900007	-0.168080002	-1.2227	75	95	0
0.430900007	-0.171800002	-1.22220004	75	95	0
0.4296	-0.165230006	-1.22029996	75	95	0
0.431059986	-0.16618	-1.2184	75	95	0
0.430189997	-0.164739996	-1.21679997	75	95	0
0.430189997	-0.16358	-1.21689999	75	95	0
0.430620015	-0.162479997	-1.21800005	75	95	0
0.428730011	-0.162599996	-1.21889997	75	95	0
0.428290009	-0.163709998	-1.21780002	75	95	0
0.425960004	-0.163709998	-1.21780002	75	95	0
0.426389992	-0.162609994	-1.21889997	75	95	0
0.423629999	-0.162489995	-1.21800005	75	95	0
0.423200011	-0.163589999	-1.21689999	75	95	0
0.422769994	-0.164629996	-1.21589994	75	95	0
0.422769994	-0.165820003	-1.21570003	75	95	0
0.420439988	-0.165820003	-1.21570003	75	95	0
0.420439988	-0.164629996	-1.21589994	75	95	0
0.420870006	-0.163589999	-1.21689999	75	95	0
0.418550014	-0.163589999	-1.21689999	75	95	0
0.418550014	-0.162369996	-1.21710002	75	95	0
0.418119997	-0.16099	-1.21640003	75	95	0
0.420439988	-0.16099	-1.21640003	75	95	0
0.422769994	-0.16099	-1.21640003	75	95	0
0.422769994	-0.159759998	-1.21650004	75	95	0
0.421900004	-0.158309996	-1.21490002	75	95	0
0.421469986	-0.156979993	-1.21420002	75	95	0
0.423790008	-0.156979993	-1.21420002	75	95	0
0.42335999	-0.155650005	-1.21340001	75	95	0
0.42524001	-0.155530006	-1.21249998	75	95	0
0.42524001	-0.153080001	-1.21280003	75	95	0
0.425680012	-0.151979998	-1.21389997	75	95	0
0.425680012	-0.150759995	-1.21399999	75	95	0
0.427569985	-0.151859999	-1.21300006	75	95	0
0.427569985	-0.153080001	-1.21280003	75	95	0
0.429890007	-0.153080001	-1.21280003	75	95	0
0.429010004	-0.151639998	-1.2112	75	95	0
0.430889994	-0.151519999	-1.21029997	75	95	0
0.430889994	-0.150309995	-1.21039999	75	95	0
0.432770014	-0.150199994	-1.20949996	75	95	0
0.431890011	-0.148800001	-1.20790005	75	95	0
0.430009991	-0.148910001	-1.20879996	75	95	0
0.428140014	-0.14903	-1.20969999	75	95	0
0.428140014	-0.147870004	-1.2098	75	95	0
0.425819993	-0.147870004	-1.20990002	75	95	0
0.424950004	-0.148809999	-1.20790005	75	95	0
0.423070014	-0.14892	-1.20879996	75	95	0
0.423070014	-0.147760004	-1.20899999	75	95	0
0.422199994	-0.146329999	-1.20729995	75	95	0
0.422199994	-0.145089999	-1.20749998	75	95	0
0.422630012	-0.144010007	-1.20850003	75	95	0
0.422199994	-0.142739996	-1.20780003	75	95	0
0.420320004	-0.144010007	-1.20850003	75	95	0
0.419459999	-0.144979998	-1.20659995	75	95	0
0.419889987	-0.146329999	-1.20729995	75	95	0
0.420320004	-0.147650003	-1.20809996	75	95	0
0.418449998	-0.14892	-1.20879996	75	95	0
0.417580009	-0.146329999	-1.20729995	75	95	0
0.416720003	-0.147320002	-1.20539999	75	95	0
0.415280014	-0.148699999	-1.20700002	75	95	0
0.415280014	-0.149869993	-1.2069	75	95	0
0.416289985	-0.144769996	-1.20480001	75	95	0
0.416289985	-0.143580005	-1.20490003	75	95	0
0.418590009	-0.142419994	-1.20510006	75	95	0
0.41771999	-0.141000003	-1.20340002	75	95	0
0.41771999	-0.139770001	-1.20360005	75	95	0
0.41771999	-0.138549998	-1.20369995	75	95	0
0.41771999	-0.137329996	-1.20389998	75	95	0
0.419149995	-0.137119994	-1.20210004	75	95	0
0.419589996	-0.138439998	-1.20280004	75	95	0
0.421449989	-0.139559999	-1.20179999	75	95	0
0.421889991	-0.140900001	-1.20249999	75	95	0
0.420020014	-0.141000003	-1.20340002	75	95	0
0.420459986	-0.139880002	-1.20449996	75	95	0
0.422320008	-0.138549998	-1.20369995	75	95	0
0.424629986	-0.139770001	-1.20360005	75	95	0
0.424629986	-0.141000003	-1.20340002	75	95	0
0.425069988	-0.13865	-1.20459998	75	95	0
0.42693001	-0.13854	-1.20369995	75	95	0
0.427370012	-0.139870003	-1.20439994	75	95	0
0.427370012	-0.141110003	-1.20430005	75	95	0
0.427810013	-0.142419994	-1.20500004	75	95	0
0.426380008	-0.142629996	-1.20679998	75	95	0
0.424950004	-0.142839998	-1.20860004	75	95	0
0.424510002	-0.143900007	-1.2076	75	95	0
0.424510002	-0.145089999	-1.20749998	75	95	0
0.424950004	-0.146430001	-1.20819998	75	95	0
0.427260011	-0.146430001	-1.20819998	75	95	0
0.426380008	-0.144979998	-1.20659995	75	95	0
0.427700013	-0.144109994	-1.20940006	75	95	0
0.430009991	-0.144109994	-1.20940006	75	95	0
0.430009991	-0.145300001	-1.20920002	75	95	0
0.432330012	-0.144109994	-1.20930004	75	95	0
0.431450009	-0.142729998	-1.20770001	75	95	0
0.431010008	-0.14497	-1.20650005	75	95	0
0.431010008	-0.140180007	-1.20710003	75	95	0
0.432880014	-0.140070006	-1.2062	75	95	0
0.432440013	-0.138740003	-1.20539999	75	95	0
0.434309989	-0.138640001	-1.20449996	75	95	0
0.433860004	-0.137319997	-1.20379996	75	95	0
0.433860004	-0.136089996	-1.20389998	75	95	0
0.43573001	-0.135979995	-1.20299995	75	95	0
0.43573001	-0.137209997	-1.20280004	75	95	0
0.438039988	-0.137209997	-1.20280004	75	95	0
0.438039988	-0.134739995	-1.20309997	75	95	0
0.435279995	-0.132410005	-1.20249999	75	95	0
0.434390008	-0.133310005	-1.20060003	75	95	0
0.434390008	-0.134450004	-1.20039999	75	95	0
0.432080001	-0.134450004	-1.20050001	75	95	0
0.431639999	-0.133220002	-1.1997	75	95	0
0.431639999	-0.130940005	-1.20000005	75	95	0
0.430750012	-0.129519999	-1.1983	75	95	0
0.42888999	-0.130850002	-1.19910002	75	95	0
0.426589996	-0.130850002	-1.19910002	75	95	0
0.426589996	-0.132029995	-1.199	75	95	0
0.425709993	-0.132919997	-1.19710004	75	95	0
0.423860013	-0.133019999	-1.19799995	75	95	0
0.424299985	-0.132029995	-1.199	75	95	0
0.423860013	-0.13075	-1.19819999	75	95	0
0.424299985	-0.129620001	-1.19930005	75	95	0
0.426149994	-0.129519999	-1.19840002	75	95	0
0.425709993	-0.128220007	-1.19760001	75	95	0
0.425709993	-0.127020001	-1.19770002	75	95	0
0.426149994	-0.125929996	-1.19869995	75	95	0
0.426149994	-0.124739997	-1.19889998	75	95	0
0.428009987	-0.124650002	-1.19799995	75	95	0
0.427560002	-0.123369999	-1.19719994	75	95	0
0.429859996	-0.123369999	-1.19719994	75	95	0
0.429859996	-0.12455	-1.19700003	75	95	0
0.429859996	-0.125729993	-1.19690001	75	95	0
0.431710005	-0.125640005	-1.19599998	75	95	0
0.43215999	-0.12455	-1.19700003	75	95	0
0.43215999	-0.123369999	-1.19710004	75	95	0
0.431270003	-0.12201	-1.19550002	75	95	0
0.433560014	-0.122000001	-1.1954	75	95	0
0.434960008	-0.121820003	-1.19360006	75	95	0
0.436309993	-0.123269998	-1.19620001	75	95	0
0.434460014	-0.123369999	-1.19710004	75	95	0
0.434009999	-0.124449998	-1.1961	75	95	0
0.434460014	-0.125729993	-1.19690001	75	95	0
0.434009999	-0.126819998	-1.19579995	75	95	0
0.432599992	-0.127010003	-1.19770002	75	95	0
0.430750012	-0.127110004	-1.19860005	75	95	0
0.428449988	-0.127110004	-1.19860005	75	95	0
0.427560002	-0.128120005	-1.19669998	75	95	0
0.428009987	-0.129419997	-1.19739997	75	95	0
0.429419994	-0.128020003	-1.19579995	75	95	0
0.42712	-0.125640005	-1.19599998	75	95	0
0.42482999	-0.123280004	-1.19630003	75	95	0
0.423940003	-0.121919997	-1.19459999	75	95	0
0.423940003	-0.120719999	-1.19480002	75	95	0
0.423500001	-0.119419999	-1.19400001	75	95	0
0.422619998	-0.118069999	-1.19229996	75	95	0
0.42306	-0.11699	-1.19330001	75	95	0
0.422179997	-0.115630001	-1.19169998	75	95	0
0.422179997	-0.113169998	-1.19190001	75	95	0
0.421739995	-0.1118	-1.1911	75	95	0
0.424019992	-0.1118	-1.1911	75	95	0
0.425410002	-0.11163	-1.18929994	75	95	0
0.424519986	-0.110289998	-1.18760002	75	95	0
0.422690004	-0.110380001	-1.18859994	75	95	0
0.423130006	-0.109339997	-1.18949997	75	95	0
0.424080014	-0.107890002	-1.18700004	75	95	0
0.426360011	-0.107890002	-1.18700004	75	95	0
0.425909996	-0.106550001	-1.18620002	75	95	0
0.426360011	-0.105420001	-1.18719995	75	95	0
0.428640008	-0.105410002	-1.18719995	75	95	0
0.429529995	-0.10678	-1.18879998	75	95	0
0.431820005	-0.105570003	-1.18889999	75	95	0
0.43226999	-0.106859997	-1.18970001	75	95	0
0.434100002	-0.10678	-1.18879998	75	95	0
0.433649987	-0.105489999	-1.18799996	75	95	0
0.435030013	-0.105329998	-1.18620002	75	95	0
0.436859995	-0.105240002	-1.18519998	75	95	0
0.43731001	-0.106530003	-1.18599999	75	95	0
0.435939997	-0.106700003	-1.18780005	75	95	0
0.435939997	-0.1043	-1.18809998	75	95	0
0.437770009	-0.104220003	-1.18710005	75	95	0
0.439139992	-0.104060002	-1.18529999	75	95	0
0.438230008	-0.102750003	-1.18359995	75	95	0
0.43641001	-0.10283	-1.1846	75	95	0
0.436859995	-0.10176	-1.18560004	75	95	0
0.43731001	-0.100699998	-1.18649995	75	95	0
0.435030013	-0.101839997	-1.18649995	75	95	0
0.434130013	-0.100550003	-1.18480003	75	95	0
0.431849986	-0.100560002	-1.18480003	75	95	0
0.432300001	-0.101769999	-1.18560004	75	95	0
0.432300001	-0.10407	-1.18540001	75	95	0
0.430020005	-0.10407	-1.18550003	75	95	0
0.429569989	-0.102839999	-1.18470001	75	95	0
0.429569989	-0.101690002	-1.18480003	75	95	0
0.429569989	-0.100560002	-1.18490005	75	95	0
0.427740008	-0.100639999	-1.18579996	75	95	0
0.428189993	-0.101850003	-1.18659997	75	95	0
0.427289993	-0.102839999	-1.18470001	75	95	0
0.427740008	-0.10407	-1.18550003	75	95	0
0.425469995	-0.101769999	-1.18570006	75	95	0
0.425469995	-0.100639999	-1.18579996	75	95	0
0.423640013	-0.101850003	-1.18659997	75	95	0
0.423640013	-0.103	-1.18649995	75	95	0
0.421799988	-0.103069998	-1.18739998	75	95	0
0.423189998	-0.10526	-1.18540001	75	95	0
0.422300011	-0.103919998	-1.18369997	75	95	0
0.424569994	-0.103919998	-1.18369997	75	95	0
0.424569994	-0.102760002	-1.18379998	75	95	0
0.426400006	-0.0992840007	-1.1832	75	95	0
0.428220004	-0.0992069989	-1.18229997	75	95	0
0.428669989	-0.0981040001	-1.18330002	75	95	0
0.427769989	-0.0967290029	-1.18159997	75	95	0
0.430040002	-0.0967269987	-1.18159997	75	95	0
0.429589987	-0.0942019969	-1.18089998	75	95	0
0.429589987	-0.0930259973	-1.18099999	75	95	0
0.427769989	-0.0930979997	-1.18190002	75	95	0
0.425949991	-0.0920149982	-1.18289995	75	95	0
0.425060004	-0.0907249972	-1.18120003	75	95	0
0.425060004	-0.0895750001	-1.18130004	75	95	0
0.425980002	-0.0905179977	-1.17850006	75	95	0
0.426420003	-0.0917359963	-1.17929995	75	95	0
0.428240001	-0.0916649997	-1.17840004	75	95	0
0.427789986	-0.0904479995	-1.17760003	75	95	0
0.427340001	-0.0892340019	-1.17680001	75	95	0
0.427340001	-0.0880609974	-1.17690003	75	95	0
0.426889986	-0.0868040025	-1.17610002	75	95	0
0.424629986	-0.0868050009	-1.17610002	75	95	0
0.425529987	-0.0881289989	-1.17780006	75	95	0
0.425529987	-0.0893030018	-1.17770004	75	95	0
0.422820002	-0.088064	-1.17690003	75	95	0
0.421000004	-0.0881310031	-1.17780006	75	95	0
0.421449989	-0.089373	-1.17859995	75	95	0
0.421000004	-0.0904520005	-1.17760003	75	95	0
0.422340006	-0.0929609984	-1.18009996	75	95	0
0.422789991	-0.0918769985	-1.18110001	75	95	0
0.424160004	-0.0928890035	-1.17920005	75	95	0
0.423709989	-0.0939920023	-1.17820001	75	95	0
0.421900004	-0.0940639973	-1.17910004	75	95	0
0.422789991	-0.0954329967	-1.18079996	75	95	0
0.422789991	-0.0966589972	-1.18069994	75	95	0
0.422789991	-0.0978860036	-1.18060005	75	95	0
0.423229992	-0.0991360024	-1.18139994	75	95	0
0.421409994	-0.100340001	-1.18219995	75	95	0
0.420969993	-0.0967329964	-1.18159997	75	95	0
0.421409994	-0.0955779999	-1.18260002	75	95	0
0.420080006	-0.0978119969	-1.17980003	75	95	0
0.419629991	-0.0989120007	-1.17879999	75	95	0
0.425060004	-0.0978839993	-1.18060005	75	95	0
0.425060004	-0.0966579989	-1.18069994	75	95	0
0.425060004	-0.095431	-1.18079996	75	95	0
0.426420003	-0.0952859968	-1.17900002	75	95	0
0.426420003	-0.0940620005	-1.17910004	75	95	0
0.428689986	-0.095284	-1.17900002	75	95	0
0.43096	-0.0952820033	-1.17900002	75	95	0
0.432779998	-0.0952079967	-1.17799997	75	95	0
0.43186	-0.0941990018	-1.18079996	75	95	0
0.43186	-0.0930240005	-1.18089998	75	95	0
0.433679998	-0.0929519981	-1.17999995	75	95	0
0.433679998	-0.0917989984	-1.18009996	75	95	0
0.433230013	-0.0905800015	-1.17929995	75	95	0
0.432779998	-0.089364998	-1.17850006	75	95	0
0.434590012	-0.088120997	-1.17770004	75	95	0
0.434130013	-0.0868630037	-1.17690003	75	95	0
0.433679998	-0.0856489986	-1.17610002	75	95	0
0.435490012	-0.085582003	-1.17509997	75	95	0
0.435939997	-0.0845260024	-1.17610002	75	95	0
0.437299997	-0.0843959972	-1.17429996	75	95	0
0.437299997	-0.0855140015	-1.17420006	75	95	0
0.436839998	-0.0831800029	-1.17349994	75	95	0
0.435030013	-0.0832460001	-1.17439997	75	95	0
0.432770014	-0.0832479969	-1.17449999	75	95	0
0.432770014	-0.0844009966	-1.17439997	75	95	0
0.431410015	-0.0856520012	-1.17610002	75	95	0
0.431410015	-0.0868000016	-1.176	75	95	0
0.43096	-0.0879240036	-1.17499995	75	95	0
0.4287	-0.0879260004	-1.17509997	75	95	0
0.4287	-0.089097999	-1.17499995	75	95	0
0.4296	-0.0903780013	-1.1767	75	95	0
0.430049986	-0.0915940031	-1.17750001	75	95	0
0.429149985	-0.0868019983	-1.176	75	95	0
0.428240001	-0.0855240002	-1.17439997	75	95	0
0.427789986	-0.0843420029	-1.17349994	75	95	0
0.427789986	-0.0831900015	-1.17359996	75	95	0
0.42554	-0.0831909999	-1.17359996	75	95	0
0.425080001	-0.0819419995	-1.17279994	75	95	0
0.425080001	-0.0807719976	-1.17289996	75	95	0
0.424629986	-0.0795509964	-1.17209995	75	95	0
0.424629986	-0.0783549994	-1.17219996	75	95	0
0.426440001	-0.0782940015	-1.17130005	75	95	0
0.427340001	-0.0796099976	-1.17299998	75	95	0
0.427789986	-0.0808319971	-1.17379999	75	95	0
0.430049986	-0.0808300003	-1.17379999	75	95	0
0.430510014	-0.0820629969	-1.17460001	75	95	0
0.430049986	-0.0831879973	-1.17359996	75	95	0
0.430049986	-0.0843399987	-1.17349994	75	95	0
0.431400001	-0.0818749964	-1.17190003	75	95	0
0.431400001	-0.080705002	-1.17200005	75	95	0
0.432309985	-0.079667002	-1.17379999	75	95	0
0.43186	-0.0784090012	-1.17299998	75	95	0
0.4296	-0.078410998	-1.17299998	75	95	0
0.430940002	-0.0770580024	-1.17130005	75	95	0
0.430489987	-0.0758149996	-1.17050004	75	95	0
0.430940002	-0.0747170001	-1.17149997	75	95	0
0.428689986	-0.0747179985	-1.17149997	75	95	0
0.428240001	-0.0734879971	-1.17069995	75	95	0
0.430029988	-0.0734310001	-1.16980004	75	95	0
0.431829989	-0.0733729973	-1.1688	75	95	0
0.43362999	-0.073315002	-1.16789997	75	95	0
0.433169991	-0.0720769987	-1.16709995	75	95	0
0.433169991	-0.0708950013	-1.16719997	75	95	0
0.432709992	-0.0696600005	-1.16639996	75	95	0
0.433169991	-0.0685829967	-1.16729999	75	95	0
0.430920005	-0.0685850009	-1.16729999	75	95	0
0.430920005	-0.0697150007	-1.16729999	75	95	0
0.431829989	-0.0710050017	-1.16900003	75	95	0
0.430920005	-0.0720790029	-1.16709995	75	95	0
0.429120004	-0.0709529966	-1.1681	75	95	0
0.426869988	-0.0709550008	-1.16820002	75	95	0
0.426869988	-0.0721369982	-1.1681	75	95	0
0.424629986	-0.0721390024	-1.1681	75	95	0
0.424629986	-0.0733219981	-1.16799998	75	95	0
0.424629986	-0.0756449997	-1.16789997	75	95	0
0.422829986	-0.0757040009	-1.1688	75	95	0
0.422829986	-0.0768869966	-1.16869998	75	95	0
0.421030015	-0.0769470036	-1.16960001	75	95	0
0.42148	-0.075819999	-1.17060006	75	95	0
0.42148	-0.0746650025	-1.17069995	75	95	0
0.423280001	-0.0746069998	-1.16980004	75	95	0
0.422829986	-0.0721950009	-1.16900003	75	95	0
0.423280001	-0.0710650012	-1.16999996	75	95	0
0.422829986	-0.0698269978	-1.16919994	75	95	0
0.424629986	-0.0697730035	-1.16820002	75	95	0
0.424629986	-0.0686409995	-1.16830003	75	95	0
0.424169987	-0.0674920008	-1.16750002	75	95	0
0.424169987	-0.0663530007	-1.16760004	75	95	0
0.424169987	-0.0651699975	-1.16760004	75	95	0
0.426420003	-0.0663509965	-1.16750002	75	95	0
0.426420003	-0.0674910024	-1.16750002	75	95	0
0.42820999	-0.067437999	-1.16659999	75	95	0
0.42820999	-0.0662999973	-1.16659999	75	95	0
0.430000007	-0.0662470013	-1.16569996	75	95	0
0.430000007	-0.067385003	-1.16559994	75	95	0
0.432249993	-0.0673829988	-1.16559994	75	95	0
0.432709992	-0.0662959963	-1.16659999	75	95	0
0.434960008	-0.0662939996	-1.16649997	75	95	0
0.436749995	-0.065061003	-1.16569996	75	95	0
0.436749995	-0.0638580024	-1.16569996	75	95	0
0.434500009	-0.0638599992	-1.16579998	75	95	0
0.43404001	-0.0650139973	-1.16480005	75	95	0
0.433580011	-0.062537998	-1.16410005	75	95	0
0.433580011	-0.0613920018	-1.16410005	75	95	0
0.435829997	-0.0613889992	-1.16410005	75	95	0
0.435360014	-0.0624880008	-1.1631	75	95	0
0.434899986	-0.0602030009	-1.16240001	75	95	0
0.432660013	-0.0602050014	-1.16240001	75	95	0
0.430420011	-0.0602069981	-1.16240001	75	95	0
0.428169996	-0.0602089986	-1.16250002	75	95	0
0.42772001	-0.0612550005	-1.16149998	75	95	0
0.427260011	-0.0623509996	-1.16059995	75	95	0
0.425480008	-0.0623999983	-1.16149998	75	95	0
0.425020009	-0.0612090006	-1.16069996	75	95	0
0.425020009	-0.060118001	-1.16069996	75	95	0
0.425480008	-0.0590369999	-1.16170001	75	95	0
0.42772001	-0.0590360016	-1.16159999	75	95	0
0.429500014	-0.0589900017	-1.16069996	75	95	0
0.431279987	-0.0589429997	-1.15980005	75	95	0
0.433979988	-0.0589860007	-1.16069996	75	95	0
0.436690003	-0.0590290017	-1.16149998	75	95	0
0.438080013	-0.0613869987	-1.16400003	75	95	0
0.438080013	-0.0625329986	-1.16400003	75	95	0
0.440789998	-0.0625780001	-1.16480005	75	95	0
0.440789998	-0.0614309981	-1.16489995	75	95	0
0.44126001	-0.0603820011	-1.16579998	75	95	0
0.440789998	-0.0592060015	-1.16499996	75	95	0
0.443040013	-0.0592029989	-1.16489995	75	95	0
0.43900001	-0.060385	-1.16589999	75	95	0
0.439469993	-0.0639029965	-1.16659999	75	95	0
0.439469993	-0.0651080012	-1.16649997	75	95	0
0.439929992	-0.0663390011	-1.16729999	75	95	0
0.442189991	-0.0663359985	-1.16729999	75	95	0
0.444440007	-0.0663330033	-1.16719997	75	95	0
0.443580002	-0.0653019994	-1.16999996	75	95	0
0.44264999	-0.0639970005	-1.16830003	75	95	0
0.445380002	-0.0628129989	-1.16919994	75	95	0
0.440860003	-0.0675809979	-1.16900003	75	95	0
0.441320002	-0.0687310025	-1.16980004	75	95	0
0.439060003	-0.0687339976	-1.16989994	75	95	0
0.439060003	-0.0676349998	-1.16999996	75	95	0
0.436800003	-0.0687360018	-1.16989994	75	95	0
0.436340004	-0.0675859973	-1.16910005	75	95	0
0.437669992	-0.0663420036	-1.1674	75	95	0
0.436749995	-0.0696030036	-1.16540003	75	95	0
0.434500009	-0.0696050003	-1.16540003	75	95	0
0.434960008	-0.0708390027	-1.16630006	75	95	0
0.435420007	-0.0720750019	-1.16709995	75	95	0
0.435420007	-0.0732569993	-1.16700006	75	95	0
0.438140005	-0.0733100027	-1.16779995	75	95	0
0.440389991	-0.0733070001	-1.16779995	75	95	0
0.438600004	-0.0709979981	-1.16890001	75	95	0
0.43900001	-0.069600001	-1.16530001	75	95	0
0.43998	-0.0747060031	-1.17130005	75	95	0
0.43818	-0.0747660026	-1.17219996	75	95	0
0.436379999	-0.0748249963	-1.17320001	75	95	0
0.439099997	-0.0760369971	-1.17390001	75	95	0
0.438639998	-0.0771669969	-1.17299998	75	95	0
0.440439999	-0.077105999	-1.17200005	75	95	0
0.44137001	-0.076034002	-1.17390001	75	95	0
0.439559996	-0.07852	-1.17470002	75	95	0
0.439559996	-0.0797189996	-1.17460001	75	95	0
0.439099997	-0.0808190033	-1.17359996	75	95	0
0.436839998	-0.0808219984	-1.17369998	75	95	0
0.436839998	-0.0796620026	-1.17369998	75	95	0
0.436839998	-0.0784640014	-1.17379999	75	95	0
0.434570014	-0.0784659982	-1.17390001	75	95	0
0.435490012	-0.0797849968	-1.17560005	75	95	0
0.435030013	-0.0808859989	-1.17460001	75	95	0
0.438210011	-0.0821790025	-1.17620003	75	95	0
0.440019995	-0.0844559968	-1.17509997	75	95	0
0.442290008	-0.0844520032	-1.17509997	75	95	0
0.44185999	-0.0835539997	-1.17879999	75	95	0
0.442319989	-0.0824239999	-1.17970002	75	95	0
0.444139987	-0.0800160021	-1.17900002	75	95	0
0.443679988	-0.078753002	-1.17809999	75	95	0
0.445950001	-0.0775099993	-1.17820001	75	95	0
0.439130008	-0.0869219974	-1.17770004	75	95	0
0.439130008	-0.0881149992	-1.17760003	75	95	0
0.437319994	-0.0881839991	-1.17850006	75	95	0
0.437319994	-0.0869909972	-1.17859995	75	95	0
0.437770009	-0.0894260034	-1.17929995	75	95	0
0.438230008	-0.0906430036	-1.18009996	75	95	0
0.43641001	-0.0907140002	-1.18099999	75	95	0
0.435959995	-0.089497	-1.18019998	75	95	0
0.436870009	-0.0919340029	-1.18180001	75	95	0
0.437319994	-0.0931579992	-1.18260002	75	95	0
0.436870009	-0.0942640007	-1.18169999	75	95	0
0.439139992	-0.0942609981	-1.18159997	75	95	0
0.439139992	-0.0930849984	-1.18169999	75	95	0
0.439139992	-0.0919310004	-1.18180001	75	95	0
0.441419989	-0.0919269994	-1.18180001	75	95	0
0.44095999	-0.0907069966	-1.18099999	75	95	0
0.441879988	-0.0896919966	-1.18280005	75	95	0
0.442779988	-0.0883100033	-1.18019998	75	95	0
0.444620013	-0.0873759985	-1.18379998	75	95	0
0.444620013	-0.0862200037	-1.1839	75	95	0
0.442339987	-0.0943979993	-1.18330002	75	95	0
0.442799985	-0.0932900012	-1.18429995	75	95	0
0.445080012	-0.0921289995	-1.18439996	75	95	0
0.44095999	-0.095412001	-1.18060005	75	95	0
0.438690007	-0.095416002	-1.18060005	75	95	0
0.435959995	-0.0953480005	-1.17980003	75	95	0
0.434139997	-0.0941969976	-1.18079996	75	95	0
0.432770014	-0.0967969969	-1.18239999	75	95	0
0.433670014	-0.0981729999	-1.18410003	75	95	0
0.435039997	-0.0980229974	-1.18229997	75	95	0
0.434590012	-0.0991249979	-1.18130004	75	95	0
0.432770014	-0.099202998	-1.18219995	75	95	0
0.430949986	-0.0992799997	-1.18309999	75	95	0
0.431400001	-0.0981760025	-1.18410003	75	95	0
0.431400001	-0.102760002	-1.18369997	75	95	0
0.434130013	-0.10283	-1.1846	75	95	0
0.435950011	-0.0969400033	-1.18420005	75	95	0
0.438230008	-0.0969370008	-1.18410003	75	95	0
0.439139992	-0.0983140022	-1.18579996	75	95	0
0.439599991	-0.0995690003	-1.18659997	75	95	0
0.441430002	-0.0994900018	-1.18570006	75	95	0
0.441890001	-0.098383002	-1.18659997	75	95	0
0.441430002	-0.097078003	-1.18589997	75	95	0
0.440970004	-0.100919999	-1.18920004	75	95	0
0.443709999	-0.102130003	-1.18990004	75	95	0
0.444169998	-0.101070002	-1.19089997	75	95	0
0.446009994	-0.0998570025	-1.19000006	75	95	0
0.439599991	-0.101829998	-1.18640006	75	95	0
0.440519989	-0.102739997	-1.18359995	75	95	0
0.433660001	-0.0771149993	-1.17219996	75	95	0
0.433200002	-0.0758699998	-1.17139995	75	95	0
0.433200002	-0.0747139975	-1.17139995	75	95	0
0.435000002	-0.0758100003	-1.17040002	75	95	0
0.435000002	-0.0769950002	-1.17040002	75	95	0
0.44137001	-0.0808160007	-1.17359996	75	95	0
0.440439999	-0.0724000037	-1.17229998	75	95	0
0.443170011	-0.0724510029	-1.17320001	75	95	0
0.44363001	-0.0713170022	-1.17410004	75	95	0
0.444510013	-0.0699660033	-1.17149997	75	95	0
0.44404	-0.0734699965	-1.17040002	75	95	0
0.423240006	-0.0601649992	-1.16159999	75	95	0
0.423700005	-0.0613039993	-1.16250002	75	95	0
0.423240006	-0.0624010004	-1.16149998	75	95	0
0.421909988	-0.0624970011	-1.16330004	75	95	0
0.421909988	-0.0613519996	-1.16340005	75	95	0
0.421009988	-0.0601660013	-1.16159999	75	95	0
0.422329992	-0.058947999	-1.15989995	75	95	0
0.419200003	-0.0588579997	-1.15810001	75	95	0
0.422360003	-0.0637700036	-1.16410005	75	95	0
0.42414999	-0.0637200028	-1.16320002	75	95	0
0.426389992	-0.0637189969	-1.16320002	75	95	0
0.428169996	-0.0636690035	-1.16229999	75	95	0
0.430869997	-0.0624920018	-1.16320002	75	95	0
0.431329995	-0.0613930002	-1.16419995	75	95	0
0.431329995	-0.0637649968	-1.16400003	75	95	0
0.431329995	-0.0649660006	-1.16400003	75	95	0
0.430000007	-0.0650670007	-1.16579998	75	95	0
0.429120004	-0.0652180016	-1.16849995	75	95	0
0.426869988	-0.065219	-1.16849995	75	95	0
0.427780002	-0.0687450022	-1.17009997	75	95	0
0.429120004	-0.0686390027	-1.16830003	75	95	0
0.426420003	-0.0697190017	-1.16729999	75	95	0
0.427760005	-0.069610998	-1.16550004	75	95	0
0.42820999	-0.0720259994	-1.16630006	75	95	0
0.425080001	-0.071010001	-1.16910005	75	95	0
0.420130014	-0.063771002	-1.16410005	75	95	0
0.42058	-0.0650219992	-1.16499996	75	95	0
0.42148	-0.0663029999	-1.16670001	75	95	0
0.421030015	-0.0673900023	-1.16569996	75	95	0
0.42148	-0.0685380027	-1.16649997	75	95	0
0.42058	-0.0721959993	-1.16900003	75	95	0
0.42148	-0.0732109994	-1.16630006	75	95	0
0.425529987	-0.0769449994	-1.16960001	75	95	0
0.427329987	-0.0757009983	-1.16869998	75	95	0
0.428240001	-0.0770019963	-1.17050004	75	95	0
0.426440001	-0.0747200027	-1.17149997	75	95	0
0.421929985	-0.0782959983	-1.17130005	75	95	0
0.422829986	-0.0807730034	-1.17289996	75	95	0
0.423280001	-0.082006	-1.17369998	75	95	0
0.423729986	-0.0832550004	-1.17460001	75	95	0
0.421920002	-0.0833199993	-1.17550004	75	95	0
0.421030015	-0.0854630023	-1.17349994	75	95	0
0.423280001	-0.0854619965	-1.17349994	75	95	0
0.42554	-0.0854609981	-1.17349994	75	95	0
0.424180001	-0.0841509998	-1.17089999	75	95	0
0.42238	-0.0842159986	-1.17180002	75	95	0
0.420130014	-0.084216997	-1.17180002	75	95	0
0.42058	-0.0819440037	-1.17289996	75	95	0
0.423280001	-0.0796729997	-1.17390001	75	95	0
0.421920002	-0.086740002	-1.17519999	75	95	0
0.431870013	-0.0799100026	-1.17739999	75	95	0
0.433200002	-0.0818099976	-1.171	75	95	0
0.4287	-0.0821269974	-1.17550004	75	95	0
0.422300011	-0.106310003	-1.18350005	75	95	0
0.420920014	-0.106470004	-1.18529999	75	95	0
0.420920014	-0.107730001	-1.18519998	75	95	0
0.420480013	-0.105180003	-1.18449998	75	95	0
0.420029998	-0.103919998	-1.18369997	75	95	0
0.419970006	-0.109180003	-1.18780005	75	95	0
0.420410007	-0.110380001	-1.18859994	75	95	0
0.420850009	-0.11417	-1.18910003	75	95	0
0.419459999	-0.11434	-1.19089997	75	95	0
0.4199	-0.11682	-1.19159997	75	95	0
0.4199	-0.117980003	-1.19140005	75	95	0
0.4199	-0.119159997	-1.19130003	75	95	0
0.418049991	-0.121650003	-1.19200003	75	95	0
0.421220005	-0.115889996	-1.19439995	75	95	0
0.423579991	-0.114249997	-1.19000006	75	95	0
0.425410002	-0.114160001	-1.18910003	75	95	0
0.426750004	-0.115630001	-1.19159997	75	95	0
0.424910009	-0.115719996	-1.1925	75	95	0
0.425790012	-0.117080003	-1.19420004	75	95	0
0.426230013	-0.118330002	-1.19500005	75	95	0
0.426230013	-0.119510002	-1.19490004	75	95	0
0.425790012	-0.120630004	-1.19389999	75	95	0
0.425790012	-0.121830001	-1.19369996	75	95	0
0.428530008	-0.121919997	-1.19459999	75	95	0
0.429419994	-0.120899998	-1.19649994	75	95	0
0.428970009	-0.119599998	-1.19570005	75	95	0
0.428079993	-0.118239999	-1.19410002	75	95	0
0.427639991	-0.11699	-1.19330001	75	95	0
0.429930001	-0.11699	-1.19330001	75	95	0
0.430370003	-0.118239999	-1.19410002	75	95	0
0.432669997	-0.118239999	-1.19400001	75	95	0
0.433109999	-0.11716	-1.19500005	75	95	0
0.432220012	-0.115800001	-1.19340003	75	95	0
0.434509993	-0.115790002	-1.19330001	75	95	0
0.436809987	-0.115790002	-1.19330001	75	95	0
0.439099997	-0.115790002	-1.19330001	75	95	0
0.439099997	-0.118139997	-1.19299996	75	95	0
0.437709987	-0.118320003	-1.19480002	75	95	0
0.437709987	-0.119499996	-1.1947	75	95	0
0.436309993	-0.119680002	-1.19649994	75	95	0
0.436760008	-0.120980002	-1.19729996	75	95	0
0.438609987	-0.120889999	-1.19640005	75	95	0
0.439060003	-0.12218	-1.19719994	75	95	0
0.441359997	-0.122170001	-1.19710004	75	95	0
0.440910012	-0.119670004	-1.19649994	75	95	0
0.440459996	-0.117239997	-1.19579995	75	95	0
0.438609987	-0.11733	-1.19669998	75	95	0
0.435860008	-0.117239997	-1.19589996	75	95	0
0.434960008	-0.11823	-1.19400001	75	95	0
0.434009999	-0.119680002	-1.19659996	75	95	0
0.434460014	-0.120990001	-1.19739997	75	95	0
0.43215999	-0.120990001	-1.19739997	75	95	0
0.431710005	-0.119690001	-1.19659996	75	95	0
0.442310005	-0.118309997	-1.19480002	75	95	0
0.44321999	-0.116130002	-1.19679999	75	95	0
0.44411999	-0.117490001	-1.19840002	75	95	0
0.440409988	-0.123630002	-1.1997	75	95	0
0.440409988	-0.124820001	-1.19959998	75	95	0
0.440860003	-0.126090005	-1.20029998	75	95	0
0.441769987	-0.127470002	-1.20200002	75	95	0
0.444079995	-0.126269996	-1.20210004	75	95	0
0.43900001	-0.129800007	-1.20089996	75	95	0
0.438560009	-0.128490001	-1.20009995	75	95	0
0.437660009	-0.127100006	-1.19850004	75	95	0
0.436760008	-0.125719994	-1.19679999	75	95	0
0.437209994	-0.124640003	-1.19780004	75	95	0
0.436250001	-0.128490001	-1.20019996	75	95	0
0.433939993	-0.1285	-1.20019996	75	95	0
0.434390008	-0.129800007	-1.20099998	75	95	0
0.434390008	-0.131040007	-1.20079994	75	95	0
0.435799986	-0.130840003	-1.199	75	95	0
0.436699986	-0.132210001	-1.20070004	75	95	0
0.436250001	-0.133210003	-1.1997	75	95	0
0.438560009	-0.13211	-1.1997	75	95	0
0.440409988	-0.133100003	-1.19869995	75	95	0
0.440409988	-0.129600003	-1.19910002	75	95	0
0.439900011	-0.131219998	-1.20249999	75	95	0
0.437139988	-0.129899994	-1.20179999	75	95	0
0.437209994	-0.132909998	-1.19690001	75	95	0
0.432969987	-0.132410005	-1.20249999	75	95	0
0.430220008	-0.132320002	-1.20159996	75	95	0
0.429340005	-0.133220002	-1.1997	75	95	0
0.429340005	-0.13436	-1.19959998	75	95	0
0.427480012	-0.134460002	-1.20050001	75	95	0
0.42561999	-0.134560004	-1.20140004	75	95	0
0.423310012	-0.134560004	-1.20140004	75	95	0
0.421889991	-0.134760007	-1.20319998	75	95	0
0.421889991	-0.136000007	-1.20309997	75	95	0
0.420020014	-0.136099994	-1.204	75	95	0
0.419589996	-0.134760007	-1.20319998	75	95	0
0.421009988	-0.137020007	-1.20120001	75	95	0
0.423310012	-0.137020007	-1.20120001	75	95	0
0.426050007	-0.137119994	-1.20200002	75	95	0
0.425069988	-0.136199996	-1.20490003	75	95	0
0.427810013	-0.136299998	-1.20580006	75	95	0
0.430130005	-0.136289999	-1.20570004	75	95	0
0.429239988	-0.137319997	-1.20379996	75	95	0
0.431109995	-0.137219995	-1.20290005	75	95	0
0.431109995	-0.135989994	-1.20299995	75	95	0
0.430130005	-0.138750002	-1.20550001	75	95	0
0.42967999	-0.141100004	-1.20430005	75	95	0
0.431989998	-0.141100004	-1.20430005	75	95	0
0.434749991	-0.141200006	-1.20510006	75	95	0
0.435200006	-0.140070006	-1.20609999	75	95	0
0.437959999	-0.138940006	-1.20710003	75	95	0
0.4384	-0.140269995	-1.20790005	75	95	0
0.441170007	-0.140369996	-1.20869994	75	95	0
0.442070007	-0.141819999	-1.21039999	75	95	0
0.443949997	-0.141709998	-1.20940006	75	95	0
0.444400012	-0.14057	-1.2105	75	95	0
0.444849998	-0.13944	-1.21150005	75	95	0
0.444849998	-0.136979997	-1.21179998	75	95	0
0.447629988	-0.13831	-1.21249998	75	95	0
0.448980004	-0.136130005	-1.21539998	75	95	0
0.446729988	-0.14181	-1.21029997	75	95	0
0.441619992	-0.144089997	-1.20920002	75	95	0
0.442519993	-0.145490006	-1.21080005	75	95	0
0.443949997	-0.145270005	-1.20899999	75	95	0
0.442600012	-0.143769994	-1.20650005	75	95	0
0.442149997	-0.142499998	-1.20570004	75	95	0
0.44027999	-0.142609999	-1.20669997	75	95	0
0.438849986	-0.143989995	-1.20840001	75	95	0
0.439740002	-0.145390004	-1.21000004	75	95	0
0.436969995	-0.145290002	-1.20910001	75	95	0
0.436529994	-0.143989995	-1.20840001	75	95	0
0.436080009	-0.142719999	-1.2076	75	95	0
0.437510014	-0.142509997	-1.20580006	75	95	0
0.435099989	-0.143040001	-1.21029997	75	95	0
0.435099989	-0.144209996	-1.21019995	75	95	0
0.435539991	-0.145510003	-1.21099997	75	95	0
0.436419994	-0.146960005	-1.21259999	75	95	0
0.436870009	-0.148289993	-1.21329999	75	95	0
0.439200014	-0.148289993	-1.21329999	75	95	0
0.439200014	-0.147070006	-1.21340001	75	95	0
0.441080004	-0.146950006	-1.21249998	75	95	0
0.441080004	-0.149340004	-1.21220005	75	95	0
0.439200014	-0.150629997	-1.21300006	75	95	0
0.439200014	-0.151840001	-1.21280003	75	95	0
0.43731001	-0.15196	-1.21379995	75	95	0
0.43731001	-0.150749996	-1.21389997	75	95	0
0.43731001	-0.153180003	-1.21360004	75	95	0
0.434980005	-0.153180003	-1.21370006	75	95	0
0.43265	-0.153190002	-1.21370006	75	95	0
0.433530003	-0.154640004	-1.21529996	75	95	0
0.433970004	-0.155980006	-1.21599996	75	95	0
0.433970004	-0.157199994	-1.21589994	75	95	0
0.433970004	-0.158409998	-1.21570003	75	95	0
0.434410006	-0.159740001	-1.21650004	75	95	0
0.434410006	-0.160970002	-1.21630001	75	95	0
0.432080001	-0.160980001	-1.21630001	75	95	0
0.432520002	-0.162359998	-1.21700001	75	95	0
0.432960004	-0.163699999	-1.21780002	75	95	0
0.432960004	-0.164859995	-1.21759999	75	95	0
0.433400005	-0.16618	-1.21829998	75	95	0
0.429749995	-0.160980001	-1.21630001	75	95	0
0.429309994	-0.159630001	-1.21560001	75	95	0
0.429749995	-0.158529997	-1.21669996	75	95	0
0.431199998	-0.158299997	-1.21490002	75	95	0
0.431199998	-0.159510002	-1.21469998	75	95	0
0.43077001	-0.156969994	-1.2141	75	95	0
0.43077001	-0.155760005	-1.21430004	75	95	0
0.43077001	-0.154530004	-1.21440005	75	95	0
0.428440005	-0.154530004	-1.21449995	75	95	0
0.428880006	-0.155870005	-1.21519995	75	95	0
0.428880006	-0.157089993	-1.21500003	75	95	0
0.426990002	-0.157210007	-1.21589994	75	95	0
0.42741999	-0.158539996	-1.21669996	75	95	0
0.426990002	-0.159639999	-1.21560001	75	95	0
0.426550001	-0.160750002	-1.21459997	75	95	0
0.425089985	-0.160980001	-1.21640003	75	95	0
0.425529987	-0.159869999	-1.21739995	75	95	0
0.425529987	-0.158659995	-1.21759999	75	95	0
0.425089985	-0.164629996	-1.21589994	75	95	0
0.425529987	-0.165940002	-1.21659994	75	95	0
0.428290009	-0.166060001	-1.21749997	75	95	0
0.426550001	-0.154650003	-1.21539998	75	95	0
0.424230009	-0.154650003	-1.21539998	75	95	0
0.42335999	-0.153190002	-1.21370006	75	95	0
0.42335999	-0.151979998	-1.21389997	75	95	0
0.422919989	-0.150649995	-1.21319997	75	95	0
0.420610011	-0.151869997	-1.21300006	75	95	0
0.420170009	-0.150539994	-1.21229994	75	95	0
0.421620011	-0.14914	-1.21060002	75	95	0
0.419739991	-0.152860001	-1.21109998	75	95	0
0.419739991	-0.154080003	-1.21089995	75	95	0
0.420610011	-0.155530006	-1.21249998	75	95	0
0.418289989	-0.156749994	-1.21239996	75	95	0
0.419149995	-0.158189997	-1.21399999	75	95	0
0.419149995	-0.159400001	-1.21389997	75	95	0
0.417259991	-0.15952	-1.2148	75	95	0
0.416830003	-0.158189997	-1.21399999	75	95	0
0.414510012	-0.158189997	-1.21399999	75	95	0
0.414090008	-0.159280002	-1.21300006	75	95	0
0.41365999	-0.160390005	-1.2119	75	95	0
0.412200004	-0.163110003	-1.21329999	75	95	0
0.413049996	-0.164499998	-1.21500003	75	95	0
0.415369987	-0.162129998	-1.21529996	75	95	0
0.416649997	-0.163709998	-1.21780002	75	95	0
0.417079985	-0.164989993	-1.21860003	75	95	0
0.418119997	-0.164629996	-1.21589994	75	95	0
0.415120006	-0.156509995	-1.21060002	75	95	0
0.415120006	-0.155300006	-1.21070004	75	95	0
0.414689988	-0.153970003	-1.21000004	75	95	0
0.415120006	-0.152860001	-1.21109998	75	95	0
0.416999996	-0.151529998	-1.21029997	75	95	0
0.416999996	-0.153970003	-1.21000004	75	95	0
0.417430013	-0.155300006	-1.21080005	75	95	0
0.418720007	-0.153200001	-1.21379995	75	95	0
0.436749995	-0.159740001	-1.21640003	75	95	0
0.437189996	-0.158639997	-1.21749997	75	95	0
0.437629998	-0.161210001	-1.21800005	75	95	0
0.440409988	-0.161320001	-1.21889997	75	95	0
0.440409988	-0.160089999	-1.2191	75	95	0
0.439969987	-0.158749998	-1.21829998	75	95	0
0.441419989	-0.156079993	-1.21679997	75	95	0
0.442310005	-0.155080006	-1.21879995	75	95	0
0.444200009	-0.157409996	-1.21749997	75	95	0
0.443309993	-0.152280003	-1.21640003	75	95	0
0.442869991	-0.150959998	-1.21560001	75	95	0
0.442869991	-0.153390005	-1.21529996	75	95	0
0.440090001	-0.153290004	-1.21449995	75	95	0
0.438639998	-0.154750004	-1.21609998	75	95	0
0.438639998	-0.155970007	-1.21599996	75	95	0
0.437750012	-0.156959996	-1.21399999	75	95	0
0.435860008	-0.157079995	-1.21500003	75	95	0
0.435860008	-0.155860007	-1.21510005	75	95	0
0.435860008	-0.154640004	-1.21529996	75	95	0
0.439200014	-0.156719998	-1.21220005	75	95	0
0.443309993	-0.148719996	-1.21679997	75	95	0
0.444310009	-0.149550006	-1.21389997	75	95	0
0.442750007	-0.161310002	-1.21889997	75	95	0
0.438069999	-0.164969996	-1.2184	75	95	0
0.433660001	-0.151629999	-1.21109998	75	95	0
0.435099989	-0.149020001	-1.20959997	75	95	0
0.436969995	-0.148900002	-1.20869994	75	95	0
0.432770014	-0.147860005	-1.2098	75	95	0
0.430889994	-0.147970006	-1.21070004	75	95	0
0.431769997	-0.146970004	-1.21259999	75	95	0
0.433660001	-0.146860003	-1.21169996	75	95	0
0.428140014	-0.150199994	-1.20959997	75	95	0
0.426690012	-0.150429994	-1.21140003	75	95	0
0.439740002	-0.141819999	-1.21039999	75	95	0
0.443120003	-0.142179996	-1.20299995	75	95	0
0.43937999	-0.138730004	-1.20529997	75	95	0
0.441700011	-0.137510002	-1.20539999	75	95	0
0.439830005	-0.136380002	-1.20650005	75	95	0
0.441700011	-0.13504	-1.20570004	75	95	0
0.419149995	-0.131239995	-1.20270002	75	95	0
0.42058	-0.131050006	-1.20089996	75	95	0
0.420139998	-0.132129997	-1.19990003	75	95	0
0.420139998	-0.133220002	-1.19980001	75	95	0
0.421999991	-0.133129999	-1.19889998	75	95	0
0.421999991	-0.132029995	-1.199	75	95	0
0.422439992	-0.130950004	-1.20000005	75	95	0
0.422879994	-0.129820004	-1.20109999	75	95	0
0.421999991	-0.127210006	-1.19949996	75	95	0
0.421559989	-0.128319994	-1.19850004	75	95	0
0.423420012	-0.128220007	-1.19760001	75	95	0
0.423860013	-0.127120003	-1.19860005	75	95	0
0.423420012	-0.125829995	-1.19790006	75	95	0
0.423420012	-0.124650002	-1.19799995	75	95	0
0.420679986	-0.125740007	-1.19700003	75	95	0
0.420249999	-0.124470003	-1.19620001	75	95	0
0.419809997	-0.123190001	-1.1954	75	95	0
0.422100008	-0.123190001	-1.1954	75	95	0
0.421660006	-0.121919997	-1.1947	75	95	0
0.421660006	-0.120719999	-1.19480002	75	95	0
0.418390006	-0.126929998	-1.19690001	75	95	0
0.418390006	-0.128120005	-1.19669998	75	95	0
0.419699997	-0.129620001	-1.19930005	75	95	0
0.417849988	-0.132129997	-1.19990003	75	95	0
0.417849988	-0.133220002	-1.19980001	75	95	0
0.440950006	-0.114490002	-1.19239998	75	95	0
0.441399992	-0.11332	-1.19350004	75	95	0
0.440950006	-0.111939996	-1.19270003	75	95	0
0.438650012	-0.111950003	-1.19270003	75	95	0
0.438199997	-0.113150001	-1.19169998	75	95	0
0.435900003	-0.113159999	-1.1918	75	95	0
0.435449988	-0.114330001	-1.19079995	75	95	0
0.433160007	-0.114330001	-1.19079995	75	95	0
0.432709992	-0.112989999	-1.19000006	75	95	0
0.431320012	-0.114419997	-1.19169998	75	95	0
0.429479986	-0.115709998	-1.1925	75	95	0
0.42859	-0.114330001	-1.19079995	75	95	0
0.42859	-0.113080002	-1.19099998	75	95	0
0.428140014	-0.111709997	-1.19019997	75	95	0
0.427700013	-0.110459998	-1.18939996	75	95	0
0.427249998	-0.10926	-1.18859994	75	95	0
0.426299989	-0.109509997	-1.19130003	75	95	0
0.426750004	-0.113169998	-1.19190001	75	95	0
0.424910009	-0.113250002	-1.19280005	75	95	0
0.429080009	-0.11146	-1.1875	75	95	0
0.42998001	-0.110459998	-1.18939996	75	95	0
0.43088001	-0.109499998	-1.19130003	75	95	0
0.43088001	-0.108290002	-1.19140005	75	95	0
0.433160007	-0.108290002	-1.19140005	75	95	0
0.432709992	-0.109420002	-1.1904	75	95	0
0.433160007	-0.110619999	-1.1911	75	95	0
0.434060007	-0.111960001	-1.19280005	75	95	0
0.436360002	-0.111950003	-1.19280005	75	95	0
0.435900003	-0.110699996	-1.19200003	75	95	0
0.435900003	-0.109580003	-1.19210005	75	95	0
0.435449988	-0.108290002	-1.19130003	75	95	0
0.437290013	-0.108199999	-1.1904	75	95	0
0.437290013	-0.109410003	-1.19029999	75	95	0
0.439130008	-0.109329998	-1.18939996	75	95	0
0.439130008	-0.108120002	-1.18949997	75	95	0
0.440510005	-0.106689997	-1.18780005	75	95	0
0.440510005	-0.10548	-1.18789995	75	95	0
0.442799985	-0.106679998	-1.18770003	75	95	0
0.442330003	-0.108280003	-1.19120002	75	95	0
0.442790002	-0.109569997	-1.19200003	75	95	0
0.44005999	-0.110189997	-1.18649995	75	95	0
0.438219994	-0.11028	-1.1875	75	95	0
0.435939997	-0.11028	-1.1875	75	95	0
0.42998001	-0.112910002	-1.18920004	75	95	0
0.436839998	-0.114150003	-1.18889999	75	95	0
0.421730012	-0.162609994	-1.21889997	75	95	0
0.425790012	-0.172930002	-1.22109997	75	95	0
0.426649988	-0.174390003	-1.2227	75	95	0
0.424320012	-0.174390003	-1.2227	75	95	0
0.42475	-0.175669998	-1.22350001	75	95	0
0.422839999	-0.175799996	-1.22440004	75	95	0
0.421979994	-0.174390003	-1.2227	75	95	0
0.421119988	-0.172930002	-1.22109997	75	95	0
0.423449993	-0.172930002	-1.22109997	75	95	0
0.424320012	-0.17193	-1.22309995	75	95	0
0.421979994	-0.17193	-1.22309995	75	95	0
0.442180008	-0.164289996	-1.22210002	75	95	0
0.442629993	-0.165570006	-1.22280002	75	95	0
0.442629993	-0.163179994	-1.22319996	75	95	0
0.411159992	-0.175789997	-1.22430003	75	95	0
0.411579996	-0.177090004	-1.22510004	75	95	0
0.411159992	-0.178169996	-1.22399998	75	95	0
