0.415259987	-0.344000012	-1.31659997	213	121	96
0.413129985	-0.344220012	-1.3175	213	121	96
0.413520008	-0.34314999	-1.31869996	213	121	96
0.412360013	-0.341140002	-1.31630003	213	121	96
0.409850001	-0.341129988	-1.31630003	213	121	96
0.410230011	-0.342680007	-1.31690001	213	121	96
0.410620004	-0.344220012	-1.31739998	213	121	96
0.411000013	-0.34573999	-1.31799996	213	121	96
0.411390007	-0.347259998	-1.31850004	213	121	96
0.409640014	-0.347730011	-1.32029998	213	121	96
0.409640014	-0.346430004	-1.32060003	213	121	96
0.407119989	-0.34641999	-1.32060003	213	121	96
0.407499999	-0.345360011	-1.32179999	213	121	96
0.407499999	-0.347950011	-1.3211	213	121	96
0.410019994	-0.34928	-1.32079995	213	121	96
0.410019994	-0.350609988	-1.32050002	213	121	96
0.40636	-0.343349993	-1.31949997	213	121	96
0.405589998	-0.34156999	-1.31799996	213	121	96
0.40772	-0.341349989	-1.31719995	213	121	96
0.40772	-0.342669994	-1.3168	213	121	96
0.408490002	-0.344440013	-1.31830001	213	121	96
0.404830009	-0.339749992	-1.31659997	213	121	96
0.406190008	-0.339069992	-1.31389999	213	121	96
0.405429989	-0.337249994	-1.3125	213	121	96
0.406190008	-0.336409986	-1.31459999	213	121	96
0.408309996	-0.336189985	-1.31379998	213	121	96
0.408309996	-0.337489992	-1.31340003	213	121	96
0.410430014	-0.337269992	-1.31260002	213	121	96
0.410039991	-0.33574	-1.31200004	213	121	96
0.412930012	-0.335979998	-1.31299996	213	121	96
0.412930012	-0.337280005	-1.31260002	213	121	96
0.414660007	-0.33682999	-1.31089997	213	121	96
0.41505	-0.335759997	-1.31210005	213	121	96
0.417169988	-0.33682999	-1.31089997	213	121	96
0.417950004	-0.335990012	-1.31299996	213	121	96
0.420060009	-0.335770011	-1.31210005	213	121	96
0.420060009	-0.337069988	-1.3118	213	121	96
0.42256999	-0.337069988	-1.3118	213	121	96
0.425870001	-0.337529987	-1.31359994	213	121	96
0.426270008	-0.336459994	-1.31480002	213	121	96
0.424540013	-0.336910009	-1.31659997	213	121	96
0.42798999	-0.337300003	-1.31270003	213	121	96
0.429179996	-0.336690009	-1.31570005	213	121	96
0.430909991	-0.33623001	-1.31389999	213	121	96
0.431309998	-0.337760001	-1.31449997	213	121	96
0.431699991	-0.339349985	-1.31500006	213	121	96
0.43423	-0.337980002	-1.3154	213	121	96
0.435030013	-0.339810014	-1.3168	213	121	96
0.43542999	-0.341399997	-1.31729996	213	121	96
0.435030013	-0.342480004	-1.3161	213	121	96
0.432900012	-0.342709988	-1.31700003	213	121	96
0.433299989	-0.341630012	-1.31819999	213	121	96
0.433299989	-0.344249994	-1.3175	213	121	96
0.433299989	-0.345539987	-1.31719995	213	121	96
0.437550008	-0.34246999	-1.3161	213	121	96
0.437959999	-0.341390014	-1.31729996	213	121	96
0.438360006	-0.340259999	-1.31860006	213	121	96
0.440890014	-0.340259999	-1.31850004	213	121	96
0.440890014	-0.341619998	-1.31819999	213	121	96
0.440890014	-0.342929989	-1.31780005	213	121	96
0.440079987	-0.338429987	-1.31710005	213	121	96
0.440890014	-0.337579995	-1.31920004	213	121	96
0.437959999	-0.337359995	-1.31840003	213	121	96
0.437150002	-0.338209987	-1.31620002	213	121	96
0.43542999	-0.337370008	-1.31840003	213	121	96
0.443830013	-0.339109987	-1.3197	213	121	96
0.411199987	-0.33908999	-1.31400001	213	121	96
0.409079999	-0.33930999	-1.31490004	213	121	96
0.414099991	-0.339329988	-1.31490004	213	121	96
0.40406999	-0.336629987	-1.31550002	213	121	96
0.40369001	-0.337700009	-1.31420004	213	121	96
0.402709991	-0.337300003	-1.31809998	213	121	96
0.403840005	-0.34066999	-1.32009995	213	121	96
0.403840005	-0.342029989	-1.31980002	213	121	96
0.402850002	-0.342940003	-1.3233	213	121	96
0.403979987	-0.342269987	-1.32630002	213	121	96
0.401840001	-0.34386	-1.32679999	213	121	96
0.405360013	-0.340220004	-1.32410002	213	121	96
0.402469993	-0.338660002	-1.32340002	213	121	96
0.423590004	-0.344480008	-1.31840003	213	121	96
0.421460003	-0.344709992	-1.31930006	213	121	96
0.419330001	-0.344940007	-1.32019997	213	121	96
0.419719994	-0.346460015	-1.32070005	213	121	96
0.420109987	-0.347990006	-1.32130003	213	121	96
0.433950007	-0.352710009	-1.32290006	213	121	96
0.431410015	-0.352710009	-1.32290006	213	121	96
0.429269999	-0.352950007	-1.32379997	213	121	96
0.430059999	-0.354750007	-1.32519996	213	121	96
0.430059999	-0.35600999	-1.32490003	213	121	96
0.429659992	-0.357050002	-1.32369995	213	121	96
0.42791	-0.357529998	-1.32539999	213	121	96
0.427520007	-0.35600999	-1.32490003	213	121	96
0.427520007	-0.354750007	-1.32519996	213	121	96
0.42712	-0.351830006	-1.32509995	213	121	96
0.424980015	-0.35205999	-1.32589996	213	121	96
0.422439992	-0.35205999	-1.32589996	213	121	96
0.424199998	-0.354270011	-1.32340002	213	121	96
0.423810005	-0.355289996	-1.32219994	213	121	96
0.423810005	-0.356570005	-1.32190001	213	121	96
0.422049999	-0.357050002	-1.32360005	213	121	96
0.420300007	-0.358880013	-1.32500005	213	121	96
0.420679986	-0.360469997	-1.32560003	213	121	96
0.418529987	-0.360700011	-1.32640004	213	121	96
0.41892001	-0.362239987	-1.32700002	213	121	96
0.416379988	-0.362230003	-1.32690001	213	121	96
0.416379988	-0.36353001	-1.32659996	213	121	96
0.414229989	-0.363770008	-1.32739997	213	121	96
0.414229989	-0.362470001	-1.32780004	213	121	96
0.414229989	-0.361169994	-1.32819998	213	121	96
0.416000009	-0.360700011	-1.32640004	213	121	96
0.418150008	-0.359120011	-1.32589996	213	121	96
0.412070006	-0.362699986	-1.32869995	213	121	96
0.409920007	-0.362940013	-1.32949996	213	121	96
0.409539998	-0.363990009	-1.3283	213	121	96
0.407000005	-0.363979995	-1.32819998	213	121	96
0.407000005	-0.362679988	-1.32860005	213	121	96
0.404850006	-0.362910002	-1.32939994	213	121	96
0.404850006	-0.36421001	-1.32910001	213	121	96
0.405600011	-0.366030008	-1.33050001	213	121	96
0.405970007	-0.367610008	-1.33099997	213	121	96
0.406729996	-0.369459987	-1.33239996	213	121	96
0.407099992	-0.37105	-1.33299994	213	121	96
0.407480001	-0.37263	-1.33350003	213	121	96
0.409649998	-0.372390002	-1.3326	213	121	96
0.409269989	-0.370810002	-1.33210003	213	121	96
0.409269989	-0.36947	-1.33249998	213	121	96
0.409269989	-0.368120015	-1.33290005	213	121	96
0.411049992	-0.367639989	-1.33109999	213	121	96
0.410670012	-0.366059989	-1.33060002	213	121	96
0.413219988	-0.367399991	-1.33019996	213	121	96
0.414990008	-0.366919994	-1.32850003	213	121	96
0.412070006	-0.365330011	-1.32790005	213	121	96
0.411309987	-0.363510013	-1.32650006	213	121	96
0.413459986	-0.364600003	-1.32529998	213	121	96
0.415609986	-0.364369988	-1.32439995	213	121	96
0.410169989	-0.360199988	-1.32459998	213	121	96
0.40801999	-0.360430002	-1.32539999	213	121	96
0.40764001	-0.358839989	-1.32490003	213	121	96
0.407260001	-0.357239991	-1.32439995	213	121	96
0.407260001	-0.355960011	-1.3247	213	121	96
0.407260001	-0.354699999	-1.32500005	213	121	96
0.404729992	-0.354689986	-1.32500005	213	121	96
0.404729992	-0.353359997	-1.32529998	213	121	96
0.405490011	-0.356429994	-1.32640004	213	121	96
0.405869991	-0.357950002	-1.32700002	213	121	96
0.405869991	-0.359310001	-1.32659996	213	121	96
0.405869991	-0.360659987	-1.32630002	213	121	96
0.403719991	-0.360890001	-1.32710004	213	121	96
0.403719991	-0.359539986	-1.32749999	213	121	96
0.404469997	-0.358660012	-1.32959998	213	121	96
0.403719991	-0.356900007	-1.32819998	213	121	96
0.403719991	-0.35563001	-1.32850003	213	121	96
0.401939988	-0.360009998	-1.32920003	213	121	96
0.403059989	-0.362089992	-1.33150005	213	121	96
0.403059989	-0.363389999	-1.3312	213	121	96
0.403439999	-0.364930004	-1.33169997	213	121	96
0.403809994	-0.366510004	-1.33220005	213	121	96
0.404929996	-0.368589997	-1.33449996	213	121	96
0.405310005	-0.370189995	-1.33510005	213	121	96
0.405680001	-0.371780008	-1.33560002	213	121	96
0.40388	-0.372269988	-1.33729994	213	121	96
0.40426001	-0.371160001	-1.33860004	213	121	96
0.401710004	-0.372500002	-1.33819997	213	121	96
0.402819991	-0.371890008	-1.34119999	213	121	96
0.401010007	-0.373730004	-1.34259999	213	121	96
0.408230007	-0.374460012	-1.33490002	213	121	96
0.408230007	-0.375800014	-1.33449996	213	121	96
0.408609986	-0.377400011	-1.33500004	213	121	96
0.408609986	-0.378820002	-1.33459997	213	121	96
0.409399986	-0.355729997	-1.32379997	213	121	96
0.410169989	-0.357490003	-1.32529998	213	121	96
0.409399986	-0.358370006	-1.32309997	213	121	96
0.418300003	-0.367419988	-1.33029997	213	121	96
0.420080006	-0.36559999	-1.32889998	213	121	96
0.420080006	-0.364270002	-1.32930005	213	121	96
0.422619998	-0.362969995	-1.32969999	213	121	96
0.423400015	-0.364760011	-1.33109999	213	121	96
0.422619998	-0.36559999	-1.32889998	213	121	96
0.423779994	-0.36767	-1.3312	213	121	96
0.421229988	-0.36767	-1.3312	213	121	96
0.425940007	-0.36609	-1.33070004	213	121	96
0.425940007	-0.364760011	-1.33109999	213	121	96
0.425170004	-0.362980008	-1.32969999	213	121	96
0.424389988	-0.361200005	-1.32819998	213	121	96
0.423610002	-0.359369993	-1.32679999	213	121	96
0.425370008	-0.358889997	-1.32509995	213	121	96
0.428689986	-0.359369993	-1.32679999	213	121	96
0.429089993	-0.360960007	-1.32739997	213	121	96
0.42693001	-0.361200005	-1.32819998	213	121	96
0.42809999	-0.363220006	-1.33060002	213	121	96
0.428499997	-0.364769995	-1.33109999	213	121	96
0.42809999	-0.365850002	-1.32980001	213	121	96
0.42888999	-0.367680013	-1.3312	213	121	96
0.429280013	-0.369269997	-1.33179998	213	121	96
0.427109987	-0.369509995	-1.3326	213	121	96
0.426719993	-0.367920011	-1.33210003	213	121	96
0.424950004	-0.369760007	-1.33350003	213	121	96
0.425330013	-0.37134999	-1.33399999	213	121	96
0.42750001	-0.371109992	-1.33319998	213	121	96
0.428669989	-0.373180002	-1.33539999	213	121	96
0.426109999	-0.373180002	-1.33539999	213	121	96
0.426109999	-0.374520004	-1.33510005	213	121	96
0.426880002	-0.376349986	-1.33650005	213	121	96
0.429060012	-0.376100004	-1.33560002	213	121	96
0.429060012	-0.377449989	-1.33519995	213	121	96
0.426109999	-0.377200007	-1.33430004	213	121	96
0.424320012	-0.377700001	-1.33609998	213	121	96
0.42355001	-0.375849992	-1.33469999	213	121	96
0.423159987	-0.374260008	-1.33420002	213	121	96
0.423159987	-0.37292999	-1.33449996	213	121	96
0.423159987	-0.371600002	-1.33490002	213	121	96
0.422780007	-0.370000005	-1.33440006	213	121	96
0.425089985	-0.379629999	-1.33739996	213	121	96
0.422529995	-0.379619986	-1.33739996	213	121	96
0.420349985	-0.379869998	-1.33829999	213	121	96
0.420349985	-0.381249994	-1.33790004	213	121	96
0.421119988	-0.383029997	-1.33930004	213	121	96
0.418550014	-0.383029997	-1.33930004	213	121	96
0.417789996	-0.38124001	-1.33790004	213	121	96
0.417030007	-0.37935999	-1.33650005	213	121	96
0.415879995	-0.37718001	-1.33420002	213	121	96
0.41712001	-0.385069996	-1.34159994	213	121	96
0.417499989	-0.386649996	-1.34210002	213	121	96
0.41712001	-0.387730002	-1.34080005	213	121	96
0.417879999	-0.389660001	-1.34220004	213	121	96
0.415309995	-0.389649987	-1.34210002	213	121	96
0.41455999	-0.387730002	-1.34080005	213	121	96
0.419690013	-0.387739986	-1.34080005	213	121	96
0.420069993	-0.38666001	-1.34210002	213	121	96
0.420459986	-0.385589987	-1.3434	213	121	96
0.422650009	-0.385340005	-1.34249997	213	121	96
0.422259986	-0.386409998	-1.34119999	213	121	96
0.421880007	-0.387490004	-1.34000003	213	121	96
0.425220013	-0.388009995	-1.34179997	213	121	96
0.425220013	-0.386669993	-1.34210002	213	121	96
0.42482999	-0.385089993	-1.34159994	213	121	96
0.424070001	-0.383289993	-1.34019995	213	121	96
0.426250011	-0.383040011	-1.33940005	213	121	96
0.426250011	-0.381770015	-1.33969998	213	121	96
0.426640004	-0.384579986	-1.33990002	213	121	96
0.427410007	-0.386409998	-1.34130001	213	121	96
0.42998001	-0.386409998	-1.34130001	213	121	96
0.42998001	-0.385089993	-1.34159994	213	121	96
0.4296	-0.383549988	-1.34109998	213	121	96
0.429210007	-0.382019997	-1.34060001	213	121	96
0.428050011	-0.379880011	-1.33829999	213	121	96
0.430610001	-0.379880011	-1.33829999	213	121	96
0.433180004	-0.379880011	-1.33829999	213	121	96
0.435360014	-0.379629999	-1.33739996	213	121	96
0.434579998	-0.377700001	-1.33609998	213	121	96
0.434190005	-0.376100004	-1.33560002	213	121	96
0.434579998	-0.375010014	-1.33679998	213	121	96
0.432399988	-0.375259995	-1.33770001	213	121	96
0.432399988	-0.376599997	-1.33739996	213	121	96
0.432399988	-0.377950013	-1.33700001	213	121	96
0.429839998	-0.375259995	-1.33770001	213	121	96
0.431230009	-0.373180002	-1.33539999	213	121	96
0.430839986	-0.371600002	-1.33490002	213	121	96
0.433010012	-0.37134999	-1.33399999	213	121	96
0.433789998	-0.373180002	-1.33539999	213	121	96
0.435570002	-0.372680008	-1.33369994	213	121	96
0.435570002	-0.37134999	-1.33399999	213	121	96
0.435180008	-0.369760007	-1.33350003	213	121	96
0.438129991	-0.370000005	-1.33440006	213	121	96
0.438529998	-0.371589988	-1.33490002	213	121	96
0.438930005	-0.373180002	-1.33539999	213	121	96
0.437150002	-0.375010014	-1.33679998	213	121	96
0.437150002	-0.376349986	-1.33650005	213	121	96
0.437929988	-0.378199995	-1.33780003	213	121	96
0.440510005	-0.378190011	-1.33780003	213	121	96
0.441300005	-0.377339989	-1.34000003	213	121	96
0.441300005	-0.375999987	-1.34039998	213	121	96
0.443879992	-0.37331	-1.34109998	213	121	96
0.439119995	-0.380380005	-1.34010005	213	121	96
0.436540008	-0.381760001	-1.33969998	213	121	96
0.435759991	-0.382530004	-1.33759999	213	121	96
0.433569998	-0.382789999	-1.33850002	213	121	96
0.434359998	-0.382019997	-1.34060001	213	121	96
0.432559997	-0.382530004	-1.34239995	213	121	96
0.432170004	-0.383549988	-1.34109998	213	121	96
0.440299988	-0.38251999	-1.34230006	213	121	96
0.439900011	-0.383540004	-1.34109998	213	121	96
0.441100001	-0.370240003	-1.33529997	213	121	96
0.439909995	-0.368160009	-1.33299994	213	121	96
0.439909995	-0.366820008	-1.33340001	213	121	96
0.439110011	-0.36500001	-1.3319	213	121	96
0.440869987	-0.363209993	-1.33050001	213	121	96
0.440869987	-0.36056	-1.3312	213	121	96
0.442070007	-0.36263001	-1.33350003	213	121	96
0.437920004	-0.361680001	-1.33000004	213	121	96
0.437130004	-0.359849989	-1.32860005	213	121	96
0.436729997	-0.36225	-1.32700002	213	121	96
0.434579998	-0.362489998	-1.32790005	213	121	96
0.434579998	-0.361200005	-1.32819998	213	121	96
0.432419986	-0.36274001	-1.32879996	213	121	96
0.432810009	-0.364279985	-1.32930005	213	121	96
0.432810009	-0.365610003	-1.32889998	213	121	96
0.430660009	-0.365850002	-1.32980001	213	121	96
0.430260003	-0.364279985	-1.32930005	213	121	96
0.430260003	-0.362980008	-1.32969999	213	121	96
0.431629986	-0.360960007	-1.32739997	213	121	96
0.430839986	-0.359129995	-1.32599998	213	121	96
0.433389992	-0.359129995	-1.32589996	213	121	96
0.432990015	-0.357529998	-1.32539999	213	121	96
0.432990015	-0.356249988	-1.32579994	213	121	96
0.432990015	-0.354990005	-1.32609999	213	121	96
0.435539991	-0.356249988	-1.32579994	213	121	96
0.435930014	-0.35521999	-1.32700002	213	121	96
0.43847999	-0.356480002	-1.32659996	213	121	96
0.438080013	-0.357520014	-1.32539999	213	121	96
0.435140014	-0.35729	-1.32449996	213	121	96
0.438879997	-0.355459988	-1.32790005	213	121	96
0.431829989	-0.367920011	-1.33210003	213	121	96
0.431439996	-0.369019985	-1.33089995	213	121	96
0.433600008	-0.367430001	-1.33039999	213	121	96
0.436159998	-0.367430001	-1.33029997	213	121	96
0.436159998	-0.36609	-1.33070004	213	121	96
0.434969991	-0.364030004	-1.32840002	213	121	96
0.44303	-0.357659996	-1.33099997	213	121	96
0.442629993	-0.356160015	-1.33050001	213	121	96
0.444389999	-0.354350001	-1.32910001	213	121	96
0.441830009	-0.358240008	-1.32799995	213	121	96
0.442290008	-0.373659998	-1.33720005	213	121	96
0.423299998	-0.38150999	-1.33879995	213	121	96
0.414359987	-0.369489998	-1.33249998	213	121	96
0.414359987	-0.370829999	-1.33220005	213	121	96
0.411810011	-0.370819986	-1.33210003	213	121	96
0.411810011	-0.369480014	-1.33249998	213	121	96
0.41218999	-0.372399986	-1.33270001	213	121	96
0.407759994	-0.365799993	-1.32959998	213	121	96
0.423420012	-0.352470011	-1.32200003	213	121	96
0.426340014	-0.352710009	-1.32290006	213	121	96
0.428479999	-0.351119995	-1.32239997	213	121	96
0.436890006	-0.352939993	-1.32379997	213	121	96
0.439429998	-0.352939993	-1.32379997	213	121	96
0.439429998	-0.351579994	-1.32410002	213	121	96
0.405360013	-0.352180004	-1.32089996	213	121	96
0.404599994	-0.350349993	-1.31949997	213	121	96
0.403219998	-0.351049989	-1.32210004	213	121	96
0.401380002	-0.364580005	-1.34609997	213	121	96
0.401749998	-0.366189986	-1.34660006	213	121	96
0.405000001	-0.362260014	-1.34300005	213	121	96
0.402079999	-0.355349988	-1.34379995	213	121	96
0.403189987	-0.349400014	-1.34819996	213	121	96
0.402819991	-0.347779989	-1.3477	213	121	96
0.401380002	-0.348459989	-1.35029995	213	121	96
0.401749998	-0.350080013	-1.35090005	213	121	96
0.404309988	-0.351449996	-1.3506	213	121	96
0.404309988	-0.347299993	-1.35160005	213	121	96
0.401749998	-0.345950007	-1.35189998	213	121	96
0.402859986	-0.364160001	-1.35000002	213	121	96
0.401769996	-0.371870011	-1.35169995	213	121	96
0.402509987	-0.37371999	-1.35309994	213	121	96
0.402509987	-0.371010005	-1.35389996	213	121	96
0.402509987	-0.369679987	-1.35420001	213	121	96
0.401039988	-0.373089999	-1.35609996	213	121	96
0.401769996	-0.37222001	-1.35829997	213	121	96
0.402139992	-0.37518999	-1.3585	213	121	96
0.4014	-0.376069993	-1.3563	213	121	96
0.401039988	-0.377189994	-1.35500002	213	121	96
0.402869999	-0.376709998	-1.35329998	213	121	96
0.403239995	-0.378309995	-1.35380006	213	121	96
0.4014	-0.381500006	-1.35479999	213	121	96
0.402139992	-0.383379996	-1.35619998	213	121	96
0.402500004	-0.380899996	-1.35780001	213	121	96
0.402869999	-0.379790008	-1.35909998	213	121	96
0.401380002	-0.379170001	-1.36210001	213	121	96
0.400649995	-0.377299994	-1.36070001	213	121	96
0.401749998	-0.382140011	-1.36230004	213	121	96
0.401749998	-0.38350001	-1.36189997	213	121	96
0.402480006	-0.385390013	-1.36329997	213	121	96
0.400620013	-0.387329996	-1.36459994	213	121	96
0.401340008	-0.38925001	-1.36600006	213	121	96
0.403569996	-0.390309989	-1.36479998	213	121	96
0.402839988	-0.391110003	-1.36259997	213	121	96
0.402839988	-0.392450005	-1.36220002	213	121	96
0.402839988	-0.393810004	-1.36179996	213	121	96
0.401749998	-0.394470006	-1.35870004	213	121	96
0.40211001	-0.396120012	-1.3592	213	121	96
0.402480006	-0.397670001	-1.35969996	213	121	96
0.403600007	-0.396640003	-1.35619998	213	121	96
0.402500004	-0.394569993	-1.35389996	213	121	96
0.401769996	-0.392670006	-1.35249996	213	121	96
0.403979987	-0.391000003	-1.35210001	213	121	96
0.4014	-0.38962999	-1.35239995	213	121	96
0.401039988	-0.388040006	-1.35189998	213	121	96
0.4014	-0.385710001	-1.35360003	213	121	96
0.403979987	-0.387019992	-1.35329998	213	121	96
0.400299996	-0.383549988	-1.3513	213	121	96
0.402509987	-0.381879985	-1.35090005	213	121	96
0.401769996	-0.380010009	-1.34940004	213	121	96
0.401769996	-0.378659993	-1.34979999	213	121	96
0.402139992	-0.384460002	-1.34920001	213	121	96
0.403600007	-0.384990007	-1.34619999	213	121	96
0.402859986	-0.38319999	-1.34469998	213	121	96
0.40248999	-0.385509998	-1.34309995	213	121	96
0.402859986	-0.387089998	-1.34360003	213	121	96
0.404680014	-0.386590004	-1.34189999	213	121	96
0.404680014	-0.38527	-1.34230006	213	121	96
0.404680014	-0.383980006	-1.34259999	213	121	96
0.406870008	-0.383740008	-1.34179997	213	121	96
0.407240003	-0.385280013	-1.34230006	213	121	96
0.407240003	-0.386610001	-1.34189999	213	121	96
0.409429997	-0.38635999	-1.34109998	213	121	96
0.409429997	-0.385039985	-1.34150004	213	121	96
0.411240011	-0.384539992	-1.33969998	213	121	96
0.411240011	-0.383260012	-1.34010005	213	121	96
0.408309996	-0.382990003	-1.33920002	213	121	96
0.409060001	-0.38745001	-1.3398	213	121	96
0.406500012	-0.387430012	-1.3398	213	121	96
0.404680014	-0.38793999	-1.34150004	213	121	96
0.405790001	-0.39012	-1.34379995	213	121	96
0.406159997	-0.391759992	-1.34430003	213	121	96
0.406910002	-0.393559992	-1.34570003	213	121	96
0.404709995	-0.39379999	-1.34650004	213	121	96
0.404709995	-0.39252001	-1.34689999	213	121	96
0.405449986	-0.391660005	-1.34909999	213	121	96
0.405449986	-0.390240014	-1.34949994	213	121	96
0.402509987	-0.388619989	-1.34889996	213	121	96
0.402509987	-0.391389996	-1.34809995	213	121	96
0.402869999	-0.393029988	-1.34860003	213	121	96
0.403979987	-0.395090014	-1.35090005	213	121	96
0.402139992	-0.396899998	-1.35230005	213	121	96
0.401769996	-0.398009986	-1.35099995	213	121	96
0.404709995	-0.396459997	-1.34570003	213	121	96
0.401030004	-0.386260003	-1.34570003	213	121	96
0.402859986	-0.380380005	-1.34549999	213	121	96
0.404680014	-0.379889995	-1.34379995	213	121	96
0.400299996	-0.381790012	-1.34510005	213	121	96
0.403600007	-0.392540008	-1.35739994	213	121	96
0.401340008	-0.396010011	-1.36399996	213	121	96
0.40169999	-0.397659987	-1.36450005	213	121	96
0.40169999	-0.393469989	-1.36570001	213	121	96
0.402069986	-0.392379999	-1.36699998	213	121	96
0.402429998	-0.39131999	-1.36829996	213	121	96
0.399830014	-0.389999986	-1.36860001	213	121	96
0.400189996	-0.38883999	-1.36989999	213	121	96
0.40279001	-0.387400001	-1.37039995	213	121	96
0.400559992	-0.386249989	-1.37160003	213	121	96
0.400189996	-0.384620011	-1.37109995	213	121	96
0.40169999	-0.38251999	-1.36889994	213	121	96
0.400979996	-0.380650014	-1.36740005	213	121	96
0.400620013	-0.379020005	-1.36689997	213	121	96
0.402839988	-0.377400011	-1.36650002	213	121	96
0.402480006	-0.37579	-1.36600006	213	121	96
0.401749998	-0.373930007	-1.36450005	213	121	96
0.401749998	-0.371259987	-1.36530006	213	121	96
0.401380002	-0.369630009	-1.36469996	213	121	96
0.401380002	-0.368239999	-1.36510003	213	121	96
0.401749998	-0.365859985	-1.36670005	213	121	96
0.403600007	-0.36401999	-1.36530006	213	121	96
0.401380002	-0.36285001	-1.36660004	213	121	96
0.401380002	-0.361470014	-1.36689997	213	121	96
0.401749998	-0.358999997	-1.36849999	213	121	96
0.404329985	-0.360359997	-1.36819994	213	121	96
0.403970003	-0.356090009	-1.36839998	213	121	96
0.402500004	-0.364670008	-1.36230004	213	121	96
0.402500004	-0.367280006	-1.36160004	213	121	96
0.401769996	-0.368189991	-1.35940003	213	121	96
0.402500004	-0.370059997	-1.36080003	213	121	96
0.403239995	-0.371870011	-1.36230004	213	121	96
0.400290012	-0.366189986	-1.3628	213	121	96
0.400249988	-0.367870003	-1.36899996	213	121	96
0.399890006	-0.370350003	-1.36740005	213	121	96
0.401340008	-0.36728999	-1.3721	213	121	96
0.403210014	-0.365440011	-1.3707	213	121	96
0.400979996	-0.375140011	-1.36899996	213	121	96
0.40169999	-0.374289989	-1.37109995	213	121	96
0.401340008	-0.37270999	-1.37059999	213	121	96
0.403210014	-0.373569995	-1.36849999	213	121	96
0.402069986	-0.377249986	-1.37129998	213	121	96
0.402429998	-0.378879994	-1.37179995	213	121	96
0.400559992	-0.377979994	-1.37390006	213	121	96
0.400920004	-0.379599988	-1.37440002	213	121	96
0.401279986	-0.38124001	-1.375	213	121	96
0.401639998	-0.382880002	-1.37549996	213	121	96
0.402729988	-0.385010004	-1.37779999	213	121	96
0.400480002	-0.386619985	-1.37820005	213	121	96
0.399760008	-0.387490004	-1.37600005	213	121	96
0.401639998	-0.388399988	-1.37390006	213	121	96
0.403210014	-0.381779999	-1.36619997	213	121	96
0.400620013	-0.383130014	-1.36580002	213	121	96
0.400979996	-0.384750009	-1.36629999	213	121	96
0.400920004	-0.39339	-1.37059999	213	121	96
0.400920004	-0.394739985	-1.37020004	213	121	96
0.403160006	-0.39587	-1.36889994	213	121	96
0.400559992	-0.397289991	-1.36849999	213	121	96
0.401639998	-0.399470001	-1.3707	213	121	96
0.40200001	-0.402359992	-1.37090003	213	121	96
0.402729988	-0.401560009	-1.37300003	213	121	96
0.40309	-0.404540002	-1.37310004	213	121	96
0.401199996	-0.405050009	-1.37489998	213	121	96
0.401560009	-0.403919995	-1.37619996	213	121	96
0.401919991	-0.402850002	-1.37750006	213	121	96
0.401199996	-0.40101999	-1.37600005	213	121	96
0.401560009	-0.399870008	-1.37740004	213	121	96
0.401560009	-0.398420006	-1.37779999	213	121	96
0.402729988	-0.397399992	-1.37419999	213	121	96
0.399760008	-0.395749986	-1.37370002	213	121	96
0.399760008	-0.394400001	-1.37409997	213	121	96
0.40200001	-0.392839998	-1.37360001	213	121	96
0.400480002	-0.392280012	-1.37660003	213	121	96
0.401199996	-0.391369998	-1.37880003	213	121	96
0.401919991	-0.390410006	-1.38100004	213	121	96
0.401560009	-0.394360006	-1.37890005	213	121	96
0.400020003	-0.396439999	-1.38119996	213	121	96
0.400370002	-0.398059994	-1.38170004	213	121	96
0.401089996	-0.401419997	-1.38269997	213	121	96
0.401089996	-0.402830005	-1.38230002	213	121	96
0.40180999	-0.40467	-1.38370001	213	121	96
0.401089996	-0.405479997	-1.38150001	213	121	96
0.401089996	-0.406879991	-1.38110006	213	121	96
0.400370002	-0.40775001	-1.37890005	213	121	96
0.399300009	-0.408360004	-1.37580001	213	121	96
0.401199996	-0.407849997	-1.37399995	213	121	96
0.401560009	-0.406709999	-1.37539995	213	121	96
0.401919991	-0.409759998	-1.37539995	213	121	96
0.404529989	-0.411089987	-1.37510002	213	121	96
0.401639998	-0.404870003	-1.36919999	213	121	96
0.400920004	-0.405750006	-1.36689997	213	121	96
0.400189996	-0.406590015	-1.36479998	213	121	96
0.400920004	-0.409750015	-1.36580002	213	121	96
0.403160006	-0.408170015	-1.36530006	213	121	96
0.403519988	-0.404359996	-1.36740005	213	121	96
0.403160006	-0.40000999	-1.36769998	213	121	96
0.40101999	-0.385820001	-1.35930002	213	121	96
0.40101999	-0.387230009	-1.35889995	213	121	96
0.403239995	-0.388280004	-1.35769999	213	121	96
0.401030004	-0.3741	-1.34920001	213	121	96
0.401749998	-0.370160013	-1.34549999	213	121	96
0.404309988	-0.371520013	-1.34519994	213	121	96
0.414669991	-0.400830001	-1.35039997	213	121	96
0.41505	-0.402449995	-1.35090005	213	121	96
0.41505	-0.403739989	-1.35049999	213	121	96
0.415800005	-0.405580014	-1.35189998	213	121	96
0.41358	-0.405840009	-1.3527	213	121	96
0.413210005	-0.40426001	-1.35220003	213	121	96
0.412840009	-0.402700007	-1.35169995	213	121	96
0.410620004	-0.402960002	-1.35259998	213	121	96
0.409880012	-0.403710008	-1.35039997	213	121	96
0.411359996	-0.406100005	-1.35360003	213	121	96
0.411729991	-0.407810003	-1.35399997	213	121	96
0.412110001	-0.409469992	-1.35450006	213	121	96
0.411729991	-0.410470009	-1.35319996	213	121	96
0.411729991	-0.411760002	-1.35280001	213	121	96
0.409509987	-0.412019998	-1.35370004	213	121	96
0.409880012	-0.411000013	-1.35500002	213	121	96
0.409509987	-0.409449995	-1.35450006	213	121	96
0.407660007	-0.411249995	-1.35580003	213	121	96
0.407660007	-0.412550002	-1.35539997	213	121	96
0.408030003	-0.414189994	-1.35590005	213	121	96
0.406170011	-0.414719999	-1.35759997	213	121	96
0.405800015	-0.413069993	-1.35710001	213	121	96
0.405429989	-0.411509991	-1.35669994	213	121	96
0.411359996	-0.41475001	-1.35769999	213	121	96
0.413590014	-0.414490014	-1.35689998	213	121	96
0.41396001	-0.416130006	-1.35730004	213	121	96
0.414709985	-0.418049991	-1.35870004	213	121	96
0.415080011	-0.41971001	-1.35909998	213	121	96
0.415080011	-0.421119988	-1.35870004	213	121	96
0.416940004	-0.419169992	-1.35739994	213	121	96
0.417309999	-0.418060005	-1.35870004	213	121	96
0.416570008	-0.41613999	-1.35739994	213	121	96
0.415450007	-0.413949996	-1.35510004	213	121	96
0.414700001	-0.412039995	-1.35380006	213	121	96
0.414330006	-0.410479993	-1.35329998	213	121	96
0.414330006	-0.409209996	-1.35360003	213	121	96
0.413949996	-0.407550007	-1.35319996	213	121	96
0.417299986	-0.412050009	-1.35380006	213	121	96
0.418040007	-0.41396001	-1.35510004	213	121	96
0.418009996	-0.408149987	-1.35020006	213	121	96
0.417259991	-0.400840014	-1.35039997	213	121	96
0.419470012	-0.400579989	-1.34959996	213	121	96
0.419090003	-0.402960002	-1.34790003	213	121	96
0.420540005	-0.398160011	-1.34640002	213	121	96
0.429830015	-0.400599986	-1.34959996	213	121	96
0.427619994	-0.400860012	-1.35049999	213	121	96
0.428389996	-0.402740002	-1.35189998	213	121	96
0.428770006	-0.404289991	-1.35239995	213	121	96
0.429529995	-0.40614	-1.35370004	213	121	96
0.429919988	-0.407849997	-1.35420001	213	121	96
0.429919988	-0.409240007	-1.35380006	213	121	96
0.428079993	-0.409779996	-1.35549998	213	121	96
0.427689999	-0.408120006	-1.35510004	213	121	96
0.42693001	-0.40614	-1.35370004	213	121	96
0.425790012	-0.404029995	-1.35150003	213	121	96
0.426169991	-0.402999997	-1.3527	213	121	96
0.428460002	-0.412609994	-1.3556	213	121	96
0.428840011	-0.414249986	-1.35609996	213	121	96
0.431059986	-0.413989991	-1.35520005	213	121	96
0.431450009	-0.412880003	-1.35650003	213	121	96
0.431829989	-0.411859989	-1.35780001	213	121	96
0.434060007	-0.41159001	-1.35689998	213	121	96
0.434060007	-0.412880003	-1.35650003	213	121	96
0.434060007	-0.41426	-1.35609996	213	121	96
0.434060007	-0.415630013	-1.35570002	213	121	96
0.431829989	-0.415899992	-1.35660005	213	121	96
0.4296	-0.416170001	-1.35739994	213	121	96
0.427370012	-0.41644001	-1.35829997	213	121	96
0.426609993	-0.414519995	-1.35699999	213	121	96
0.425850004	-0.412609994	-1.3556	213	121	96
0.429219991	-0.411859989	-1.35780001	213	121	96
0.425509989	-0.418350011	-1.35969996	213	121	96
0.424760014	-0.41918999	-1.35749996	213	121	96
0.422529995	-0.419459999	-1.35829997	213	121	96
0.422899991	-0.418350011	-1.35959995	213	121	96
0.42851001	-0.418630004	-1.36059999	213	121	96
0.42888999	-0.420289993	-1.36099994	213	121	96
0.431120008	-0.420020014	-1.36010003	213	121	96
0.431120008	-0.418630004	-1.36059999	213	121	96
0.43336001	-0.418359995	-1.35969996	213	121	96
0.43373999	-0.420020014	-1.36010003	213	121	96
0.436360002	-0.42001	-1.36010003	213	121	96
0.437130004	-0.419169992	-1.36230004	213	121	96
0.43976	-0.417789996	-1.36269999	213	121	96
0.440140009	-0.419440001	-1.36319995	213	121	96
0.440910012	-0.42137	-1.36450005	213	121	96
0.438279986	-0.422789991	-1.36409998	213	121	96
0.436419994	-0.424760014	-1.36539996	213	121	96
0.437189996	-0.42671001	-1.36679995	213	121	96
0.439440012	-0.426429987	-1.36590004	213	121	96
0.439440012	-0.425029993	-1.36629999	213	121	96
0.437949985	-0.428640008	-1.36810005	213	121	96
0.437949985	-0.429839998	-1.36769998	213	121	96
0.437949985	-0.431320012	-1.36720002	213	121	96
0.435699999	-0.431600004	-1.36810005	213	121	96
0.436459988	-0.433539987	-1.36950004	213	121	96
0.437220007	-0.435330003	-1.37080002	213	121	96
0.437599987	-0.437050015	-1.37129998	213	121	96
0.440629989	-0.437330008	-1.3721	213	121	96
0.440629989	-0.434659988	-1.37300003	213	121	96
0.442900002	-0.431499988	-1.37300003	213	121	96
0.442129999	-0.429740012	-1.37160003	213	121	96
0.434579998	-0.436769992	-1.37039995	213	121	96
0.432319999	-0.437050015	-1.37129998	213	121	96
0.433070004	-0.438930005	-1.37259996	213	121	96
0.430429995	-0.438930005	-1.37259996	213	121	96
0.43118	-0.440730006	-1.37399995	213	121	96
0.43118	-0.442110002	-1.37349999	213	121	96
0.43156001	-0.443969995	-1.37390006	213	121	96
0.429280013	-0.444249988	-1.37479997	213	121	96
0.428530008	-0.442110002	-1.37349999	213	121	96
0.428530008	-0.440730006	-1.37399995	213	121	96
0.427780002	-0.438930005	-1.37259996	213	121	96
0.427029997	-0.437050015	-1.37129998	213	121	96
0.426660001	-0.435330003	-1.37080002	213	121	96
0.42930001	-0.435330003	-1.37080002	213	121	96
0.429670006	-0.437050015	-1.37129998	213	121	96
0.43156001	-0.435050011	-1.37	213	121	96
0.430799991	-0.433270007	-1.36860001	213	121	96
0.43305999	-0.431600004	-1.36810005	213	121	96
0.433820009	-0.43355	-1.36950004	213	121	96
0.433820009	-0.434769988	-1.36909997	213	121	96
0.434929997	-0.429569989	-1.36679995	213	121	96
0.434170008	-0.427810013	-1.36549997	213	121	96
0.433789998	-0.426160008	-1.36500001	213	121	96
0.433789998	-0.424760014	-1.36539996	213	121	96
0.431160003	-0.426160008	-1.36500001	213	121	96
0.431919992	-0.428090006	-1.36629999	213	121	96
0.431919992	-0.429289997	-1.36600006	213	121	96
0.429289997	-0.429289997	-1.36600006	213	121	96
0.429289997	-0.428090006	-1.36629999	213	121	96
0.428539991	-0.426160008	-1.36500001	213	121	96
0.428909987	-0.425029993	-1.36629999	213	121	96
0.426290005	-0.426429987	-1.36590004	213	121	96
0.426290005	-0.427810013	-1.36539996	213	121	96
0.427040011	-0.429569989	-1.36679995	213	121	96
0.426660001	-0.430759996	-1.36549997	213	121	96
0.42403999	-0.430759996	-1.36549997	213	121	96
0.42403999	-0.429280013	-1.36590004	213	121	96
0.42366001	-0.4278	-1.36539996	213	121	96
0.422910005	-0.425870001	-1.36409998	213	121	96
0.42554	-0.424479991	-1.36450005	213	121	96
0.427780002	-0.422789991	-1.36409998	213	121	96
0.430400014	-0.422800004	-1.36409998	213	121	96
0.430400014	-0.424210012	-1.36370003	213	121	96
0.43265	-0.422520012	-1.36319995	213	121	96
0.434890002	-0.422250003	-1.36230004	213	121	96
0.421790004	-0.423649997	-1.36189997	213	121	96
0.421420008	-0.421959996	-1.36140001	213	121	96
0.424030006	-0.42197001	-1.36140001	213	121	96
0.419180006	-0.423640013	-1.36179996	213	121	96
0.419550002	-0.425309986	-1.36230004	213	121	96
0.417309999	-0.425579995	-1.36310005	213	121	96
0.414689988	-0.425570011	-1.36310005	213	121	96
0.421790004	-0.428350002	-1.36720002	213	121	96
0.421790004	-0.429549992	-1.36679995	213	121	96
0.421409994	-0.430750012	-1.36539996	213	121	96
0.419530004	-0.431300014	-1.36720002	213	121	96
0.419160008	-0.429549992	-1.36679995	213	121	96
0.419160008	-0.428350002	-1.3671	213	121	96
0.416909993	-0.429820001	-1.36759996	213	121	96
0.416909993	-0.431300014	-1.36720002	213	121	96
0.416539997	-0.432399988	-1.36580002	213	121	96
0.414649993	-0.43156001	-1.36800003	213	121	96
0.415390015	-0.433510005	-1.36940002	213	121	96
0.416130006	-0.435299993	-1.3707	213	121	96
0.418390006	-0.435030013	-1.36989999	213	121	96
0.418760002	-0.436749995	-1.37030005	213	121	96
0.421020001	-0.436470002	-1.36940002	213	121	96
0.421389997	-0.43531999	-1.37080002	213	121	96
0.423649997	-0.435039997	-1.36989999	213	121	96
0.424019992	-0.436760008	-1.37039995	213	121	96
0.422129989	-0.438639998	-1.37170005	213	121	96
0.422129989	-0.43987	-1.37129998	213	121	96
0.421759993	-0.44095999	-1.37	213	121	96
0.419499993	-0.441240013	-1.37080002	213	121	96
0.419499993	-0.439859986	-1.37129998	213	121	96
0.419869989	-0.438910007	-1.37249994	213	121	96
0.416860014	-0.438620001	-1.37160003	213	121	96
0.416860014	-0.439850003	-1.37119997	213	121	96
0.416860014	-0.441229999	-1.37080002	213	121	96
0.414229989	-0.439839989	-1.37119997	213	121	96
0.413859993	-0.438329995	-1.3707	213	121	96
0.413500011	-0.436729997	-1.37020004	213	121	96
0.413500011	-0.435290009	-1.3707	213	121	96
0.415390015	-0.436170012	-1.36849999	213	121	96
0.412400007	-0.433219999	-1.36839998	213	121	96
0.412030011	-0.431549996	-1.36800003	213	121	96
0.40941	-0.431540012	-1.36790001	213	121	96
0.410140008	-0.433479995	-1.36930001	213	121	96
0.409770012	-0.434430003	-1.36800003	213	121	96
0.410140008	-0.436150014	-1.36839998	213	121	96
0.41049999	-0.437750012	-1.36889994	213	121	96
0.411229998	-0.439550012	-1.37030005	213	121	96
0.413859993	-0.440930009	-1.36989999	213	121	96
0.413919985	-0.429529995	-1.36670005	213	121	96
0.413549989	-0.428050011	-1.36619997	213	121	96
0.416170001	-0.428059995	-1.36619997	213	121	96
0.410560012	-0.427760005	-1.36530006	213	121	96
0.410560012	-0.428959996	-1.36489999	213	121	96
0.424400002	-0.440970004	-1.37	213	121	96
0.425520003	-0.440439999	-1.37310004	213	121	96
0.425520003	-0.439209998	-1.37349999	213	121	96
0.426259995	-0.443960011	-1.37390006	213	121	96
0.42662999	-0.445520014	-1.37440002	213	121	96
0.423990011	-0.44551	-1.3743	213	121	96
0.423619986	-0.443960011	-1.37390006	213	121	96
0.421710014	-0.444519997	-1.37559998	213	121	96
0.421710014	-0.445789993	-1.37520003	213	121	96
0.42208001	-0.447459996	-1.37559998	213	121	96
0.422820002	-0.449550003	-1.37689996	213	121	96
0.423559994	-0.451380014	-1.37829995	213	121	96
0.423929989	-0.453070015	-1.37870002	213	121	96
0.424670011	-0.455159992	-1.38	213	121	96
0.42238	-0.455449998	-1.38080001	213	121	96
0.42238	-0.456690013	-1.38039994	213	121	96
0.422749996	-0.458339989	-1.38080001	213	121	96
0.42008999	-0.458330005	-1.38080001	213	121	96
0.419360012	-0.456389993	-1.37950003	213	121	96
0.418630004	-0.454560012	-1.37820005	213	121	96
0.418630004	-0.453049988	-1.37870002	213	121	96
0.418260008	-0.451370001	-1.37820005	213	121	96
0.418260008	-0.450109988	-1.3786	213	121	96
0.415980011	-0.450390011	-1.37950003	213	121	96
0.415980011	-0.451649994	-1.37909997	213	121	96
0.415980011	-0.453040004	-1.3786	213	121	96
0.413690001	-0.454829991	-1.37899995	213	121	96
0.411769986	-0.456640005	-1.38030005	213	121	96
0.408760011	-0.456339985	-1.37940001	213	121	96
0.408039987	-0.454510003	-1.37800002	213	121	96
0.407319993	-0.452419996	-1.37670004	213	121	96
0.40959999	-0.452140003	-1.37590003	213	121	96
0.408870012	-0.45017001	-1.37460005	213	121	96
0.406599998	-0.45043999	-1.37539995	213	121	96
0.407319993	-0.449770004	-1.37759995	213	121	96
0.409960002	-0.449790001	-1.37759995	213	121	96
0.409229994	-0.44769001	-1.37639999	213	121	96
0.411509991	-0.447409987	-1.37549996	213	121	96
0.413789988	-0.447140008	-1.37469995	213	121	96
0.416429996	-0.447149992	-1.37469995	213	121	96
0.416060001	-0.445490003	-1.3743	213	121	96
0.415699989	-0.44393	-1.37380004	213	121	96
0.419070005	-0.447160006	-1.37469995	213	121	96
0.419440001	-0.446069986	-1.37609994	213	121	96
0.419440001	-0.444799989	-1.37650001	213	121	96
0.412239999	-0.450760007	-1.37639999	213	121	96
0.412600011	-0.452450007	-1.37679994	213	121	96
0.410679996	-0.454530001	-1.37800002	213	121	96
0.413329989	-0.450379997	-1.37950003	213	121	96
0.404680014	-0.451009989	-1.37709999	213	121	96
0.406109989	-0.455080003	-1.37969995	213	121	96
0.406470001	-0.453860015	-1.38110006	213	121	96
0.404529989	-0.45442	-1.38279998	213	121	96
0.40417999	-0.455650002	-1.38139999	213	121	96
0.404890001	-0.45747	-1.38279998	213	121	96
0.405250013	-0.459129989	-1.38320005	213	121	96
0.407539994	-0.45886001	-1.38240004	213	121	96
0.407900006	-0.460660011	-1.38279998	213	121	96
0.408259988	-0.462199986	-1.38329995	213	121	96
0.408980012	-0.464170009	-1.38460004	213	121	96
0.406670004	-0.464450002	-1.38540006	213	121	96
0.406320006	-0.462769985	-1.38499999	213	121	96
0.405959994	-0.46123001	-1.38450003	213	121	96
0.403310001	-0.461210012	-1.38450003	213	121	96
0.402949989	-0.459410012	-1.38409996	213	121	96
0.40259999	-0.457749993	-1.3836	213	121	96
0.403310001	-0.45708999	-1.3858	213	121	96
0.402949989	-0.453880012	-1.38590002	213	121	96
0.40437001	-0.456440002	-1.38900006	213	121	96
0.402069986	-0.458249986	-1.38929999	213	121	96
0.401710004	-0.459199995	-1.38800001	213	121	96
0.402420014	-0.455599993	-1.39119995	213	121	96
0.401710004	-0.453759998	-1.38979995	213	121	96
0.403479993	-0.457890004	-1.39339995	213	121	96
0.401520014	-0.459980011	-1.39460003	213	121	96
0.401870012	-0.46153	-1.3951	213	121	96
0.403829992	-0.462339997	-1.39289999	213	121	96
0.401520014	-0.464130014	-1.39320004	213	121	96
0.401870012	-0.465680003	-1.3937	213	121	96
0.403479993	-0.464810014	-1.39110005	213	121	96
0.402770013	-0.462969989	-1.38970006	213	121	96
0.405440003	-0.464230001	-1.38940001	213	121	96
0.405079991	-0.465330005	-1.38800001	213	121	96
0.404729992	-0.466410011	-1.38670003	213	121	96
0.405079991	-0.468100011	-1.38709998	213	121	96
0.402770013	-0.468380004	-1.38789999	213	121	96
0.403829992	-0.467889994	-1.39100003	213	121	96
0.404190004	-0.470990002	-1.39100003	213	121	96
0.404540002	-0.472689986	-1.39139998	213	121	96
0.402570009	-0.473280013	-1.39310002	213	121	96
0.402220011	-0.471569985	-1.39269996	213	121	96
0.402570009	-0.470459998	-1.39400005	213	121	96
0.40327999	-0.469660014	-1.39629996	213	121	96
0.404329985	-0.469150007	-1.3994	213	121	96
0.401300013	-0.467440009	-1.39890003	213	121	96
0.400599986	-0.46559	-1.39760005	213	121	96
0.402929991	-0.463789999	-1.3973	213	121	96
0.400950015	-0.462980002	-1.3994	213	121	96
0.401650012	-0.462309986	-1.4016	213	121	96
0.401650012	-0.464949995	-1.40079999	213	121	96
0.403979987	-0.460500002	-1.40129995	213	121	96
0.404890001	-0.467390001	-1.39419997	213	121	96
0.401300013	-0.474460006	-1.39660001	213	121	96
0.402350008	-0.473949999	-1.39970005	213	121	96
0.403059989	-0.473129988	-1.40199995	213	121	96
0.403059989	-0.471729994	-1.40240002	213	121	96
0.403409988	-0.470620006	-1.40380001	213	121	96
0.40072	-0.469199985	-1.40419996	213	121	96
0.402700007	-0.47705999	-1.39960003	213	121	96
0.403059989	-0.478769988	-1.40009999	213	121	96
0.403409988	-0.481860012	-1.39999998	213	121	96
0.403759986	-0.48348999	-1.40040004	213	121	96
0.403759986	-0.484840006	-1.39989996	213	121	96
0.404110014	-0.486620009	-1.40030003	213	121	96
0.404110014	-0.488079995	-1.39979994	213	121	96
0.404110014	-0.489479989	-1.39929998	213	121	96
0.40643999	-0.489190012	-1.39849997	213	121	96
0.405739993	-0.487170011	-1.39719999	213	121	96
0.405739993	-0.485720009	-1.39769995	213	121	96
0.405389994	-0.483940005	-1.3973	213	121	96
0.405389994	-0.482600003	-1.39779997	213	121	96
0.40843001	-0.484270006	-1.39830005	213	121	96
0.409130007	-0.48635	-1.39950001	213	121	96
0.40843001	-0.487190008	-1.3973	213	121	96
0.411469996	-0.486059994	-1.3987	213	121	96
0.411119998	-0.48427999	-1.39830005	213	121	96
0.413089991	-0.483689994	-1.39660001	213	121	96
0.413810015	-0.485769987	-1.39789999	213	121	96
0.414519995	-0.487839997	-1.39909995	213	121	96
0.416860014	-0.487540007	-1.39830005	213	121	96
0.419550002	-0.487560004	-1.39830005	213	121	96
0.422250003	-0.487569988	-1.39830005	213	121	96
0.422980011	-0.486719996	-1.40059996	213	121	96
0.425680012	-0.486730009	-1.40059996	213	121	96
0.425680012	-0.488189995	-1.40009999	213	121	96
0.42802	-0.487890005	-1.39929998	213	121	96
0.42802	-0.486429989	-1.39979994	213	121	96
0.430350006	-0.484649986	-1.3994	213	121	96
0.43305999	-0.48466	-1.3994	213	121	96
0.433789998	-0.486739993	-1.40069997	213	121	96
0.431450009	-0.487040013	-1.40149999	213	121	96
0.431089997	-0.488200009	-1.40009999	213	121	96
0.431820005	-0.490209997	-1.40139997	213	121	96
0.43452999	-0.490209997	-1.40139997	213	121	96
0.436500013	-0.488200009	-1.40020001	213	121	96
0.436500013	-0.486739993	-1.40069997	213	121	96
0.436129987	-0.48495999	-1.40030003	213	121	96
0.438470006	-0.48466	-1.3994	213	121	96
0.440809995	-0.48300001	-1.39900005	213	121	96
0.440809995	-0.480289996	-1.39989996	213	121	96
0.442770004	-0.478280008	-1.39859998	213	121	96
0.442389995	-0.476579994	-1.39820004	213	121	96
0.441269994	-0.474290013	-1.39610004	213	121	96
0.443589985	-0.472579986	-1.39569998	213	121	96
0.443969995	-0.470059991	-1.39750004	213	121	96
0.441929996	-0.482580006	-1.40209997	213	121	96
0.437359989	-0.479689986	-1.39820004	213	121	96
0.436989993	-0.480769992	-1.39680004	213	121	96
0.433919996	-0.480470002	-1.39590001	213	121	96
0.433919996	-0.479079992	-1.39639997	213	121	96
0.431589991	-0.479380012	-1.3973	213	121	96
0.431950003	-0.481070012	-1.39769995	213	121	96
0.431219995	-0.481790006	-1.39549994	213	121	96
0.43355	-0.481489986	-1.39460003	213	121	96
0.435869992	-0.481189996	-1.3937	213	121	96
0.429250002	-0.481070012	-1.39769995	213	121	96
0.42888999	-0.479380012	-1.3973	213	121	96
0.427789986	-0.477079988	-1.3951	213	121	96
0.429749995	-0.476480007	-1.39339995	213	121	96
0.431699991	-0.475879997	-1.39160001	213	121	96
0.43096	-0.473890007	-1.39030004	213	121	96
0.431329995	-0.472799987	-1.39170003	213	121	96
0.43096	-0.471100003	-1.39129996	213	121	96
0.428640008	-0.472799987	-1.39170003	213	121	96
0.428270012	-0.473890007	-1.39030004	213	121	96
0.425960004	-0.474180013	-1.39119995	213	121	96
0.426319987	-0.473089993	-1.39260006	213	121	96
0.423999995	-0.474779993	-1.39289999	213	121	96
0.423269987	-0.472790003	-1.39170003	213	121	96
0.420590013	-0.472779989	-1.39160001	213	121	96
0.41791001	-0.472770005	-1.39160001	213	121	96
0.41791001	-0.474159986	-1.39110005	213	121	96
0.415230006	-0.474150002	-1.39110005	213	121	96
0.415230006	-0.472759992	-1.39160001	213	121	96
0.412559986	-0.474130005	-1.39110005	213	121	96
0.411839992	-0.472140014	-1.38979995	213	121	96
0.41148001	-0.47044	-1.38940001	213	121	96
0.413789988	-0.470149994	-1.38849998	213	121	96
0.413789988	-0.46875	-1.38900006	213	121	96
0.413069993	-0.46676001	-1.38769996	213	121	96
0.415740013	-0.466769993	-1.38769996	213	121	96
0.416099995	-0.468459994	-1.38810003	213	121	96
0.416469991	-0.470169991	-1.38849998	213	121	96
0.418779999	-0.469880015	-1.38769996	213	121	96
0.419499993	-0.469069988	-1.38989997	213	121	96
0.421449989	-0.467090011	-1.38870001	213	121	96
0.424120009	-0.467099994	-1.38870001	213	121	96
0.424860001	-0.469090015	-1.38999999	213	121	96
0.424860001	-0.470490009	-1.38950002	213	121	96
0.422179997	-0.470490009	-1.38950002	213	121	96
0.422540009	-0.469379991	-1.3908	213	121	96
0.427540004	-0.470499992	-1.38950002	213	121	96
0.427170008	-0.468789995	-1.38909996	213	121	96
0.429479986	-0.468499988	-1.38820004	213	121	96
0.428739995	-0.466520011	-1.38699996	213	121	96
0.428369999	-0.464830011	-1.3865	213	121	96
0.426059991	-0.466509998	-1.38689995	213	121	96
0.425330013	-0.464529991	-1.38559997	213	121	96
0.424589992	-0.462559998	-1.38429999	213	121	96
0.423860013	-0.460729986	-1.38300002	213	121	96
0.42651999	-0.460729986	-1.38300002	213	121	96
0.42651999	-0.461979985	-1.38259995	213	121	96
0.428820014	-0.46044001	-1.38209999	213	121	96
0.429560006	-0.462269992	-1.38349998	213	121	96
0.43147999	-0.460449994	-1.3822	213	121	96
0.430359989	-0.458059996	-1.38	213	121	96
0.430359989	-0.456699997	-1.38049996	213	121	96
0.430739999	-0.455749989	-1.38180006	213	121	96
0.429989994	-0.453649998	-1.38049996	213	121	96
0.429619998	-0.451970011	-1.38010001	213	121	96
0.429250002	-0.450419992	-1.37960005	213	121	96
0.431899995	-0.450430006	-1.37960005	213	121	96
0.43265	-0.452259988	-1.38100004	213	121	96
0.433030009	-0.453940004	-1.38139999	213	121	96
0.433780015	-0.456039995	-1.38259995	213	121	96
0.43265	-0.456409991	-1.37960005	213	121	96
0.43265	-0.45776999	-1.37909997	213	121	96
0.434560001	-0.453079998	-1.37870002	213	121	96
0.43494001	-0.451970011	-1.38010001	213	121	96
0.434190005	-0.450139999	-1.37870002	213	121	96
0.436470002	-0.449849993	-1.37779999	213	121	96
0.437229991	-0.451680005	-1.37919998	213	121	96
0.437229991	-0.453079998	-1.37870002	213	121	96
0.439889997	-0.453070015	-1.37870002	213	121	96
0.440649986	-0.451000005	-1.38129997	213	121	96
0.441410005	-0.452829987	-1.38269997	213	121	96
0.442939997	-0.449180007	-1.38100004	213	121	96
0.439509988	-0.448610008	-1.37919998	213	121	96
0.438749999	-0.446669996	-1.3779	213	121	96
0.43799001	-0.444819987	-1.37650001	213	121	96
0.435339987	-0.444819987	-1.37660003	213	121	96
0.436089993	-0.446669996	-1.3779	213	121	96
0.435719997	-0.447759986	-1.37660003	213	121	96
0.43344	-0.446669996	-1.3779	213	121	96
0.432680011	-0.447470009	-1.3757	213	121	96
0.430409998	-0.447759986	-1.37660003	213	121	96
0.430779994	-0.446669996	-1.3779	213	121	96
0.427749991	-0.447750002	-1.37660003	213	121	96
0.425850004	-0.449840009	-1.37779999	213	121	96
0.424730003	-0.447459996	-1.3757	213	121	96
0.436850011	-0.442400008	-1.37440002	213	121	96
0.436479986	-0.440730006	-1.37399995	213	121	96
0.436100006	-0.439209998	-1.37349999	213	121	96
0.434199989	-0.441020012	-1.37489998	213	121	96
0.433829993	-0.442110002	-1.37349999	213	121	96
0.440270007	-0.442959994	-1.37619996	213	121	96
0.440270007	-0.441579998	-1.37660003	213	121	96
0.439889997	-0.44005999	-1.37609994	213	121	96
0.43720001	-0.456620008	-1.38440001	213	121	96
0.437570006	-0.458160013	-1.38489997	213	121	96
0.43682	-0.458939999	-1.38269997	213	121	96
0.434899986	-0.461030006	-1.38390005	213	121	96
0.435649991	-0.462859988	-1.38530004	213	121	96
0.433349997	-0.463160008	-1.38610005	213	121	96
0.433719993	-0.464839995	-1.38660002	213	121	96
0.434089988	-0.466520011	-1.38699996	213	121	96
0.434469998	-0.468210012	-1.38740003	213	121	96
0.43520999	-0.470209986	-1.38870001	213	121	96
0.437519997	-0.469909996	-1.38779998	213	121	96
0.437900007	-0.468800008	-1.38909996	213	121	96
0.437150002	-0.466820002	-1.38779998	213	121	96
0.436769992	-0.465130001	-1.38740003	213	121	96
0.438699991	-0.464540005	-1.38569999	213	121	96
0.438329995	-0.462859988	-1.38530004	213	121	96
0.438329995	-0.461620003	-1.38569999	213	121	96
0.440250009	-0.459520012	-1.38440001	213	121	96
0.440629989	-0.458440006	-1.38569999	213	121	96
0.440250009	-0.456910014	-1.38530004	213	121	96
0.432529986	-0.470209986	-1.38870001	213	121	96
0.431789994	-0.468210012	-1.38740003	213	121	96
0.431419998	-0.466520011	-1.38699996	213	121	96
0.431419998	-0.465130001	-1.38740003	213	121	96
0.433640003	-0.472499996	-1.3908	213	121	96
0.436699986	-0.472799987	-1.39170003	213	121	96
0.434760004	-0.474790007	-1.39300001	213	121	96
0.434760004	-0.476179987	-1.39250004	213	121	96
