-0.0488880016	-0.327710003	-1.83739996	14	77	68
-0.0489719994	-0.328960001	-1.83410001	14	77	68
-0.0489999987	-0.330740005	-1.83280003	14	77	68
-0.0459970012	-0.328770012	-1.83309996	14	77	68
-0.0429949984	-0.328750014	-1.83299994	14	77	68
-0.0429640003	-0.330879986	-1.83360004	14	77	68
-0.0549079999	-0.326009989	-1.83790004	14	77	68
-0.0549319983	-0.327569991	-1.83659995	14	77	68
-0.0579399988	-0.32585001	-1.83700001	14	77	68
-0.057895001	-0.327930003	-1.83860004	14	77	68
-0.0609069988	-0.326209992	-1.83899999	14	77	68
-0.0609069988	-0.324420005	-1.83930004	14	77	68
-0.057895001	-0.324409992	-1.83920002	14	77	68
-0.0608649999	-0.328289986	-1.84060001	14	77	68
-0.0638799965	-0.328299999	-1.84070003	14	77	68
-0.0638609976	-0.32675001	-1.84200001	14	77	68
-0.0638419986	-0.325129986	-1.84329998	14	77	68
-0.0668610036	-0.325139999	-1.8434	14	77	68
-0.0668950006	-0.326579988	-1.84109998	14	77	68
-0.0669130012	-0.328139991	-1.8398	14	77	68
-0.0699269995	-0.326420009	-1.84010005	14	77	68
-0.0698949993	-0.324970007	-1.84239995	14	77	68
-0.0729129985	-0.324979991	-1.84249997	14	77	68
-0.0729409978	-0.326420009	-1.84019995	14	77	68
-0.0759420022	-0.326609999	-1.84119999	14	77	68
-0.0759669989	-0.324470013	-1.83949995	14	77	68
-0.0759420022	-0.323000014	-1.84179997	14	77	68
-0.0789479986	-0.32317999	-1.84290004	14	77	68
-0.0789680034	-0.32464999	-1.84060001	14	77	68
-0.0789680034	-0.326440006	-1.84019995	14	77	68
-0.0790000036	-0.327639997	-1.83700001	14	77	68
-0.0760030001	-0.327459991	-1.83599997	14	77	68
-0.0760030001	-0.329230011	-1.83570004	14	77	68
-0.072995998	-0.329219997	-1.83560002	14	77	68
-0.0729819983	-0.327630013	-1.8369	14	77	68
-0.0699739978	-0.32762	-1.8369	14	77	68
-0.0699890032	-0.329219997	-1.83560002	14	77	68
-0.0700210035	-0.330819994	-1.83319998	14	77	68
-0.0700519979	-0.332370013	-1.83089995	14	77	68
-0.0700680017	-0.333999991	-1.82959998	14	77	68
-0.0670699999	-0.333990008	-1.82959998	14	77	68
-0.0670519993	-0.332359999	-1.83089995	14	77	68
-0.0670000017	-0.330989987	-1.83420002	14	77	68
-0.0670000017	-0.329030007	-1.83449996	14	77	68
-0.0639569983	-0.329369992	-1.83640003	14	77	68
-0.0609689988	-0.329189986	-1.83539999	14	77	68
-0.0730940029	-0.333649993	-1.82770002	14	77	68
-0.0731220022	-0.335099995	-1.82539999	14	77	68
-0.0731500015	-0.336589992	-1.82309997	14	77	68
-0.0731500015	-0.338420004	-1.82280004	14	77	68
-0.0761490017	-0.338239998	-1.82179999	14	77	68
-0.0761490017	-0.336409986	-1.82210004	14	77	68
-0.0791459978	-0.336239994	-1.82120001	14	77	68
-0.0791459978	-0.338070005	-1.82089996	14	77	68
-0.0791769996	-0.33930999	-1.81760001	14	77	68
-0.0761979967	-0.33930999	-1.8175	14	77	68
-0.0762230009	-0.340730011	-1.81519997	14	77	68
-0.0762349963	-0.342339993	-1.81389999	14	77	68
-0.0792189986	-0.342159986	-1.81299996	14	77	68
-0.0792189986	-0.340369999	-1.81330001	14	77	68
-0.0821830034	-0.342350006	-1.81400001	14	77	68
-0.0821650028	-0.340930015	-1.81630003	14	77	68
-0.0851429999	-0.340930015	-1.81630003	14	77	68
-0.0851290002	-0.339509994	-1.81860006	14	77	68
-0.0881099999	-0.339509994	-1.81860006	14	77	68
-0.0881199986	-0.340930015	-1.81630003	14	77	68
-0.0911009982	-0.340750009	-1.8154	14	77	68
-0.0910909995	-0.339509994	-1.81860006	14	77	68
-0.0910940021	-0.337529987	-1.81799996	14	77	68
-0.0881249979	-0.337170005	-1.81599998	14	77	68
-0.0851500034	-0.337159991	-1.81599998	14	77	68
-0.0821740031	-0.337159991	-1.81599998	14	77	68
-0.0821390003	-0.33969	-1.81959999	14	77	68
-0.0821390003	-0.336059988	-1.82019997	14	77	68
-0.0851219967	-0.336059988	-1.82029998	14	77	68
-0.0880940035	-0.336430013	-1.82229996	14	77	68
-0.0910800025	-0.336430013	-1.82229996	14	77	68
-0.0940650031	-0.336620003	-1.8233	14	77	68
-0.0940599963	-0.335310012	-1.82650006	14	77	68
-0.0940560028	-0.333849996	-1.82879996	14	77	68
-0.0940560028	-0.332049996	-1.82920003	14	77	68
-0.0940560028	-0.330139995	-1.82949996	14	77	68
-0.0940539986	-0.328370005	-1.83089995	14	77	68
-0.0970529988	-0.328550011	-1.83179998	14	77	68
-0.0970529988	-0.330139995	-1.82949996	14	77	68
-0.0970529988	-0.332230002	-1.83019996	14	77	68
-0.0970529988	-0.334030002	-1.82980001	14	77	68
-0.0910490006	-0.328720003	-1.83280003	14	77	68
-0.0880469978	-0.330669999	-1.83249998	14	77	68
-0.0880369991	-0.329070002	-1.8348	14	77	68
-0.0850239992	-0.329250008	-1.83570004	14	77	68
-0.0850170031	-0.327650011	-1.83700001	14	77	68
-0.0850310028	-0.325569987	-1.83539999	14	77	68
-0.0880210027	-0.327829987	-1.83800006	14	77	68
-0.0880210027	-0.326099992	-1.83829999	14	77	68
-0.091035001	-0.327659994	-1.83710003	14	77	68
-0.0910250023	-0.32644999	-1.84029996	14	77	68
-0.0940369964	-0.326629996	-1.84130001	14	77	68
-0.0940409973	-0.328009993	-1.83899999	14	77	68
-0.0970529988	-0.328179985	-1.84000003	14	77	68
-0.0970529988	-0.326799989	-1.84230006	14	77	68
-0.0970529988	-0.324840009	-1.84159994	14	77	68
-0.10007	-0.325010002	-1.84259999	14	77	68
-0.103090003	-0.325010002	-1.84259999	14	77	68
-0.106109999	-0.325179994	-1.84360003	14	77	68
-0.103079997	-0.326279998	-1.83930004	14	77	68
-0.10007	-0.326279998	-1.83940005	14	77	68
-0.10007	-0.328179985	-1.84000003	14	77	68
-0.106090002	-0.326099992	-1.83829999	14	77	68
-0.106069997	-0.327300012	-1.83510005	14	77	68
-0.106069997	-0.329070002	-1.8348	14	77	68
-0.106069997	-0.331209987	-1.83539999	14	77	68
-0.109070003	-0.330850005	-1.83340001	14	77	68
-0.109070003	-0.329070002	-1.8348	14	77	68
-0.10909	-0.327650011	-1.83700001	14	77	68
-0.112099998	-0.327650011	-1.83700001	14	77	68
-0.112120003	-0.326270014	-1.83930004	14	77	68
-0.112120003	-0.32464999	-1.84060001	14	77	68
-0.11513	-0.324470013	-1.83959997	14	77	68
-0.115139998	-0.326440006	-1.84019995	14	77	68
-0.115120001	-0.327820003	-1.83800006	14	77	68
-0.11812	-0.327630013	-1.83700001	14	77	68
-0.11812	-0.325910002	-1.83729994	14	77	68
-0.121119998	-0.325899988	-1.83720005	14	77	68
-0.121119998	-0.327630013	-1.8369	14	77	68
-0.12111	-0.329219997	-1.83560002	14	77	68
-0.121080004	-0.330819994	-1.83329999	14	77	68
-0.124090001	-0.330819994	-1.83319998	14	77	68
-0.1241	-0.329039991	-1.83459997	14	77	68
-0.124119997	-0.327439994	-1.83589995	14	77	68
-0.124130003	-0.325890005	-1.83720005	14	77	68
-0.127110004	-0.327259988	-1.83490002	14	77	68
-0.127110004	-0.329030007	-1.83449996	14	77	68
-0.127069995	-0.330630004	-1.83220005	14	77	68
-0.130089998	-0.330799997	-1.83309996	14	77	68
-0.130089998	-0.328839988	-1.83350003	14	77	68
-0.133090004	-0.328830004	-1.83340001	14	77	68
-0.133139998	-0.327410012	-1.83570004	14	77	68
-0.130150005	-0.327600002	-1.83679998	14	77	68
-0.13019	-0.326220006	-1.83899999	14	77	68
-0.136120006	-0.328999996	-1.83440006	14	77	68
-0.136079997	-0.330599993	-1.83200002	14	77	68
-0.139080003	-0.33059001	-1.83200002	14	77	68
-0.1391	-0.328810006	-1.83329999	14	77	68
-0.139170006	-0.327569991	-1.83659995	14	77	68
-0.139219999	-0.326189995	-1.83879995	14	77	68
-0.142230004	-0.326180011	-1.83879995	14	77	68
-0.142230004	-0.327899992	-1.83850002	14	77	68
-0.142179996	-0.329329997	-1.8362	14	77	68
-0.145190001	-0.32754001	-1.83640003	14	77	68
-0.145129994	-0.328960001	-1.83410001	14	77	68
-0.148169994	-0.32912001	-1.83500004	14	77	68
-0.151140004	-0.328929991	-1.83399999	14	77	68
-0.154210001	-0.329259992	-1.83580005	14	77	68
-0.154149994	-0.330859989	-1.83350003	14	77	68
-0.154080003	-0.332419991	-1.8312	14	77	68
-0.154049993	-0.334039986	-1.82990003	14	77	68
-0.154009998	-0.335680008	-1.82860005	14	77	68
-0.156939998	-0.335299999	-1.82650006	14	77	68
-0.157049999	-0.334030002	-1.82980001	14	77	68
-0.157049999	-0.332219988	-1.83010006	14	77	68
-0.15715	-0.330850005	-1.83340001	14	77	68
-0.160119995	-0.330650002	-1.83229995	14	77	68
-0.163039997	-0.330269992	-1.83019996	14	77	68
-0.166040003	-0.330249995	-1.83010006	14	77	68
-0.165920004	-0.331620008	-1.82679999	14	77	68
-0.165879995	-0.333249986	-1.82550001	14	77	68
-0.165879995	-0.33506	-1.82519996	14	77	68
-0.162929997	-0.33344999	-1.82659996	14	77	68
-0.162929997	-0.331649989	-1.82690001	14	77	68
-0.159930006	-0.331669986	-1.82710004	14	77	68
-0.15997	-0.333649993	-1.82770002	14	77	68
-0.157250002	-0.32942	-1.83669996	14	77	68
-0.157250002	-0.327650011	-1.83700001	14	77	68
-0.157250002	-0.325919986	-1.83729994	14	77	68
-0.154249996	-0.325940013	-1.83739996	14	77	68
-0.154310003	-0.328020006	-1.8391	14	77	68
-0.151299998	-0.32802999	-1.83920002	14	77	68
-0.151299998	-0.326299995	-1.83949995	14	77	68
-0.151360005	-0.324860007	-1.84179997	14	77	68
-0.151429996	-0.323390007	-1.8441	14	77	68
-0.154440001	-0.32337001	-1.84399998	14	77	68
-0.154479995	-0.321610004	-1.84529996	14	77	68
-0.157460004	-0.321420014	-1.84420002	14	77	68
-0.157460004	-0.323359996	-1.84389997	14	77	68
-0.160449997	-0.323170006	-1.84280002	14	77	68
-0.160370007	-0.324640006	-1.8405	14	77	68
-0.157360002	-0.32464999	-1.84060001	14	77	68
-0.154310003	-0.324499995	-1.83969998	14	77	68
-0.163389996	-0.326409996	-1.84010005	14	77	68
-0.163350001	-0.327960014	-1.83879995	14	77	68
-0.163269997	-0.329380006	-1.83650005	14	77	68
-0.160300002	-0.329580009	-1.83759999	14	77	68
-0.160260007	-0.327630013	-1.8369	14	77	68
-0.160260007	-0.325899988	-1.83720005	14	77	68
-0.166199997	-0.32901001	-1.83440006	14	77	68
-0.169200003	-0.328990012	-1.83430004	14	77	68
-0.172250003	-0.329140007	-1.83510005	14	77	68
-0.172299996	-0.32754001	-1.83640003	14	77	68
-0.175300002	-0.327520013	-1.83630002	14	77	68
-0.175300002	-0.329290003	-1.83599997	14	77	68
-0.178409994	-0.329620004	-1.83780003	14	77	68
-0.17836	-0.327670008	-1.83720005	14	77	68
-0.17836	-0.325940013	-1.83749998	14	77	68
-0.181370005	-0.325919986	-1.83729994	14	77	68
-0.181419998	-0.327820003	-1.83800006	14	77	68
-0.181419998	-0.329600006	-1.83770001	14	77	68
-0.181319997	-0.331200004	-1.83539999	14	77	68
-0.184330001	-0.329219997	-1.83560002	14	77	68
-0.184169993	-0.330639988	-1.83229995	14	77	68
-0.187230006	-0.328839988	-1.83350003	14	77	68
-0.190229997	-0.328810006	-1.83329999	14	77	68
-0.190280005	-0.327210009	-1.83459997	14	77	68
-0.193289995	-0.327179998	-1.83440006	14	77	68
-0.193289995	-0.328949988	-1.83410001	14	77	68
-0.19641	-0.329279989	-1.83589995	14	77	68
-0.196239993	-0.326979995	-1.83329999	14	77	68
-0.196349993	-0.325599998	-1.83560002	14	77	68
-0.193399996	-0.325809985	-1.83669996	14	77	68
-0.190449998	-0.326009989	-1.83780003	14	77	68
-0.187439993	-0.327769995	-1.83770001	14	77	68
-0.199479997	-0.325919986	-1.83729994	14	77	68
-0.199420005	-0.327470005	-1.83609998	14	77	68
-0.202419996	-0.327439994	-1.83589995	14	77	68
-0.202419996	-0.331169993	-1.83519995	14	77	68
-0.205489993	-0.331310004	-1.83599997	14	77	68
-0.205679998	-0.329890013	-1.83930004	14	77	68
-0.205679998	-0.328110009	-1.83959997	14	77	68
-0.205809996	-0.326730013	-1.84189999	14	77	68
-0.205740005	-0.32475999	-1.84119999	14	77	68
-0.20882	-0.324900001	-1.84200001	14	77	68
-0.20882	-0.326700002	-1.84169996	14	77	68
-0.208690003	-0.328079998	-1.83940005	14	77	68
-0.208570004	-0.32949999	-1.83720005	14	77	68
-0.211510003	-0.329290003	-1.83599997	14	77	68
-0.211710006	-0.328040004	-1.83920002	14	77	68
-0.211840004	-0.326660007	-1.84150004	14	77	68
-0.211840004	-0.32486999	-1.84179997	14	77	68
-0.211970001	-0.323399991	-1.8441	14	77	68
-0.212040007	-0.321630001	-1.84539998	14	77	68
-0.212040007	-0.319640011	-1.84580004	14	77	68
-0.209079996	-0.321839988	-1.84660006	14	77	68
-0.209209993	-0.320179999	-1.84889996	14	77	68
-0.206249997	-0.320389986	-1.85010004	14	77	68
-0.206310004	-0.322549999	-1.85070002	14	77	68
-0.203339994	-0.322759986	-1.85189998	14	77	68
-0.203400001	-0.320930004	-1.85319996	14	77	68
-0.203339994	-0.318949997	-1.85259998	14	77	68
-0.203339994	-0.317180008	-1.85290003	14	77	68
-0.200369999	-0.317380011	-1.85399997	14	77	68
-0.197329998	-0.317409992	-1.85420001	14	77	68
-0.197390005	-0.315950006	-1.85549998	14	77	68
-0.194350004	-0.315979987	-1.8556	14	77	68
-0.194350004	-0.317609996	-1.85539997	14	77	68
-0.191369995	-0.317809999	-1.85650003	14	77	68
-0.191310003	-0.316009998	-1.85580003	14	77	68
-0.188280001	-0.316040009	-1.85599995	14	77	68
-0.188329995	-0.31784001	-1.85669994	14	77	68
-0.188280001	-0.319429994	-1.85539997	14	77	68
-0.185289994	-0.319629997	-1.85650003	14	77	68
-0.185289994	-0.317860007	-1.85679996	14	77	68
-0.18524	-0.316060007	-1.85609996	14	77	68
-0.1822	-0.316089988	-1.8563	14	77	68
-0.182150006	-0.317550004	-1.85500002	14	77	68
-0.182249993	-0.319649994	-1.85669994	14	77	68
-0.179159999	-0.319510013	-1.85580003	14	77	68
-0.179110005	-0.317570001	-1.85510004	14	77	68
-0.176080003	-0.317600012	-1.85529995	14	77	68
-0.176029995	-0.319189996	-1.85399997	14	77	68
-0.172999993	-0.319220006	-1.85409999	14	77	68
-0.173079997	-0.317790002	-1.85640001	14	77	68
-0.173130006	-0.316329986	-1.85769999	14	77	68
-0.176259995	-0.31663999	-1.85950005	14	77	68
-0.176259995	-0.314619988	-1.85979998	14	77	68
-0.176300004	-0.312920004	-1.86109996	14	77	68
-0.173260003	-0.312940001	-1.86129999	14	77	68
-0.173260003	-0.314810008	-1.86099994	14	77	68
-0.17013	-0.314500004	-1.85909998	14	77	68
-0.170210004	-0.316850007	-1.86080003	14	77	68
-0.16708	-0.316540003	-1.85889995	14	77	68
-0.167119995	-0.314689994	-1.86020005	14	77	68
-0.167199999	-0.313149989	-1.86249995	14	77	68
-0.170249999	-0.313129991	-1.86240005	14	77	68
-0.173339993	-0.311390013	-1.86360002	14	77	68
-0.173429996	-0.309760004	-1.86590004	14	77	68
-0.173519999	-0.308090001	-1.86819994	14	77	68
-0.173559994	-0.306580007	-1.86940002	14	77	68
-0.176620007	-0.30656001	-1.86930001	14	77	68
-0.176709995	-0.308560014	-1.87100005	14	77	68
-0.176579997	-0.310059994	-1.86769998	14	77	68
-0.176530004	-0.311859995	-1.8664	14	77	68
-0.179539993	-0.311670005	-1.86530006	14	77	68
-0.179629996	-0.310039997	-1.86759996	14	77	68
-0.179680005	-0.308209985	-1.86889994	14	77	68
-0.182789996	-0.308349997	-1.86969995	14	77	68
-0.182740003	-0.310180008	-1.86839998	14	77	68
-0.182740003	-0.312139988	-1.86810005	14	77	68
-0.185690001	-0.311789989	-1.86600006	14	77	68
-0.185790002	-0.310149997	-1.86829996	14	77	68
-0.185839996	-0.308319986	-1.86960006	14	77	68
-0.189009994	-0.308620006	-1.8714	14	77	68
-0.188899994	-0.310290009	-1.86909997	14	77	68
-0.192070007	-0.308600008	-1.87119997	14	77	68
-0.192070007	-0.306919992	-1.87150002	14	77	68
-0.195130005	-0.308569998	-1.87109995	14	77	68
-0.195240006	-0.307220012	-1.87329996	14	77	68
-0.198310003	-0.307190001	-1.87310004	14	77	68
-0.198190004	-0.308539987	-1.87090003	14	77	68
-0.198080003	-0.31020999	-1.86860001	14	77	68
-0.201140001	-0.310180008	-1.86839998	14	77	68
-0.201140001	-0.312139988	-1.86810005	14	77	68
-0.201020002	-0.313699991	-1.86580002	14	77	68
-0.204070002	-0.313670009	-1.86559999	14	77	68
-0.203889996	-0.315050006	-1.86230004	14	77	68
-0.206870005	-0.314850003	-1.86119998	14	77	68
-0.206939995	-0.313140005	-1.86249995	14	77	68
-0.209859997	-0.312779993	-1.86029994	14	77	68
-0.209729999	-0.314319998	-1.85800004	14	77	68
-0.209659994	-0.316159993	-1.85669994	14	77	68
-0.212699994	-0.316130012	-1.85650003	14	77	68
-0.212640002	-0.317589998	-1.85520005	14	77	68
-0.215599999	-0.317389995	-1.85409999	14	77	68
-0.215670004	-0.315930009	-1.85529995	14	77	68
-0.215810001	-0.314249992	-1.85759997	14	77	68
-0.215939999	-0.312709987	-1.8599	14	77	68
-0.212899998	-0.312750012	-1.86010003	14	77	68
-0.21277	-0.314280003	-1.85780001	14	77	68
-0.218989998	-0.312680006	-1.85969996	14	77	68
-0.218920007	-0.31437999	-1.85839999	14	77	68
-0.218850002	-0.316229999	-1.85710001	14	77	68
-0.218710005	-0.317519993	-1.85479999	14	77	68
-0.221670002	-0.317319989	-1.85360003	14	77	68
-0.221670002	-0.319079995	-1.85329998	14	77	68
-0.224629998	-0.318870008	-1.85210001	14	77	68
-0.224779993	-0.317449987	-1.85440004	14	77	68
-0.227740005	-0.31724	-1.85319996	14	77	68
-0.227589995	-0.318670005	-1.85090005	14	77	68
-0.227520004	-0.320309997	-1.84959996	14	77	68
-0.230619997	-0.320439994	-1.85039997	14	77	68
-0.230619997	-0.31863001	-1.85070002	14	77	68
-0.230849996	-0.317369998	-1.85399997	14	77	68
-0.233889997	-0.317330003	-1.85370004	14	77	68
-0.233809993	-0.31893	-1.85239995	14	77	68
-0.233809993	-0.320740014	-1.85210001	14	77	68
-0.236760005	-0.320529997	-1.85090005	14	77	68
-0.236919999	-0.319050014	-1.85319996	14	77	68
-0.237079993	-0.317629993	-1.85549998	14	77	68
-0.240119994	-0.317580014	-1.85520005	14	77	68
-0.240199998	-0.319519997	-1.85590005	14	77	68
-0.240280002	-0.316289991	-1.85749996	14	77	68
-0.240360007	-0.314440012	-1.85880005	14	77	68
-0.237320006	-0.314480007	-1.85899997	14	77	68
-0.237320006	-0.316500008	-1.85870004	14	77	68
-0.234200001	-0.31637001	-1.85790002	14	77	68
-0.234119996	-0.31419	-1.85730004	14	77	68
-0.231240004	-0.314559996	-1.85950005	14	77	68
-0.231240004	-0.316579998	-1.85909998	14	77	68
-0.228190005	-0.314599991	-1.85969996	14	77	68
-0.22834	-0.313059986	-1.86199999	14	77	68
-0.231389999	-0.313030005	-1.86179996	14	77	68
-0.231539994	-0.311470002	-1.86409998	14	77	68
-0.228640005	-0.311839998	-1.86629999	14	77	68
-0.22879	-0.310200006	-1.86849999	14	77	68
-0.228870004	-0.308369994	-1.86989999	14	77	68
-0.225810006	-0.308409989	-1.87010002	14	77	68
-0.225730002	-0.31024	-1.86880004	14	77	68
-0.222599998	-0.310110003	-1.86800003	14	77	68
-0.222460002	-0.311749995	-1.86570001	14	77	68
-0.225510001	-0.31171	-1.86549997	14	77	68
-0.22529	-0.31310001	-1.86220002	14	77	68
-0.225150004	-0.314639986	-1.8599	14	77	68
-0.22507	-0.316489995	-1.85860002	14	77	68
-0.227970004	-0.316119999	-1.85640001	14	77	68
-0.222029999	-0.314509988	-1.8592	14	77	68
-0.222029999	-0.312640011	-1.85950005	14	77	68
-0.221819997	-0.316020012	-1.85590005	14	77	68
-0.222819999	-0.308609992	-1.87129998	14	77	68
-0.222959995	-0.307260007	-1.87349999	14	77	68
-0.219830006	-0.307130009	-1.87279999	14	77	68
-0.219830006	-0.308809996	-1.87249994	14	77	68
-0.219760001	-0.310640007	-1.87119997	14	77	68
-0.216629997	-0.31051001	-1.87039995	14	77	68
-0.216759995	-0.308840007	-1.87269998	14	77	68
-0.216969997	-0.30765	-1.87590003	14	77	68
-0.216969997	-0.305640012	-1.87629998	14	77	68
-0.217030004	-0.303970009	-1.87750006	14	77	68
-0.217030004	-0.302320004	-1.87779999	14	77	68
-0.220170006	-0.304089993	-1.87829995	14	77	68
-0.220239997	-0.302599996	-1.87960005	14	77	68
-0.223320007	-0.304219991	-1.87909997	14	77	68
-0.223320007	-0.306050003	-1.87880003	14	77	68
-0.226390004	-0.306019992	-1.8786	14	77	68
-0.226390004	-0.304179996	-1.87890005	14	77	68
-0.229389995	-0.303990006	-1.87759995	14	77	68
-0.229389995	-0.305819988	-1.87740004	14	77	68
-0.232309997	-0.305460006	-1.87520003	14	77	68
-0.235459998	-0.30557999	-1.87590003	14	77	68
-0.238690004	-0.305860013	-1.87759995	14	77	68
-0.238849998	-0.304349989	-1.87989998	14	77	68
-0.239010006	-0.303009987	-1.88209999	14	77	68
-0.23917	-0.301279992	-1.88440001	14	77	68
-0.23917	-0.299389988	-1.88469994	14	77	68
-0.239329994	-0.298040003	-1.88699996	14	77	68
-0.236320004	-0.298229992	-1.88820004	14	77	68
-0.23624	-0.299739987	-1.88689995	14	77	68
-0.236080006	-0.301310003	-1.88469994	14	77	68
-0.232999995	-0.301349998	-1.88489997	14	77	68
-0.23285	-0.303090006	-1.88259995	14	77	68
-0.235850006	-0.302890003	-1.88139999	14	77	68
-0.235850006	-0.304549992	-1.88110006	14	77	68
-0.233309999	-0.300089985	-1.88909996	14	77	68
-0.233380005	-0.298579991	-1.89040005	14	77	68
-0.23037	-0.29877001	-1.89160001	14	77	68
-0.230289996	-0.300289989	-1.89040005	14	77	68
-0.230140001	-0.301860005	-1.88810003	14	77	68
-0.227050006	-0.300009996	-1.88859999	14	77	68
-0.223959997	-0.30004999	-1.88880002	14	77	68
-0.223890007	-0.298220009	-1.88810003	14	77	68
-0.220799997	-0.29824999	-1.88829994	14	77	68
-0.220799997	-0.299919993	-1.88810003	14	77	68
-0.217710003	-0.298290014	-1.88849998	14	77	68
-0.217580006	-0.29964	-1.88629997	14	77	68
-0.217439994	-0.301209986	-1.88399994	14	77	68
-0.214289993	-0.301090002	-1.88329995	14	77	68
-0.211280003	-0.301279992	-1.88440001	14	77	68
-0.211339995	-0.299549997	-1.88569999	14	77	68
-0.208320007	-0.299739987	-1.88689995	14	77	68
-0.208189994	-0.301310003	-1.88460004	14	77	68
-0.205109999	-0.301340014	-1.88479996	14	77	68
-0.205109999	-0.299459994	-1.88510001	14	77	68
-0.202150002	-0.299800009	-1.88730001	14	77	68
-0.199059993	-0.29982999	-1.88750005	14	77	68
-0.195969999	-0.301739991	-1.88730001	14	77	68
-0.192939997	-0.30193001	-1.88849998	14	77	68
-0.192880005	-0.299879998	-1.88779998	14	77	68
-0.189899996	-0.300220013	-1.88989997	14	77	68
-0.189950004	-0.298700005	-1.89119995	14	77	68
-0.189999998	-0.296829998	-1.89250004	14	77	68
-0.190060005	-0.295300007	-1.8937	14	77	68
-0.193149999	-0.295269996	-1.89359999	14	77	68
-0.193149999	-0.296959996	-1.89330006	14	77	68
-0.193149999	-0.298990011	-1.89300001	14	77	68
-0.196360007	-0.299279988	-1.89479995	14	77	68
-0.19619	-0.29677999	-1.89219999	14	77	68
-0.196250007	-0.295249999	-1.89339995	14	77	68
-0.196309999	-0.29350999	-1.89470005	14	77	68
-0.193149999	-0.293379992	-1.89390004	14	77	68
-0.199349999	-0.295219988	-1.89320004	14	77	68
-0.199290007	-0.296750009	-1.89199996	14	77	68
-0.199290007	-0.298779994	-1.89170003	14	77	68
-0.202380002	-0.298750013	-1.8915	14	77	68
-0.202439994	-0.296880007	-1.89279997	14	77	68
-0.20262	-0.295650005	-1.89600003	14	77	68
-0.205779999	-0.295780003	-1.89680004	14	77	68
-0.20566	-0.29716	-1.89460003	14	77	68
-0.208759993	-0.297129989	-1.8944	14	77	68
-0.208570004	-0.298689991	-1.89110005	14	77	68
-0.205420002	-0.298570007	-1.89030004	14	77	68
-0.211600006	-0.298509985	-1.88989997	14	77	68
-0.211659998	-0.296640009	-1.89119995	14	77	68
-0.214760005	-0.296609998	-1.89100003	14	77	68
-0.21469	-0.298480004	-1.88970006	14	77	68
-0.214560002	-0.29982999	-1.88750005	14	77	68
-0.21785	-0.296570003	-1.8908	14	77	68
-0.221080005	-0.296849996	-1.89260006	14	77	68
-0.224319994	-0.297120005	-1.8944	14	77	68
-0.224529997	-0.295899987	-1.89760005	14	77	68
-0.224610001	-0.294149995	-1.89890003	14	77	68
-0.224610001	-0.292239994	-1.89909995	14	77	68
-0.224680007	-0.290270001	-1.90050006	14	77	68
-0.227860004	-0.290390015	-1.90120006	14	77	68
-0.227860004	-0.292510003	-1.90090001	14	77	68
-0.227709994	-0.294120014	-1.89859998	14	77	68
-0.227640003	-0.295859993	-1.8973	14	77	68
-0.227569997	-0.297399998	-1.89610004	14	77	68
-0.230590001	-0.297210008	-1.89489996	14	77	68
-0.233610004	-0.297019988	-1.8937	14	77	68
-0.233689994	-0.295480013	-1.89489996	14	77	68
-0.233769998	-0.293740004	-1.89619994	14	77	68
-0.236870006	-0.29370001	-1.89600003	14	77	68
-0.236949995	-0.295749992	-1.89660001	14	77	68
-0.240050003	-0.295709997	-1.89639997	14	77	68
-0.239969999	-0.293669999	-1.89569998	14	77	68
-0.240130007	-0.292059988	-1.898	14	77	68
-0.24323	-0.292019993	-1.89769995	14	77	68
-0.24323	-0.293929994	-1.89740002	14	77	68
-0.24323	-0.295830011	-1.89709997	14	77	68
-0.24323	-0.297520012	-1.89690006	14	77	68
-0.246340007	-0.297479987	-1.89660001	14	77	68
-0.246340007	-0.295789987	-1.89690006	14	77	68
-0.246169999	-0.293590009	-1.89520001	14	77	68
-0.246419996	-0.292129993	-1.89849997	14	77	68
-0.249610007	-0.292239994	-1.89919996	14	77	68
-0.249520004	-0.294	-1.89789999	14	77	68
-0.249520004	-0.295899987	-1.89760005	14	77	68
-0.249520004	-0.297589988	-1.8973	14	77	68
-0.252539992	-0.297399998	-1.89610004	14	77	68
-0.252629995	-0.295859993	-1.8973	14	77	68
-0.252629995	-0.293960005	-1.89760005	14	77	68
-0.252629995	-0.292050004	-1.89789999	14	77	68
-0.255910009	-0.292309999	-1.89960003	14	77	68
-0.255820006	-0.294070005	-1.89839995	14	77	68
-0.258920014	-0.294030011	-1.89810002	14	77	68
-0.259110004	-0.29242	-1.90030003	14	77	68
-0.262309998	-0.29253	-1.90100002	14	77	68
-0.262210011	-0.294290006	-1.89979994	14	77	68
-0.26523	-0.294099987	-1.89849997	14	77	68
-0.265130013	-0.295839995	-1.89719999	14	77	68
-0.264849991	-0.297069997	-1.89400005	14	77	68
-0.268040001	-0.297179997	-1.89470005	14	77	68
-0.268040001	-0.295489997	-1.89499998	14	77	68
-0.271140009	-0.295439988	-1.89470005	14	77	68
-0.271140009	-0.297129989	-1.8944	14	77	68
-0.27414	-0.295240015	-1.89339995	14	77	68
-0.274040014	-0.296770006	-1.89209998	14	77	68
-0.273939997	-0.298649997	-1.8908	14	77	68
-0.277040005	-0.298599988	-1.89049995	14	77	68
-0.277139992	-0.296730012	-1.89180005	14	77	68
-0.277339995	-0.295349985	-1.89400005	14	77	68
-0.277640015	-0.293909997	-1.8973	14	77	68
-0.280750006	-0.293859988	-1.89699996	14	77	68
-0.280640006	-0.295599997	-1.89569998	14	77	68
-0.283740014	-0.295549989	-1.89540005	14	77	68
-0.283850014	-0.29381001	-1.89670002	14	77	68
-0.284060001	-0.292199999	-1.89890003	14	77	68
-0.287059993	-0.291999996	-1.89760005	14	77	68
-0.287160009	-0.294059992	-1.89830005	14	77	68
-0.281049997	-0.292400002	-1.90020001	14	77	68
-0.281260014	-0.290589988	-1.90250003	14	77	68
-0.284469992	-0.290690005	-1.90320003	14	77	68
-0.284680009	-0.289310008	-1.90540004	14	77	68
-0.281569988	-0.289359987	-1.90569997	14	77	68
-0.278450012	-0.289409995	-1.90600002	14	77	68
-0.275330007	-0.289460003	-1.90629995	14	77	68
-0.272020012	-0.289200008	-1.90470004	14	77	68
-0.268909991	-0.289249986	-1.90499997	14	77	68
-0.268620014	-0.290470004	-1.90180004	14	77	68
-0.268620014	-0.292589992	-1.90139997	14	77	68
-0.271730006	-0.292549998	-1.90110004	14	77	68
-0.271629989	-0.290280014	-1.90050006	14	77	68
-0.274839997	-0.290380001	-1.90120006	14	77	68
-0.274940014	-0.292650014	-1.90180004	14	77	68
-0.278149992	-0.292750001	-1.90250003	14	77	68
-0.278050005	-0.290479988	-1.90180004	14	77	68
-0.271530002	-0.294160008	-1.89890003	14	77	68
-0.268330008	-0.294050008	-1.89820004	14	77	68
-0.265320003	-0.292329997	-1.89979994	14	77	68
-0.265509993	-0.290520012	-1.90209997	14	77	68
-0.265509993	-0.288839996	-1.9023	14	77	68
-0.262490004	-0.289039999	-1.90359998	14	77	68
-0.262580007	-0.290859997	-1.90429997	14	77	68
-0.259469986	-0.290910006	-1.90460002	14	77	68
-0.259649992	-0.289530009	-1.90680003	14	77	68
-0.256440014	-0.289420009	-1.90610003	14	77	68
-0.256260008	-0.290800005	-1.90390003	14	77	68
-0.253149986	-0.289160013	-1.90439999	14	77	68
-0.252979994	-0.29054001	-1.90219998	14	77	68
-0.249779999	-0.290430009	-1.90149999	14	77	68
-0.249950007	-0.289059997	-1.90369999	14	77	68
-0.24684	-0.289090008	-1.90400004	14	77	68
-0.246669993	-0.290470004	-1.90170002	14	77	68
-0.243560001	-0.290509999	-1.90199995	14	77	68
-0.240449995	-0.290549994	-1.90219998	14	77	68
-0.237499997	-0.290890008	-1.90450001	14	77	68
-0.237580001	-0.289359987	-1.90569997	14	77	68
-0.240769997	-0.289469987	-1.90639997	14	77	68
-0.243890002	-0.289429992	-1.90620005	14	77	68
-0.234380007	-0.289249986	-1.90499997	14	77	68
-0.234229997	-0.290619999	-1.90269995	14	77	68
-0.234150007	-0.292589992	-1.90139997	14	77	68
-0.231040001	-0.292620003	-1.90170002	14	77	68
-0.231120005	-0.290659994	-1.903	14	77	68
-0.23127	-0.289279997	-1.9052	14	77	68
-0.228080004	-0.289169997	-1.90439999	14	77	68
-0.224959999	-0.289200008	-1.90470004	14	77	68
-0.221780002	-0.289079994	-1.90390003	14	77	68
-0.221640006	-0.290459991	-1.90170002	14	77	68
-0.22157	-0.29242	-1.90040004	14	77	68
-0.221430004	-0.294030011	-1.89810002	14	77	68
-0.221359998	-0.295780003	-1.89680004	14	77	68
-0.218119994	-0.29550001	-1.89499998	14	77	68
-0.215090007	-0.29569	-1.89619994	14	77	68
-0.212119997	-0.296030015	-1.89839995	14	77	68
-0.212249994	-0.294429988	-1.90069997	14	77	68
-0.212310001	-0.292670012	-1.90199995	14	77	68
-0.212310001	-0.290549994	-1.9023	14	77	68
-0.212310001	-0.288879991	-1.90250003	14	77	68
-0.209140003	-0.288760006	-1.90170002	14	77	68
-0.209319994	-0.290879995	-1.90450001	14	77	68
-0.209319994	-0.293000013	-1.90409994	14	77	68
-0.209140003	-0.294459999	-1.90090001	14	77	68
-0.209069997	-0.296209991	-1.89960003	14	77	68
-0.205899999	-0.29418999	-1.89909995	14	77	68
-0.202859998	-0.294369996	-1.90030003	14	77	68
-0.203040004	-0.29291001	-1.90349996	14	77	68
-0.203040004	-0.290789992	-1.90380001	14	77	68
-0.203150004	-0.289409995	-1.90610003	14	77	68
-0.200149998	-0.289739996	-1.90820003	14	77	68
-0.19698	-0.289620012	-1.90740001	14	77	68
-0.193910003	-0.289790004	-1.90859997	14	77	68
-0.193910003	-0.291469991	-1.90830004	14	77	68
-0.190789998	-0.289819986	-1.90869999	14	77	68
-0.190679997	-0.291200012	-1.90649998	14	77	68
-0.187619999	-0.291370004	-1.90769994	14	77	68
-0.187720001	-0.289990008	-1.90989995	14	77	68
-0.184550002	-0.289869994	-1.90900004	14	77	68
-0.181380004	-0.289739996	-1.90820003	14	77	68
-0.181419998	-0.291570008	-1.90890002	14	77	68
-0.178210005	-0.289609998	-1.90740001	14	77	68
-0.178159997	-0.29113999	-1.90610003	14	77	68
-0.17509	-0.289629996	-1.90750003	14	77	68
-0.184400007	-0.291090012	-1.90579998	14	77	68
-0.206210002	-0.290910006	-1.90460002	14	77	68
-0.206149995	-0.289090008	-1.90390003	14	77	68
-0.206090003	-0.292730004	-1.9023	14	77	68
-0.199860007	-0.292789996	-1.90269995	14	77	68
-0.199689999	-0.290219992	-1.90009999	14	77	68
-0.196700007	-0.29054001	-1.90219998	14	77	68
-0.196579993	-0.292360008	-1.89989996	14	77	68
-0.19359	-0.292690009	-1.90209997	14	77	68
-0.190469995	-0.292710006	-1.90219998	14	77	68
-0.187360004	-0.292739987	-1.90240002	14	77	68
-0.184200004	-0.29260999	-1.9016	14	77	68
-0.180999994	-0.292329997	-1.89970005	14	77	68
-0.177849993	-0.292199999	-1.89890003	14	77	68
-0.1778	-0.293960005	-1.89760005	14	77	68
-0.174700007	-0.293980002	-1.89769995	14	77	68
-0.171680003	-0.29429999	-1.89979994	14	77	68
-0.171680003	-0.292389989	-1.90009999	14	77	68
-0.171680003	-0.290270001	-1.90050006	14	77	68
-0.174869999	-0.290560007	-1.9023	14	77	68
-0.174869999	-0.292670012	-1.90199995	14	77	68
-0.168650001	-0.290600002	-1.90260005	14	77	68
-0.168730006	-0.289220005	-1.90480006	14	77	68
-0.171839997	-0.289200008	-1.90470004	14	77	68
-0.165580004	-0.289090008	-1.90390003	14	77	68
-0.165580004	-0.290769994	-1.90369999	14	77	68
-0.162459999	-0.290780008	-1.90380001	14	77	68
-0.162459999	-0.289110005	-1.90400004	14	77	68
-0.159390002	-0.289270014	-1.90509999	14	77	68
-0.159390002	-0.29095	-1.90489995	14	77	68
-0.159349993	-0.292919993	-1.90359998	14	77	68
-0.162389994	-0.292600006	-1.90149999	14	77	68
-0.165460005	-0.292430013	-1.90040004	14	77	68
-0.165419996	-0.29418999	-1.89909995	14	77	68
-0.168530002	-0.294169992	-1.89900005	14	77	68
-0.168569997	-0.292409986	-1.90030003	14	77	68
-0.162239999	-0.293900013	-1.89719999	14	77	68
-0.15918	-0.294070005	-1.89830005	14	77	68
-0.156069994	-0.294090003	-1.89839995	14	77	68
-0.156069994	-0.292180002	-1.8987	14	77	68
-0.156100005	-0.290210009	-1.90009999	14	77	68
-0.153029993	-0.290380001	-1.90110004	14	77	68
-0.153060004	-0.288850009	-1.90240002	14	77	68
-0.149920002	-0.288720012	-1.90149999	14	77	68
-0.149920002	-0.290390015	-1.90120006	14	77	68
-0.149949998	-0.292659998	-1.90190005	14	77	68
-0.153060004	-0.292650014	-1.90180004	14	77	68
-0.152999997	-0.294259995	-1.89950001	14	77	68
-0.149829999	-0.293969989	-1.89769995	14	77	68
-0.146870002	-0.294739991	-1.90269995	14	77	68
-0.14373	-0.292690009	-1.90209997	14	77	68
-0.143749997	-0.290719986	-1.90339994	14	77	68
-0.146899998	-0.290859997	-1.90429997	14	77	68
-0.146840006	-0.288879991	-1.90260005	14	77	68
-0.140670002	-0.289209992	-1.90470004	14	77	68
-0.140589997	-0.290430009	-1.90149999	14	77	68
-0.140619993	-0.292699993	-1.90209997	14	77	68
-0.137459993	-0.292409986	-1.90020001	14	77	68
-0.134350002	-0.29242	-1.90030003	14	77	68
-0.134369999	-0.290450007	-1.9016	14	77	68
-0.137529999	-0.290740013	-1.90349996	14	77	68
-0.131300002	-0.29076001	-1.90369999	14	77	68
-0.131249994	-0.292430013	-1.90040004	14	77	68
-0.12816	-0.292589992	-1.90139997	14	77	68
-0.12816	-0.290470004	-1.90170002	14	77	68
-0.125060007	-0.290630013	-1.90279996	14	77	68
-0.125060007	-0.292750001	-1.90250003	14	77	68
-0.125029996	-0.294360012	-1.90020001	14	77	68
-0.121909998	-0.294209987	-1.89919996	14	77	68
-0.121919997	-0.292450011	-1.90050006	14	77	68
-0.121940002	-0.290479988	-1.90180004	14	77	68
-0.121979997	-0.28926	-1.90509999	14	77	68
-0.11885	-0.289119989	-1.90409994	14	77	68
-0.115759999	-0.289420009	-1.90610003	14	77	68
-0.112630002	-0.289279997	-1.9052	14	77	68
-0.112630002	-0.29095	-1.90489995	14	77	68
-0.109509997	-0.290809989	-1.90390003	14	77	68
-0.109509997	-0.289130002	-1.90419996	14	77	68
-0.106399998	-0.289130002	-1.90419996	14	77	68
-0.106399998	-0.290809989	-1.90400004	14	77	68
-0.10328	-0.290809989	-1.90400004	14	77	68
-0.10328	-0.289139986	-1.90419996	14	77	68
-0.100170001	-0.289290011	-1.9052	14	77	68
-0.100170001	-0.291110009	-1.90600002	14	77	68
-0.100170001	-0.293089986	-1.90460002	14	77	68
-0.097055003	-0.292930007	-1.90369999	14	77	68
-0.097055003	-0.291110009	-1.90600002	14	77	68
-0.097055003	-0.289290011	-1.9052	14	77	68
-0.0939410031	-0.290809989	-1.90400004	14	77	68
-0.0908280015	-0.290809989	-1.90400004	14	77	68
-0.0877190009	-0.290659994	-1.903	14	77	68
-0.10328	-0.292629987	-1.90170002	14	77	68
-0.103260003	-0.294079989	-1.89839995	14	77	68
-0.106360003	-0.293929994	-1.89740002	14	77	68
-0.106370002	-0.292320013	-1.89970005	14	77	68
-0.10949	-0.292470008	-1.90069997	14	77	68
-0.112609997	-0.292620003	-1.9016	14	77	68
-0.11569	-0.292309999	-1.89960003	14	77	68
-0.115719996	-0.290499985	-1.90190005	14	77	68
-0.118799999	-0.290190011	-1.89989996	14	77	68
-0.118799999	-0.292299986	-1.89960003	14	77	68
-0.118780002	-0.293909997	-1.8973	14	77	68
-0.115659997	-0.293760002	-1.89639997	14	77	68
-0.112559997	-0.293769985	-1.89639997	14	77	68
-0.112539999	-0.295359999	-1.89409995	14	77	68
-0.112539999	-0.296889991	-1.89289999	14	77	68
-0.112520002	-0.298610002	-1.89059997	14	77	68
-0.115610003	-0.298599988	-1.89049995	14	77	68
-0.115630001	-0.296889991	-1.89279997	14	77	68
-0.115630001	-0.29519999	-1.89310002	14	77	68
-0.118720002	-0.295040011	-1.89209998	14	77	68
-0.118689999	-0.296420008	-1.88979995	14	77	68
-0.118689999	-0.298440009	-1.88950002	14	77	68
-0.121799998	-0.298590004	-1.89049995	14	77	68
-0.121770002	-0.299950004	-1.88820004	14	77	68
-0.12173	-0.301360011	-1.88499999	14	77	68
-0.121699996	-0.30309999	-1.88269997	14	77	68
-0.124789998	-0.303250015	-1.8836	14	77	68
-0.124810003	-0.301349998	-1.88489997	14	77	68
-0.118629999	-0.303259999	-1.88370001	14	77	68
-0.118639998	-0.301369995	-1.88499999	14	77	68
-0.118639998	-0.299479991	-1.88530004	14	77	68
-0.115549996	-0.299329996	-1.88429999	14	77	68
-0.115539998	-0.301059991	-1.88310003	14	77	68
-0.115560003	-0.303429991	-1.88469994	14	77	68
-0.11248	-0.30359	-1.88569999	14	77	68
-0.112470001	-0.30122	-1.88409996	14	77	68
-0.112470001	-0.29934001	-1.88440001	14	77	68
-0.109399997	-0.299650013	-1.88639998	14	77	68
-0.106320001	-0.299809992	-1.88740003	14	77	68
-0.10323	-0.299659997	-1.88639998	14	77	68
-0.103220001	-0.301230013	-1.88409996	14	77	68
-0.103220001	-0.303119987	-1.88279998	14	77	68
-0.103220001	-0.304780006	-1.88250005	14	77	68
-0.100129999	-0.304780006	-1.88259995	14	77	68
-0.100139998	-0.303279996	-1.88380003	14	77	68
-0.100139998	-0.301230013	-1.88409996	14	77	68
-0.100129999	-0.299190015	-1.88349998	14	77	68
-0.100139998	-0.297989994	-1.88670003	14	77	68
-0.0970539972	-0.299499989	-1.88540006	14	77	68
-0.0970539972	-0.301230013	-1.88409996	14	77	68
-0.0970539972	-0.303279996	-1.88380003	14	77	68
-0.0939700007	-0.299499989	-1.88540006	14	77	68
-0.0939690024	-0.297989994	-1.88670003	14	77	68
-0.0908830017	-0.297989994	-1.88670003	14	77	68
-0.0908759981	-0.299970001	-1.88839996	14	77	68
-0.0877870023	-0.299970001	-1.88839996	14	77	68
-0.0877920017	-0.298139989	-1.88759995	14	77	68
-0.0846979991	-0.299970001	-1.88839996	14	77	68
-0.0816000029	-0.300119996	-1.88929999	14	77	68
-0.0816169977	-0.301690012	-1.88699996	14	77	68
-0.0785399973	-0.301530004	-1.88600004	14	77	68
-0.0785610005	-0.303270012	-1.88370001	14	77	68
-0.0816520005	-0.303110003	-1.88279998	14	77	68
-0.0816690028	-0.304450005	-1.88049996	14	77	68
-0.0816690028	-0.306290001	-1.88020003	14	77	68
-0.0816870034	-0.307980001	-1.8779	14	77	68
-0.0786129981	-0.307969987	-1.8779	14	77	68
-0.0786129981	-0.30596	-1.87820005	14	77	68
-0.0786029994	-0.304289997	-1.87950003	14	77	68
-0.0755160004	-0.304439992	-1.88049996	14	77	68
-0.0724529997	-0.304269999	-1.87940001	14	77	68
-0.0724809989	-0.305790007	-1.87720001	14	77	68
-0.0725089982	-0.307469994	-1.87489998	14	77	68
-0.0725089982	-0.30915001	-1.87460005	14	77	68
-0.0725089982	-0.311150014	-1.87419999	14	77	68
-0.069472	-0.31081	-1.87220001	14	77	68
-0.0694560036	-0.308979988	-1.87349999	14	77	68
-0.0694409981	-0.307469994	-1.87479997	14	77	68
-0.0694089979	-0.305779994	-1.87709999	14	77	68
-0.0663380027	-0.30577001	-1.87709999	14	77	68
-0.0663380027	-0.303939998	-1.87740004	14	77	68
-0.063267	-0.305759996	-1.87699997	14	77	68
-0.0632280037	-0.304250002	-1.8793	14	77	68
-0.0631899983	-0.302920014	-1.88150001	14	77	68
-0.0601119995	-0.30291	-1.88150001	14	77	68
-0.0601539984	-0.304239988	-1.87919998	14	77	68
-0.0601960011	-0.305750012	-1.87689996	14	77	68
-0.0602370016	-0.307440013	-1.87460005	14	77	68
-0.0602790006	-0.308789998	-1.87240005	14	77	68
-0.0572150014	-0.308780015	-1.87230003	14	77	68
-0.0571699999	-0.307429999	-1.87460005	14	77	68
-0.0571249984	-0.305739999	-1.87689996	14	77	68
-0.0570789985	-0.304230005	-1.87919998	14	77	68
-0.0570570007	-0.302740008	-1.88039994	14	77	68
-0.0539559983	-0.302879989	-1.88129997	14	77	68
-0.0509039983	-0.302709997	-1.88030005	14	77	68
-0.0478009991	-0.302859992	-1.88119996	14	77	68
-0.0478559993	-0.30419001	-1.87890005	14	77	68
-0.0448120013	-0.304019988	-1.87779999	14	77	68
-0.0417089984	-0.304159999	-1.87870002	14	77	68
-0.0416139998	-0.30298999	-1.88199997	14	77	68
-0.0446930006	-0.303000003	-1.88209999	14	77	68
-0.0446930006	-0.306490004	-1.88150001	14	77	68
-0.0477729999	-0.306510001	-1.88160002	14	77	68
-0.0415830016	-0.306639999	-1.88240004	14	77	68
-0.0385689996	-0.306300014	-1.88030005	14	77	68
-0.0385349989	-0.304630011	-1.88160002	14	77	68
-0.0385349989	-0.302969992	-1.88189995	14	77	68
-0.035422001	-0.303110003	-1.88279998	14	77	68
-0.0354919992	-0.304450005	-1.88049996	14	77	68
-0.0354919992	-0.306279987	-1.88020003	14	77	68
-0.0324149989	-0.304430008	-1.88039994	14	77	68
-0.0323420018	-0.30309999	-1.88259995	14	77	68
-0.0322679989	-0.301360011	-1.88489997	14	77	68
-0.0321950018	-0.299789995	-1.8872	14	77	68
-0.0321220011	-0.298429996	-1.88950002	14	77	68
-0.0290309992	-0.298409998	-1.88929999	14	77	68
-0.0290309992	-0.300080001	-1.88909996	14	77	68
-0.0259409994	-0.300060004	-1.88900006	14	77	68
-0.0259009991	-0.29855001	-1.89020002	14	77	68
-0.0227669999	-0.300359994	-1.8908	14	77	68
-0.0227249991	-0.298839986	-1.89209998	14	77	68
-0.0197170004	-0.298509985	-1.88999999	14	77	68
-0.0197609998	-0.300020009	-1.88870001	14	77	68
-0.0198049992	-0.301750004	-1.88740003	14	77	68
-0.0167169999	-0.301730007	-1.88730001	14	77	68
-0.016671	-0.300000012	-1.88859999	14	77	68
-0.016671	-0.298330009	-1.88880002	14	77	68
-0.0136289997	-0.298150003	-1.88769996	14	77	68
-0.0135819996	-0.299980015	-1.88839996	14	77	68
-0.0136759998	-0.301550001	-1.88619995	14	77	68
-0.013723	-0.303449988	-1.88479996	14	77	68
-0.0105900001	-0.303579986	-1.88569999	14	77	68
-0.0105419997	-0.301690012	-1.88699996	14	77	68
-0.010493	-0.299959987	-1.88829994	14	77	68
-0.0105900001	-0.297980011	-1.88660002	14	77	68
-0.00745439995	-0.298110008	-1.88740003	14	77	68
-0.0075050001	-0.299620003	-1.88619995	14	77	68
-0.00745439995	-0.301660001	-1.88680005	14	77	68
-0.00436750008	-0.29975	-1.88699996	14	77	68
-0.00436750008	-0.298079997	-1.88730001	14	77	68
-0.00122680003	-0.298209995	-1.88810003	14	77	68
-0.00128089997	-0.299730003	-1.88680005	14	77	68
0.00186119997	-0.299860001	-1.88759995	14	77	68
0.00186119997	-0.298189998	-1.88789999	14	77	68
0.00500650005	-0.298310012	-1.88870001	14	77	68
0.0049490002	-0.29982999	-1.88750005	14	77	68
0.00803640019	-0.299800009	-1.88730001	14	77	68
0.00809570029	-0.298290014	-1.88849998	14	77	68
0.0081550004	-0.296420008	-1.88979995	14	77	68
0.0113070002	-0.296539992	-1.89059997	14	77	68
0.0113070002	-0.298570007	-1.89030004	14	77	68
0.0113070002	-0.30024001	-1.8901	14	77	68
0.0144610004	-0.300370008	-1.89090002	14	77	68
0.0143990004	-0.298539996	-1.8901	14	77	68
0.0143990004	-0.296510011	-1.89049995	14	77	68
0.0143990004	-0.294829994	-1.89069998	14	77	68
0.0175550003	-0.294950008	-1.8915	14	77	68
0.0175550003	-0.296640009	-1.89119995	14	77	68
0.0174899995	-0.298509985	-1.88989997	14	77	68
0.0174899995	-0.300179988	-1.88970006	14	77	68
0.0205150004	-0.299989998	-1.88849998	14	77	68
0.0205150004	-0.301880002	-1.88820004	14	77	68
0.0236050002	-0.301849991	-1.88800001	14	77	68
0.0235370006	-0.299800009	-1.88730001	14	77	68
0.0266239997	-0.299769998	-1.88709998	14	77	68
0.0297820009	-0.299890012	-1.88789999	14	77	68
0.0299249999	-0.298530012	-1.8901	14	77	68
0.0268329997	-0.298570007	-1.89030004	14	77	68
0.0268329997	-0.296539992	-1.89059997	14	77	68
0.0238090008	-0.298759997	-1.8915	14	77	68
0.0206480008	-0.298629999	-1.89069998	14	77	68
0.0206480008	-0.296609998	-1.89100003	14	77	68
0.0206480008	-0.294919997	-1.89129996	14	77	68
0.0240129996	-0.297190011	-1.89479995	14	77	68
0.023945	-0.295349985	-1.89409995	14	77	68
0.0241480004	-0.293909997	-1.8973	14	77	68
0.0242839996	-0.292309999	-1.89960003	14	77	68
0.0211779997	-0.29234001	-1.89979994	14	77	68
0.0210449994	-0.293949991	-1.89750004	14	77	68
0.0178130008	-0.293669999	-1.89579999	14	77	68
0.0147120003	-0.29370001	-1.89590001	14	77	68
0.0116729997	-0.293879986	-1.89709997	14	77	68
0.0117950002	-0.292279989	-1.8994	14	77	68
0.0149630001	-0.292400002	-1.90020001	14	77	68
0.0180060007	-0.292219996	-1.89900005	14	77	68
0.00874769967	-0.292459995	-1.90059996	14	77	68
0.00558179989	-0.292329997	-1.89979994	14	77	68
0.00558179989	-0.294250011	-1.89950001	14	77	68
0.00546680018	-0.295839995	-1.89719999	14	77	68
0.00535169989	-0.297219992	-1.89499998	14	77	68
0.00225170003	-0.297250003	-1.8951	14	77	68
0.00225170003	-0.295560002	-1.89540005	14	77	68
0.00225170003	-0.293660015	-1.89569998	14	77	68
0.00845129974	-0.29550001	-1.89499998	14	77	68
0.00856989995	-0.293909997	-1.8973	14	77	68
0.0114289997	-0.295159996	-1.89289999	14	77	68
0.00253070006	-0.292510003	-1.90090001	14	77	68
0.00258650002	-0.29054001	-1.90219998	14	77	68
0.00575440004	-0.290670007	-1.903	14	77	68
0.00892550033	-0.290789992	-1.90380001	14	77	68
-0.000470169995	-0.290719986	-1.90339994	14	77	68
-0.000578270003	-0.292540014	-1.90110004	14	77	68
-0.000686370011	-0.294149995	-1.89880002	14	77	68
-0.000686370011	-0.296039999	-1.89849997	14	77	68
-0.00379209989	-0.292259991	-1.89929998	14	77	68
-0.00394910015	-0.293709993	-1.89600003	14	77	68
-0.00400139997	-0.295450002	-1.89470005	14	77	68
-0.00710050017	-0.295480013	-1.89489996	14	77	68
-0.00725209992	-0.296700001	-1.89170003	14	77	68
-0.0103949998	-0.296570003	-1.8908	14	77	68
-0.0102970004	-0.295190006	-1.89310002	14	77	68
-0.013394	-0.295219988	-1.89320004	14	77	68
-0.0134880003	-0.296600014	-1.89100003	14	77	68
-0.0165350009	-0.296770006	-1.89209998	14	77	68
-0.0164449997	-0.29539001	-1.8944	14	77	68
-0.0163090006	-0.293960005	-1.89760005	14	77	68
-0.0162630007	-0.292199999	-1.89890003	14	77	68
-0.0193690006	-0.292219996	-1.89900005	14	77	68
-0.0193690006	-0.294129997	-1.8987	14	77	68
-0.0194559991	-0.295720011	-1.89649999	14	77	68
-0.0194119997	-0.29756999	-1.89719999	14	77	68
-0.0225579999	-0.297430009	-1.89629996	14	77	68
-0.0225579999	-0.295740008	-1.89660001	14	77	68
-0.0225579999	-0.293850005	-1.89690006	14	77	68
-0.0256200004	-0.294019997	-1.898	14	77	68
-0.0256200004	-0.292109996	-1.89830005	14	77	68
-0.028686	-0.292279989	-1.8994	14	77	68
-0.028686	-0.29418999	-1.89909995	14	77	68
-0.0287250001	-0.295940012	-1.89779997	14	77	68
-0.0318289995	-0.295949996	-1.89789999	14	77	68
-0.0317919999	-0.294209987	-1.89919996	14	77	68
-0.0317919999	-0.292299986	-1.89950001	14	77	68
-0.0317559987	-0.290329993	-1.90079999	14	77	68
-0.0286090001	-0.290459991	-1.90170002	14	77	68
-0.0254599992	-0.290600002	-1.90260005	14	77	68
-0.0253389999	-0.28937	-1.90579998	14	77	68
-0.0284940004	-0.289240003	-1.90489995	14	77	68
-0.0316459984	-0.289110005	-1.90400004	14	77	68
-0.034793999	-0.288969994	-1.90320003	14	77	68
-0.0347589999	-0.290800005	-1.90390003	14	77	68
-0.0347240008	-0.293069988	-1.90460002	14	77	68
-0.0378729999	-0.292939991	-1.90369999	14	77	68
-0.0378400013	-0.290969998	-1.90499997	14	77	68
-0.0379059985	-0.288989991	-1.90330005	14	77	68
-0.0409549996	-0.289310008	-1.90540004	14	77	68
-0.0409240015	-0.291130006	-1.90610003	14	77	68
-0.0409869999	-0.292950004	-1.90380001	14	77	68
-0.0441009998	-0.292970002	-1.90390003	14	77	68
-0.0440410003	-0.291150004	-1.90620005	14	77	68
-0.0440710001	-0.289319992	-1.90540004	14	77	68
-0.0471870005	-0.289330006	-1.90550005	14	77	68
-0.0471870005	-0.291009992	-1.90530002	14	77	68
-0.050303001	-0.289350003	-1.90559995	14	77	68
-0.0503549986	-0.290719986	-1.90339994	14	77	68
-0.0503549986	-0.292840004	-1.90310001	14	77	68
-0.0534919985	-0.292699993	-1.90219998	14	77	68
-0.0535169989	-0.290430009	-1.90149999	14	77	68
-0.0565810017	-0.290740013	-1.90349996	14	77	68
-0.0565580018	-0.29302001	-1.90419996	14	77	68
-0.0596730001	-0.290910006	-1.90460002	14	77	68
-0.0627679974	-0.291070014	-1.90559995	14	77	68
-0.0627679974	-0.289389998	-1.9059	14	77	68
-0.0658679977	-0.289550006	-1.90690005	14	77	68
-0.0659020022	-0.290919989	-1.90470004	14	77	68
-0.0690170005	-0.290930003	-1.90480006	14	77	68
-0.0689859986	-0.289550006	-1.90699995	14	77	68
-0.0721049979	-0.28955999	-1.90699995	14	77	68
-0.0752110034	-0.289719999	-1.90810001	14	77	68
-0.0783419982	-0.289570004	-1.90709996	14	77	68
-0.0814519972	-0.289730012	-1.90810001	14	77	68
-0.0845659971	-0.289880008	-1.90910006	14	77	68
-0.087687999	-0.289880008	-1.90919995	14	77	68
-0.0908140019	-0.289739996	-1.90820003	14	77	68
-0.0939339995	-0.289739996	-1.90820003	14	77	68
-0.0845870003	-0.291110009	-1.9059	14	77	68
-0.081487	-0.290800005	-1.90390003	14	77	68
-0.078373	-0.290800005	-1.90390003	14	77	68
-0.0752599984	-0.290789992	-1.90390003	14	77	68
-0.0752839968	-0.29260999	-1.9016	14	77	68
-0.0753090009	-0.294220001	-1.89929998	14	77	68
-0.0784260035	-0.294070005	-1.89830005	14	77	68
-0.0784149989	-0.292309999	-1.89960003	14	77	68
-0.0784460008	-0.295659989	-1.89610004	14	77	68
-0.0784569979	-0.297199994	-1.89479995	14	77	68
-0.0784669966	-0.299070001	-1.89349997	14	77	68
-0.0815650001	-0.299070001	-1.89349997	14	77	68
-0.0815479979	-0.297360003	-1.89579999	14	77	68
-0.0815389976	-0.295819998	-1.89709997	14	77	68
-0.0846420005	-0.293929994	-1.89740002	14	77	68
-0.084634997	-0.292169988	-1.8987	14	77	68
-0.0877399966	-0.292169988	-1.8987	14	77	68
-0.0908450037	-0.292169988	-1.8987	14	77	68
-0.0908519998	-0.293779999	-1.89639997	14	77	68
-0.0877560005	-0.29361999	-1.89540005	14	77	68
-0.0877450034	-0.295819998	-1.89709997	14	77	68
-0.0908420011	-0.296139985	-1.89909995	14	77	68
-0.0846280009	-0.296130002	-1.89909995	14	77	68
-0.0846280009	-0.297820002	-1.89880002	14	77	68
-0.0939569995	-0.293469995	-1.89450002	14	77	68
-0.0939550027	-0.295520008	-1.89520001	14	77	68
-0.097055003	-0.295520008	-1.89520001	14	77	68
-0.097055003	-0.297060013	-1.89390004	14	77	68
-0.100149997	-0.295210004	-1.89320004	14	77	68
-0.100149997	-0.29659	-1.89090002	14	77	68
-0.103239998	-0.296739995	-1.89189994	14	77	68
-0.103249997	-0.295359999	-1.89419997	14	77	68
-0.106339999	-0.295210004	-1.89320004	14	77	68
-0.106339999	-0.296739995	-1.89189994	14	77	68
-0.10633	-0.298610002	-1.89059997	14	77	68
-0.103239998	-0.298460007	-1.88960004	14	77	68
-0.10943	-0.29877001	-1.89160001	14	77	68
-0.109449998	-0.295509994	-1.8951	14	77	68
-0.109460004	-0.297360003	-1.89579999	14	77	68
-0.109470002	-0.293929994	-1.89740002	14	77	68
-0.100160003	-0.293779999	-1.89639997	14	77	68
-0.097055003	-0.293929994	-1.89740002	14	77	68
-0.0939600021	-0.296750009	-1.89189994	14	77	68
-0.0908590034	-0.297049999	-1.89390004	14	77	68
-0.0877709985	-0.296739995	-1.89189994	14	77	68
-0.0846699998	-0.298920006	-1.89260006	14	77	68
-0.0939479992	-0.292320013	-1.89970005	14	77	68
-0.0815479979	-0.291860014	-1.89670002	14	77	68
-0.0753939971	-0.298750013	-1.8915	14	77	68
-0.0753820017	-0.296880007	-1.89279997	14	77	68
-0.0722860023	-0.296869993	-1.89279997	14	77	68
-0.0722580031	-0.295489997	-1.89499998	14	77	68
-0.0691590011	-0.295489997	-1.89499998	14	77	68
-0.0691120028	-0.297639996	-1.89769995	14	77	68
