0.402179986	-0.189579993	-1.26520002	4	184	120
0.404570013	-0.190840006	-1.2651	4	184	120
0.403360009	-0.186560005	-1.26289999	4	184	120
0.404529989	-0.186169997	-1.26030004	4	184	120
0.402150005	-0.1875	-1.25999999	4	184	120
0.402550012	-0.188909993	-1.26069999	4	184	120
0.404130012	-0.189889997	-1.25880003	4	184	120
0.403320014	-0.188370004	-1.2572	4	184	120
0.403320014	-0.187099993	-1.25730002	4	184	120
0.401749998	-0.184650004	-1.25950003	4	184	120
0.401749998	-0.183369994	-1.25969994	4	184	120
0.403320014	-0.183109999	-1.2579	4	184	120
0.404879987	-0.182850003	-1.25619996	4	184	120
0.404879987	-0.181610003	-1.25629997	4	184	120
0.402509987	-0.179230005	-1.25660002	4	184	120
0.402509987	-0.177980006	-1.25680006	4	184	120
0.40406999	-0.177729994	-1.25510001	4	184	120
0.403250009	-0.178719997	-1.25310004	4	184	120
0.403250009	-0.179900005	-1.2529	4	184	120
0.404399991	-0.180700004	-1.25010002	4	184	120
0.404799998	-0.182070002	-1.25080001	4	184	120
0.402440012	-0.183339998	-1.25059998	4	184	120
0.402839988	-0.184839994	-1.25129998	4	184	120
0.402839988	-0.186169997	-1.25109994	4	184	120
0.402839988	-0.187429994	-1.25090003	4	184	120
0.40358001	-0.185629994	-1.24749994	4	184	120
0.40316999	-0.184180006	-1.24679995	4	184	120
0.40316999	-0.182809994	-1.24699998	4	184	120
0.404709995	-0.181290001	-1.24539995	4	184	120
0.404300004	-0.179930001	-1.24469995	4	184	120
0.403479993	-0.178479999	-1.24300003	4	184	120
0.403070003	-0.177180007	-1.24230003	4	184	120
0.405010015	-0.179409996	-1.24109995	4	184	120
0.403780013	-0.177839994	-1.23860002	4	184	120
0.402960002	-0.176420003	-1.23689997	4	184	120
0.403780013	-0.175449997	-1.23889995	4	184	120
0.403780013	-0.174180001	-1.23909998	4	184	120
0.402249992	-0.174419999	-1.24080002	4	184	120
0.402660012	-0.173299998	-1.24189997	4	184	120
0.403479993	-0.172309995	-1.24389994	4	184	120
0.402660012	-0.170770004	-1.24230003	4	184	120
0.403070003	-0.169589996	-1.24339998	4	184	120
0.403479993	-0.168489993	-1.24440002	4	184	120
0.40072	-0.167180002	-1.24360001	4	184	120
0.402249992	-0.165690005	-1.24199998	4	184	120
0.401840001	-0.166820005	-1.24100006	4	184	120
0.403780013	-0.167879999	-1.23989999	4	184	120
0.402960002	-0.165220007	-1.2385	4	184	120
0.402539998	-0.166339993	-1.23740005	4	184	120
0.402539998	-0.168730006	-1.23710001	4	184	120
0.402539998	-0.170029998	-1.23689997	4	184	120
0.404060006	-0.171059996	-1.23500001	4	184	120
0.401719987	-0.172289997	-1.23469996	4	184	120
0.403649986	-0.173419997	-1.23370004	4	184	120
0.403649986	-0.174679995	-1.2335	4	184	120
0.403239995	-0.175779998	-1.23249996	4	184	120
0.403649986	-0.177070007	-1.23319995	4	184	120
0.40516001	-0.176809996	-1.23140001	4	184	120
0.40557	-0.178120002	-1.23220003	4	184	120
0.40557	-0.179330006	-1.23199999	4	184	120
0.40516001	-0.180460006	-1.23090005	4	184	120
0.40474999	-0.181669995	-1.22979999	4	184	120
0.404329985	-0.182840005	-1.22870004	4	184	120
0.40625	-0.182710007	-1.22780001	4	184	120
0.40625	-0.183950007	-1.22759998	4	184	120
0.408589989	-0.183960006	-1.2277	4	184	120
0.408170015	-0.182579994	-1.227	4	184	120
0.408170015	-0.181280002	-1.22720003	4	184	120
0.408589989	-0.180069998	-1.22829998	4	184	120
0.407079995	-0.180329993	-1.23000002	4	184	120
0.406670004	-0.178939998	-1.22930002	4	184	120
0.40625	-0.177599996	-1.22860003	4	184	120
0.40775001	-0.177340001	-1.22679996	4	184	120
0.40775001	-0.178560004	-1.22660005	4	184	120
0.409660012	-0.177220002	-1.22590005	4	184	120
0.408829987	-0.178169996	-1.22399998	4	184	120
0.408829987	-0.179409996	-1.22379994	4	184	120
0.406910002	-0.175919995	-1.22520006	4	184	120
0.406910002	-0.174759999	-1.22529995	4	184	120
0.406910002	-0.173549995	-1.22549999	4	184	120
0.405420005	-0.173800007	-1.22730005	4	184	120
0.405000001	-0.174889997	-1.22619998	4	184	120
0.405000001	-0.176039994	-1.22609997	4	184	120
0.403919995	-0.175270006	-1.22889996	4	184	120
0.403919995	-0.174050003	-1.22909999	4	184	120
0.404329985	-0.172920004	-1.23010004	4	184	120
0.404329985	-0.171680003	-1.23029995	4	184	120
0.404329985	-0.170450002	-1.23049998	4	184	120
0.403919995	-0.169049993	-1.22979999	4	184	120
0.403499991	-0.167640001	-1.22899997	4	184	120
0.403499991	-0.166429996	-1.22920001	4	184	120
0.403919995	-0.165380001	-1.23029995	4	184	120
0.404329985	-0.16426	-1.2313	4	184	120
0.40516001	-0.163220003	-1.23329997	4	184	120
0.40474999	-0.161860004	-1.23259997	4	184	120
0.40474999	-0.160630003	-1.23269999	4	184	120
0.40474999	-0.159390002	-1.23290002	4	184	120
0.403239995	-0.159620002	-1.23459995	4	184	120
0.403239995	-0.160860002	-1.23450005	4	184	120
0.403239995	-0.162090003	-1.23430002	4	184	120
0.401309997	-0.160970002	-1.23539996	4	184	120
0.401309997	-0.158500001	-1.23570001	4	184	120
0.402819991	-0.157030001	-1.23409998	4	184	120
0.40200001	-0.158040002	-1.23210001	4	184	120
0.403499991	-0.157810003	-1.23029995	4	184	120
0.40309	-0.156460002	-1.22959995	4	184	120
0.405000001	-0.155100003	-1.22889996	4	184	120
0.40309	-0.15275	-1.23010004	4	184	120
0.405000001	-0.151449993	-1.22930002	4	184	120
0.403499991	-0.150480002	-1.23119998	4	184	120
0.402669996	-0.149020001	-1.22959995	4	184	120
0.403499991	-0.147980005	-1.23150003	4	184	120
0.402669996	-0.145370007	-1.23000002	4	184	120
0.401840001	-0.146339998	-1.22809994	4	184	120
0.403340012	-0.147330001	-1.22619998	4	184	120
0.402920008	-0.146019995	-1.22539997	4	184	120
0.402500004	-0.144730002	-1.22459996	4	184	120
0.403569996	-0.143189996	-1.22210002	4	184	120
0.401250005	-0.141939998	-1.22220004	4	184	120
0.401250005	-0.140689999	-1.22239995	4	184	120
0.402319998	-0.140389994	-1.21969998	4	184	120
0.402319998	-0.141629994	-1.21959996	4	184	120
0.402319998	-0.144099995	-1.21930003	4	184	120
0.402319998	-0.145270005	-1.2191	4	184	120
0.402319998	-0.147719994	-1.21879995	4	184	120
0.403149992	-0.149169996	-1.22049999	4	184	120
0.403569996	-0.151639998	-1.22109997	4	184	120
0.404410005	-0.150670007	-1.22300005	4	184	120
0.402920008	-0.152079999	-1.22469997	4	184	120
0.402500004	-0.153190002	-1.22360003	4	184	120
0.402500004	-0.155660003	-1.22329998	4	184	120
0.403569996	-0.154080003	-1.22080004	4	184	120
0.402740002	-0.152630001	-1.2191	4	184	120
0.404630005	-0.153750002	-1.21809995	4	184	120
0.403789997	-0.154750004	-1.21619999	4	184	120
0.404210001	-0.156090006	-1.21689999	4	184	120
0.405050009	-0.157539994	-1.21860003	4	184	120
0.405050009	-0.158759996	-1.2184	4	184	120
0.406529993	-0.15975	-1.21650004	4	184	120
0.407370001	-0.161210001	-1.21809995	4	184	120
0.406949997	-0.162359998	-1.21700001	4	184	120
0.408419997	-0.16212	-1.21529996	4	184	120
0.408419997	-0.163340002	-1.21510005	4	184	120
0.408419997	-0.164499998	-1.21490002	4	184	120
0.406949997	-0.164739996	-1.21669996	4	184	120
0.406100005	-0.163340002	-1.21510005	4	184	120
0.407570004	-0.160620004	-1.21360004	4	184	120
0.409460008	-0.160510004	-1.21280003	4	184	120
0.409460008	-0.159280002	-1.21290004	4	184	120
0.409889996	-0.158179998	-1.21399999	4	184	120
0.409460008	-0.156849995	-1.21319997	4	184	120
0.40715	-0.156849995	-1.21319997	4	184	120
0.40715	-0.158059999	-1.21309996	4	184	120
0.405259997	-0.158179998	-1.21389997	4	184	120
0.406100005	-0.157199994	-1.21589994	4	184	120
0.404839993	-0.154410005	-1.21350002	4	184	120
0.405259997	-0.153300002	-1.21459997	4	184	120
0.404419988	-0.15185	-1.21290004	4	184	120
0.405259997	-0.150859997	-1.21490002	4	184	120
0.406729996	-0.150639996	-1.21309996	4	184	120
0.406729996	-0.149460003	-1.21319997	4	184	120
0.406309992	-0.148190007	-1.21249998	4	184	120
0.405880004	-0.146860003	-1.21169996	4	184	120
0.40546	-0.145510003	-1.21099997	4	184	120
0.40733999	-0.145400003	-1.21010005	4	184	120
0.40733999	-0.146640003	-1.21000004	4	184	120
0.40733999	-0.147860005	-1.2098	4	184	120
0.409640014	-0.147860005	-1.2098	4	184	120
0.410070002	-0.14914	-1.21060002	4	184	120
0.41049999	-0.150429994	-1.21130002	4	184	120
0.41238001	-0.150319993	-1.2105	4	184	120
0.412800014	-0.149250001	-1.21150005	4	184	120
0.412800014	-0.152850002	-1.21099997	4	184	120
0.412800014	-0.154080003	-1.21089995	4	184	120
0.413230002	-0.155420005	-1.21159995	4	184	120
0.410919994	-0.155410007	-1.21159995	4	184	120
0.41049999	-0.154080003	-1.21089995	4	184	120
0.408190012	-0.154080003	-1.21089995	4	184	120
0.408190012	-0.155300006	-1.21070004	4	184	120
0.406309992	-0.155410007	-1.21159995	4	184	120
0.406309992	-0.154190004	-1.21169996	4	184	120
0.406309992	-0.152960002	-1.2119	4	184	120
0.40715	-0.151969999	-1.21379995	4	184	120
0.409460008	-0.151969999	-1.21389997	4	184	120
0.409040004	-0.150649995	-1.21309996	4	184	120
0.408190012	-0.149240002	-1.21150005	4	184	120
0.409640014	-0.151409999	-1.20940006	4	184	120
0.409640014	-0.152630001	-1.20920002	4	184	120
0.407759994	-0.152740002	-1.21010005	4	184	120
0.411520004	-0.151299998	-1.20850003	4	184	120
0.413830012	-0.151299998	-1.20850003	4	184	120
0.413399994	-0.149979994	-1.20780003	4	184	120
0.413399994	-0.148809999	-1.20790005	4	184	120
0.414840013	-0.147430003	-1.20630002	4	184	120
0.414409995	-0.146109998	-1.20550001	4	184	120
0.414409995	-0.144869998	-1.20570004	4	184	120
0.413980007	-0.143580005	-1.20490003	4	184	120
0.413549989	-0.142309994	-1.20420003	4	184	120
0.413120002	-0.141000003	-1.20340002	4	184	120
0.413549989	-0.139870003	-1.20449996	4	184	120
0.415850013	-0.139870003	-1.20449996	4	184	120
0.415419996	-0.141000003	-1.20340002	4	184	120
0.415850013	-0.142309994	-1.20420003	4	184	120
0.414119989	-0.138239995	-1.20099998	4	184	120
0.412259996	-0.138339996	-1.20190001	4	184	120
0.41139999	-0.136920005	-1.20029998	4	184	120
0.409539998	-0.137020007	-1.20109999	4	184	120
0.409539998	-0.138229996	-1.20099998	4	184	120
0.410400003	-0.139660001	-1.2026	4	184	120
0.410829991	-0.141000003	-1.20340002	4	184	120
0.408960015	-0.141100004	-1.20430005	4	184	120
0.409390002	-0.139970005	-1.20529997	4	184	120
0.407090008	-0.139970005	-1.20529997	4	184	120
0.407090008	-0.141210005	-1.20519996	4	184	120
0.404799998	-0.141200006	-1.20510006	4	184	120
0.404799998	-0.142409995	-1.20500004	4	184	120
0.402920008	-0.142509997	-1.20589995	4	184	120
0.403349996	-0.141409993	-1.2069	4	184	120
0.40377	-0.140279993	-1.20790005	4	184	120
0.403349996	-0.138950005	-1.20720005	4	184	120
0.40377	-0.137830004	-1.20819998	4	184	120
0.402920008	-0.136390001	-1.20659995	4	184	120
0.404799998	-0.135049999	-1.20580006	4	184	120
0.403950006	-0.136089996	-1.20389998	4	184	120
0.403950006	-0.137319997	-1.20379996	4	184	120
0.405809999	-0.137219995	-1.20290005	4	184	120
0.405809999	-0.135989994	-1.20299995	4	184	120
0.405389994	-0.134650007	-1.20229995	4	184	120
0.405809999	-0.133609995	-1.2033	4	184	120
0.407249987	-0.134560004	-1.20140004	4	184	120
0.407680005	-0.135890007	-1.20220006	4	184	120
0.407680005	-0.137119994	-1.20200002	4	184	120
0.408100009	-0.138439998	-1.20280004	4	184	120
0.406659991	-0.138640001	-1.20449996	4	184	120
0.404799998	-0.138740003	-1.20539999	4	184	120
0.405220002	-0.140070006	-1.2062	4	184	120
0.405640006	-0.143790007	-1.20659995	4	184	120
0.40377	-0.143889993	-1.20749998	4	184	120
0.402319998	-0.142930001	-1.20940006	4	184	120
0.402740002	-0.144209996	-1.21019995	4	184	120
0.40358001	-0.142039999	-1.21229994	4	184	120
0.40211001	-0.143460006	-1.21389997	4	184	120
0.402530015	-0.14474	-1.21469998	4	184	120
0.403369993	-0.146149993	-1.21630001	4	184	120
0.402530015	-0.147180006	-1.21440005	4	184	120
0.402530015	-0.148399994	-1.21420002	4	184	120
0.404419988	-0.148289993	-1.21329999	4	184	120
0.404000014	-0.146960005	-1.21259999	4	184	120
0.404000014	-0.145720005	-1.21270001	4	184	120
0.403789997	-0.142670006	-1.21759999	4	184	120
0.402949989	-0.139980003	-1.21609998	4	184	120
0.402530015	-0.141110003	-1.21510005	4	184	120
0.405259997	-0.138750002	-1.21630001	4	184	120
0.402949989	-0.137500003	-1.21640003	4	184	120
0.402530015	-0.136150002	-1.21560001	4	184	120
0.404839993	-0.135000005	-1.21580005	4	184	120
0.402949989	-0.132789999	-1.21689999	4	184	120
0.403789997	-0.130510002	-1.21899998	4	184	120
0.404630005	-0.131940007	-1.22070003	4	184	120
0.404210001	-0.134289995	-1.21949995	4	184	120
0.404630005	-0.135499999	-1.22029996	4	184	120
0.402740002	-0.136759996	-1.22099996	4	184	120
0.401899993	-0.137799993	-1.2191	4	184	120
0.40399	-0.134780005	-1.22399998	4	184	120
0.403569996	-0.133479998	-1.22319996	4	184	120
0.402090013	-0.133670002	-1.22500002	4	184	120
0.402920008	-0.135069996	-1.22669995	4	184	120
0.404819995	-0.136099994	-1.22570002	4	184	120
0.402500004	-0.138510004	-1.22539997	4	184	120
0.402500004	-0.139770001	-1.22520006	4	184	120
0.40399	-0.139559999	-1.22350001	4	184	120
0.405470014	-0.139359996	-1.22169995	4	184	120
0.401430011	-0.138820007	-1.22800004	4	184	120
0.404170007	-0.137659997	-1.22909999	4	184	120
0.404579997	-0.136600003	-1.23020005	4	184	120
0.403499991	-0.138060004	-1.23269999	4	184	120
0.403919995	-0.136989996	-1.23370004	4	184	120
0.402819991	-0.136160001	-1.23650002	4	184	120
0.402819991	-0.138459995	-1.23629999	4	184	120
0.403649986	-0.139939994	-1.23790002	4	184	120
0.404469997	-0.141409993	-1.23959994	4	184	120
0.402130008	-0.142660007	-1.23940003	4	184	120
0.402539998	-0.144020006	-1.24020004	4	184	120
0.402960002	-0.146640003	-1.24080002	4	184	120
0.402960002	-0.147839993	-1.24070001	4	184	120
0.402960002	-0.150330007	-1.24039996	4	184	120
0.401430011	-0.150539994	-1.2421	4	184	120
0.401840001	-0.148159996	-1.24329996	4	184	120
0.402249992	-0.147070006	-1.24440002	4	184	120
0.402660012	-0.144649997	-1.24559999	4	184	120
0.402660012	-0.143380001	-1.2457	4	184	120
0.405420005	-0.142230004	-1.24679995	4	184	120
0.403479993	-0.141049996	-1.24779999	4	184	120
0.405420005	-0.138490006	-1.24720001	4	184	120
0.404190004	-0.139369994	-1.24440002	4	184	120
0.404190004	-0.140650004	-1.24430001	4	184	120
0.404190004	-0.13583	-1.24479997	4	184	120
0.403369993	-0.133100003	-1.24319994	4	184	120
0.403369993	-0.131860003	-1.24339998	4	184	120
0.404469997	-0.130349994	-1.24080002	4	184	120
0.404469997	-0.129120007	-1.24100006	4	184	120
0.404890001	-0.126770005	-1.2421	4	184	120
0.404469997	-0.124169998	-1.24150002	4	184	120
0.405990005	-0.122769997	-1.23979998	4	184	120
0.403649986	-0.12156	-1.23989999	4	184	120
0.40516001	-0.118900001	-1.23839998	4	184	120
0.403919995	-0.11733	-1.23580003	4	184	120
0.40309	-0.119709998	-1.23370004	4	184	120
0.404170007	-0.118199997	-1.23109996	4	184	120
0.402920008	-0.11919	-1.22829998	4	184	120
0.402090013	-0.120229997	-1.22640002	4	184	120
0.404410005	-0.121430002	-1.2263	4	184	120
0.403569996	-0.12246	-1.22440004	4	184	120
0.402740002	-0.123520002	-1.22239995	4	184	120
0.404630005	-0.12466	-1.22140002	4	184	120
0.403149992	-0.126039997	-1.22309995	4	184	120
0.402740002	-0.127159998	-1.22210002	4	184	120
0.403569996	-0.128549993	-1.22370005	4	184	120
0.402740002	-0.129570007	-1.22179997	4	184	120
0.403789997	-0.128079996	-1.21930003	4	184	120
0.402530015	-0.128999993	-1.21640003	4	184	120
0.40211001	-0.126499996	-1.21580005	4	184	120
0.40169999	-0.125210002	-1.21500003	4	184	120
0.40358001	-0.125119999	-1.2141	4	184	120
0.404000014	-0.126409993	-1.21490002	4	184	120
0.40358001	-0.127519995	-1.21389997	4	184	120
0.40358001	-0.12872	-1.21379995	4	184	120
0.403160006	-0.129840001	-1.21270001	4	184	120
0.403160006	-0.131060004	-1.21259999	4	184	120
0.402740002	-0.132210001	-1.21159995	4	184	120
0.403160006	-0.133489996	-1.21229994	4	184	120
0.405039996	-0.134509996	-1.21130002	4	184	120
0.404190004	-0.135450006	-1.20940006	4	184	120
0.402740002	-0.135649994	-1.2112	4	184	120
0.402319998	-0.136790007	-1.21010005	4	184	120
0.403160006	-0.139459997	-1.21169996	4	184	120
0.40189001	-0.140379995	-1.20879996	4	184	120
0.405640006	-0.134110004	-1.20780003	4	184	120
0.402920008	-0.1329	-1.20700002	4	184	120
0.402920008	-0.131720006	-1.20710003	4	184	120
0.40377	-0.130679995	-1.20899999	4	184	120
0.403349996	-0.129360005	-1.20819998	4	184	120
0.402920008	-0.128049999	-1.20749998	4	184	120
0.40377	-0.127049997	-1.20940006	4	184	120
0.40377	-0.125850007	-1.20949996	4	184	120
0.40377	-0.12466	-1.20969999	4	184	120
0.405640006	-0.123379998	-1.20889997	4	184	120
0.404190004	-0.122340001	-1.21080005	4	184	120
0.405039996	-0.121299997	-1.21270001	4	184	120
0.40546	-0.120190002	-1.21370006	4	184	120
0.40358001	-0.121480003	-1.21449995	4	184	120
0.404000014	-0.1228	-1.21529996	4	184	120
0.404000014	-0.124009997	-1.21519995	4	184	120
0.405039996	-0.123740003	-1.21249998	4	184	120
0.403369993	-0.123159997	-1.21889997	4	184	120
0.403369993	-0.121919997	-1.21899998	4	184	120
0.405680001	-0.120719999	-1.2191	4	184	120
0.404630005	-0.120990001	-1.22179997	4	184	120
0.402319998	-0.119790003	-1.22189999	4	184	120
0.401899993	-0.117250003	-1.22119999	4	184	120
0.401899993	-0.115970001	-1.22140002	4	184	120
0.401899993	-0.114650004	-1.22150004	4	184	120
0.403369993	-0.114480004	-1.21969998	4	184	120
0.402530015	-0.115630001	-1.21780002	4	184	120
0.402949989	-0.11699	-1.21860003	4	184	120
0.402530015	-0.118139997	-1.21749997	4	184	120
0.40211001	-0.119269997	-1.21650004	4	184	120
0.404000014	-0.119180001	-1.21560001	4	184	120
0.404000014	-0.117969997	-1.21580005	4	184	120
0.404419988	-0.11682	-1.21679997	4	184	120
0.405880004	-0.11665	-1.21500003	4	184	120
0.405880004	-0.11287	-1.21539998	4	184	120
0.40358001	-0.111720003	-1.21539998	4	184	120
0.404610008	-0.111479998	-1.21280003	4	184	120
0.404610008	-0.108949997	-1.21300006	4	184	120
0.402740002	-0.107790001	-1.21399999	4	184	120
0.402319998	-0.1065	-1.21319997	4	184	120
0.404610008	-0.105319999	-1.21329999	4	184	120
0.404610008	-0.104149997	-1.21340001	4	184	120
0.403160006	-0.103139997	-1.21529996	4	184	120
0.404000014	-0.104460001	-1.21700001	4	184	120
0.40358001	-0.105549999	-1.21599996	4	184	120
0.402530015	-0.106980003	-1.21860003	4	184	120
0.40169999	-0.108029999	-1.21659994	4	184	120
0.404419988	-0.109360002	-1.21749997	4	184	120
0.402530015	-0.11073	-1.21819997	4	184	120
0.403789997	-0.112219997	-1.22080004	4	184	120
0.404630005	-0.113530003	-1.22249997	4	184	120
0.403149992	-0.113700002	-1.22430003	4	184	120
0.402319998	-0.112379998	-1.22259998	4	184	120
0.402319998	-0.111139998	-1.2227	4	184	120
0.402319998	-0.108589999	-1.22290003	4	184	120
0.402319998	-0.107369997	-1.22300005	4	184	120
0.403789997	-0.106020004	-1.22140002	4	184	120
0.403369993	-0.104769997	-1.22060001	4	184	120
0.402949989	-0.103519998	-1.2198	4	184	120
0.402530015	-0.101070002	-1.2191	4	184	120
0.402530015	-0.0998049974	-1.21920002	4	184	120
0.402949989	-0.097345002	-1.22029996	4	184	120
0.405259997	-0.0986149982	-1.22019994	4	184	120
0.404630005	-0.0989049971	-1.22379994	4	184	120
0.402740002	-0.101520002	-1.22449994	4	184	120
0.403569996	-0.104060002	-1.22609997	4	184	120
0.402740002	-0.105070002	-1.22420001	4	184	120
0.40399	-0.106490001	-1.22679996	4	184	120
0.402500004	-0.109070003	-1.22829998	4	184	120
0.404819995	-0.110330001	-1.22829998	4	184	120
0.402090013	-0.111550003	-1.22720003	4	184	120
0.402090013	-0.112800002	-1.22710001	4	184	120
0.402090013	-0.115149997	-1.22689998	4	184	120
0.402500004	-0.116559997	-1.22759998	4	184	120
0.403750002	-0.10808	-1.23119998	4	184	120
0.404579997	-0.105850004	-1.23319995	4	184	120
0.405470014	-0.102820002	-1.22529995	4	184	120
0.40399	-0.100469999	-1.22730005	4	184	120
0.404819995	-0.0980649963	-1.22930002	4	184	120
0.405680001	-0.10244	-1.22080004	4	184	120
0.40169999	-0.0959170014	-1.2177	4	184	120
0.404000014	-0.0947299972	-1.21780002	4	184	120
0.403160006	-0.0934040025	-1.21609998	4	184	120
0.40358001	-0.0922890007	-1.21710002	4	184	120
0.403160006	-0.0885889977	-1.21640003	4	184	120
0.402319998	-0.0896430016	-1.21449995	4	184	120
0.404190004	-0.0895790011	-1.21370006	4	184	120
0.40377	-0.0883279964	-1.21280003	4	184	120
0.404190004	-0.0872370005	-1.21379995	4	184	120
0.401470006	-0.0859789997	-1.21300006	4	184	120
0.402319998	-0.0848790035	-1.21490002	4	184	120
0.402079999	-0.085725002	-1.20940006	4	184	120
0.402079999	-0.0845030025	-1.20949996	4	184	120
0.40437001	-0.0832979977	-1.20959997	4	184	120
0.402920008	-0.0822219998	-1.21150005	4	184	120
0.402500004	-0.0796509981	-1.21070004	4	184	120
0.401659995	-0.0808039978	-1.20879996	4	184	120
0.403100014	-0.0794159994	-1.20710003	4	184	120
0.402669996	-0.0806249976	-1.2062	4	184	120
0.402669996	-0.0818559974	-1.20609999	4	184	120
0.402249992	-0.0841889977	-1.20500004	4	184	120
0.402249992	-0.0854069963	-1.20490003	4	184	120
0.404110014	-0.0865280032	-1.204	4	184	120
0.403679997	-0.0876090005	-1.20299995	4	184	120
0.403259993	-0.0887169987	-1.20200002	4	184	120
0.404110014	-0.0900690034	-1.20369995	4	184	120
0.404540002	-0.0913370028	-1.20449996	4	184	120
0.403679997	-0.0923710018	-1.2026	4	184	120
0.403679997	-0.0947180018	-1.20239997	4	184	120
0.403679997	-0.0959139988	-1.20229995	4	184	120
0.404960006	-0.0973810032	-1.20490003	4	184	120
0.403519988	-0.0962719992	-1.20679998	4	184	120
0.403519988	-0.0950710028	-1.2069	4	184	120
0.405389994	-0.0938239992	-1.20609999	4	184	120
0.403100014	-0.0926460028	-1.2062	4	184	120
0.403100014	-0.0902689993	-1.20640004	4	184	120
0.402249992	-0.0889139995	-1.20469999	4	184	120
0.403519988	-0.0879350007	-1.20749998	4	184	120
0.403519988	-0.0867850035	-1.20749998	4	184	120
0.405970007	-0.0935449973	-1.2026	4	184	120
0.405539989	-0.0899360031	-1.20190001	4	184	120
0.40426001	-0.0909290016	-1.19910002	4	184	120
0.40426001	-0.0920960009	-1.199	4	184	120
0.405680001	-0.0931269974	-1.19719994	4	184	120
0.40298	-0.0954129994	-1.1961	4	184	120
0.402550012	-0.0941520035	-1.19529998	4	184	120
0.40395999	-0.0916830003	-1.19369996	4	184	120
0.403539985	-0.0904529989	-1.19289994	4	184	120
0.404940009	-0.0903180018	-1.1911	4	184	120
0.404940009	-0.0891309977	-1.19120002	4	184	120
0.404509991	-0.0878579989	-1.1904	4	184	120
0.404080003	-0.0866300017	-1.18949997	4	184	120
0.403649986	-0.0842659995	-1.18879998	4	184	120
0.404080003	-0.0831269994	-1.18980002	4	184	120
0.404940009	-0.0820629969	-1.19169998	4	184	120
0.403539985	-0.0810049996	-1.19350004	4	184	120
0.405800015	-0.0785330012	-1.19369996	4	184	120
0.403109998	-0.0772640035	-1.19289994	4	184	120
0.40395999	-0.0762019977	-1.19480002	4	184	120
0.402119994	-0.0762580037	-1.19560003	4	184	120
0.402119994	-0.0750589967	-1.19570005	4	184	120
0.401270002	-0.0737359971	-1.19400001	4	184	120
0.402119994	-0.0726369992	-1.19579995	4	184	120
0.40268001	-0.072420001	-1.19229996	4	184	120
0.40268001	-0.0700569972	-1.19239998	4	184	120
0.403649986	-0.0698999986	-1.18970001	4	184	120
0.403219998	-0.0687299967	-1.18889999	4	184	120
0.40279001	-0.0721480027	-1.18780005	4	184	120
0.402359992	-0.0732949972	-1.1868	4	184	120
0.404190004	-0.0732410029	-1.18599999	4	184	120
0.403759986	-0.0719849989	-1.18509996	4	184	120
0.404190004	-0.0708390027	-1.18610001	4	184	120
0.403759986	-0.0696370006	-1.18529999	4	184	120
0.402889997	-0.0684200004	-1.18350005	4	184	120
0.402889997	-0.0672639981	-1.18359995	4	184	120
0.404709995	-0.0672150031	-1.18270004	4	184	120
0.404280007	-0.0683170035	-1.18180001	4	184	120
0.404280007	-0.0694269985	-1.18169999	4	184	120
0.404280007	-0.0705720037	-1.18159997	4	184	120
0.403409988	-0.0716589987	-1.17980003	4	184	120
0.405220002	-0.0704120025	-1.17900002	4	184	120
0.404790014	-0.0692169964	-1.17809999	4	184	120
0.403919995	-0.0680069998	-1.17639995	4	184	120
0.403919995	-0.0656670034	-1.17649996	4	184	120
0.404350013	-0.0645020008	-1.17750001	4	184	120
0.404350013	-0.0621029995	-1.17760003	4	184	120
0.404350013	-0.0609959997	-1.17770004	4	184	120
0.406159997	-0.0598100014	-1.17690003	4	184	120
0.405660003	-0.0599909984	-1.18040001	4	184	120
0.404280007	-0.0600819997	-1.18219995	4	184	120
0.403840005	-0.0611810014	-1.18120003	4	184	120
0.406529993	-0.0635050014	-1.18200004	4	184	120
0.405149996	-0.0648450032	-1.18379998	4	184	120
0.406100005	-0.067114003	-1.18089998	4	184	120
0.40704	-0.0669620037	-1.17830002	4	184	120
0.403409988	-0.0658669993	-1.18009996	4	184	120
0.402029991	-0.0659649968	-1.18190002	4	184	120
0.406450003	-0.0625760034	-1.18659997	4	184	120
0.406879991	-0.0637930036	-1.18739998	4	184	120
0.405479997	-0.0638889968	-1.18920004	4	184	120
0.405479997	-0.0651400015	-1.18910003	4	184	120
0.404080003	-0.0652370006	-1.19089997	4	184	120
0.404509991	-0.0665170029	-1.19169998	4	184	120
0.404940009	-0.0677750036	-1.19260001	4	184	120
0.40268001	-0.0665659979	-1.19260001	4	184	120
0.403539985	-0.065433003	-1.19449997	4	184	120
0.402550012	-0.0668160021	-1.19710004	4	184	120
0.404819995	-0.0680290014	-1.19710004	4	184	120
0.40395999	-0.0690929964	-1.19519997	4	184	120
0.405800015	-0.0713220015	-1.19420004	4	184	120
0.405250013	-0.0715349987	-1.19780004	4	184	120
0.403400004	-0.0704260021	-1.19869995	4	184	120
0.403400004	-0.0693000033	-1.19879997	4	184	120
0.403829992	-0.0681810006	-1.1997	4	184	120
0.401980013	-0.0694030002	-1.20050001	4	184	120
0.401980013	-0.0705310032	-1.20050001	4	184	120
0.402410001	-0.0729639977	-1.20120001	4	184	120
0.402830005	-0.0742359981	-1.20210004	4	184	120
0.402830005	-0.076658003	-1.20190001	4	184	120
0.401980013	-0.0777269974	-1.20000005	4	184	120
0.403400004	-0.0776119977	-1.1983	4	184	120
0.405250013	-0.078768	-1.19729996	4	184	120
0.405250013	-0.0800279975	-1.19719994	4	184	120
0.403829992	-0.0801469982	-1.199	4	184	120
0.403829992	-0.0813700035	-1.19889998	4	184	120
0.404689997	-0.0826800019	-1.20060003	4	184	120
0.403829992	-0.0837519988	-1.19869995	4	184	120
0.405250013	-0.0836279988	-1.19700003	4	184	120
0.405250013	-0.0824339986	-1.19710004	4	184	120
0.404819995	-0.0847750008	-1.19599998	4	184	120
0.404819995	-0.0859490037	-1.19589996	4	184	120
0.404390007	-0.0870219991	-1.19490004	4	184	120
0.404819995	-0.0882550031	-1.19570005	4	184	120
0.404819995	-0.0894659981	-1.19560003	4	184	120
0.403829992	-0.0884530023	-1.19840002	4	184	120
0.403829992	-0.087282002	-1.19850004	4	184	120
0.403400004	-0.0860759988	-1.19770002	4	184	120
0.40298	-0.0848359987	-1.19690001	4	184	120
0.401560009	-0.0849620029	-1.19860005	4	184	120
0.405369997	-0.0856920034	-1.19229996	4	184	120
0.403259993	-0.0816129968	-1.20249999	4	184	120
0.403679997	-0.0828649998	-1.2033	4	184	120
0.403679997	-0.0840649977	-1.20319998	4	184	120
0.403679997	-0.0804459974	-1.20350003	4	184	120
0.403679997	-0.0791800022	-1.20360005	4	184	120
0.401829988	-0.0780169964	-1.20449996	4	184	120
0.403100014	-0.0770019963	-1.20729995	4	184	120
0.404960006	-0.0757369995	-1.20650005	4	184	120
0.403519988	-0.0734009966	-1.20840001	4	184	120
0.40437001	-0.0747359991	-1.21019995	4	184	120
0.405220002	-0.0723930001	-1.21210003	4	184	120
0.405220002	-0.0712189972	-1.21220005	4	184	120
0.40437001	-0.069976002	-1.21039999	4	184	120
0.40437001	-0.0663190037	-1.21070004	4	184	120
0.406659991	-0.0650459975	-1.21070004	4	184	120
0.404960006	-0.0685900003	-1.2069	4	184	120
0.404540002	-0.0660730004	-1.2062	4	184	120
0.403679997	-0.0672169998	-1.20430005	4	184	120
0.405110002	-0.0646110028	-1.2026	4	184	120
0.402830005	-0.063424997	-1.20270002	4	184	120
0.402410001	-0.062247999	-1.20179999	4	184	120
0.40426001	-0.0610379986	-1.20099998	4	184	120
0.403829992	-0.0657280013	-1.19990003	4	184	120
0.404819995	-0.0643220022	-1.19729996	4	184	120
0.401690006	-0.0630460009	-1.19550002	4	184	120
0.400840014	-0.0618290007	-1.19369996	4	184	120
0.401820004	-0.0628099963	-1.19099998	4	184	120
0.403649986	-0.0627639964	-1.19009995	4	184	120
0.404509991	-0.0640330017	-1.19190001	4	184	120
0.404619992	-0.0626230016	-1.1875	4	184	120
0.404190004	-0.0614599995	-1.18659997	4	184	120
0.404619992	-0.0603550002	-1.18760002	4	184	120
0.40279001	-0.0603989996	-1.18850005	4	184	120
0.402359992	-0.061505001	-1.1875	4	184	120
0.400959998	-0.0615970008	-1.18929994	4	184	120
0.40395999	-0.0607639998	-1.19560003	4	184	120
0.404110014	-0.0719629973	-1.20490003	4	184	120
0.405110002	-0.0718030035	-1.20220006	4	184	120
0.404689997	-0.0790039971	-1.20089996	4	184	120
0.405290008	-0.0631200001	-1.17490005	4	184	120
0.404850006	-0.0655179992	-1.17390001	4	184	120
0.404850006	-0.0678519979	-1.17369998	4	184	120
0.405290008	-0.0690080002	-1.17460001	4	184	120
0.404850006	-0.0700920001	-1.17359996	4	184	120
0.406659991	-0.0689039975	-1.17279994	4	184	120
0.406219989	-0.0677499995	-1.17190003	4	184	120
0.407099992	-0.0667079985	-1.17379999	4	184	120
0.405779988	-0.0699319988	-1.17089999	4	184	120
0.404900014	-0.0710090026	-1.16900003	4	184	120
0.405339986	-0.0722479969	-1.16989994	4	184	120
0.405339986	-0.0734329969	-1.16980004	4	184	120
0.407579988	-0.0746069998	-1.16970003	4	184	120
0.408930004	-0.0744939968	-1.16799998	4	184	120
0.411170006	-0.0744950026	-1.16799998	4	184	120
0.411610007	-0.0733800009	-1.16900003	4	184	120
0.412059993	-0.0722509995	-1.16989994	4	184	120
0.412059993	-0.0710659996	-1.16999996	4	184	120
0.413850009	-0.0710119978	-1.16910005	4	184	120
0.414299995	-0.0722509995	-1.16989994	4	184	120
0.416099995	-0.0721959993	-1.16900003	4	184	120
0.41565001	-0.0733240023	-1.1681	4	184	120
0.417439997	-0.0732679963	-1.16719997	4	184	120
0.419239998	-0.0732119977	-1.16630006	4	184	120
0.418339998	-0.0721959993	-1.16900003	4	184	120
0.417439997	-0.0709040016	-1.16729999	4	184	120
0.41565001	-0.0709580034	-1.16820002	4	184	120
0.414759994	-0.0696680024	-1.16649997	4	184	120
0.414310008	-0.0684859976	-1.16569996	4	184	120
0.414310008	-0.0673910007	-1.16569996	4	184	120
0.416099995	-0.0673390031	-1.16480005	4	184	120
0.416099995	-0.068434	-1.16480005	4	184	120
0.41655001	-0.069614999	-1.16559994	4	184	120
0.418790013	-0.069614999	-1.16559994	4	184	120
0.418790013	-0.0684859976	-1.16569996	4	184	120
0.418339998	-0.0673390031	-1.16480005	4	184	120
0.416990012	-0.0660500005	-1.16219997	4	184	120
0.416990012	-0.0648730025	-1.16229999	4	184	120
0.417439997	-0.0637219995	-1.16330004	4	184	120
0.416539997	-0.0624019988	-1.16149998	4	184	120
0.416539997	-0.0612579994	-1.16159999	4	184	120
0.416090012	-0.0601200014	-1.16079998	4	184	120
0.41832	-0.0601200014	-1.16079998	4	184	120
0.419669986	-0.0613519996	-1.16340005	4	184	120
0.419669986	-0.0624979995	-1.16330004	4	184	120
0.416970015	-0.0588579997	-1.15810001	4	184	120
0.414739996	-0.0588590018	-1.15810001	4	184	120
0.413410008	-0.0589490011	-1.15989995	4	184	120
0.413410008	-0.0600740016	-1.15989995	4	184	120
0.413859993	-0.0612110011	-1.16069996	4	184	120
0.413859993	-0.0623539984	-1.16059995	4	184	120
0.41207999	-0.0624019988	-1.16149998	4	184	120
0.411190003	-0.0611639991	-1.15980005	4	184	120
0.411630005	-0.0601200014	-1.16079998	4	184	120
0.411630005	-0.0589939989	-1.16079998	4	184	120
0.409850001	-0.0590390004	-1.16170001	4	184	120
0.407629997	-0.0590390004	-1.16170001	4	184	120
0.407180011	-0.0601189993	-1.16069996	4	184	120
0.407180011	-0.061209999	-1.16069996	4	184	120
0.408960015	-0.0611630008	-1.15980005	4	184	120
0.408960015	-0.0600729994	-1.15989995	4	184	120
0.40941	-0.0623539984	-1.16059995	4	184	120
0.408069998	-0.0624490008	-1.16240001	4	184	120
0.40851	-0.0637210011	-1.16320002	4	184	120
0.410739988	-0.0637219995	-1.16320002	4	184	120
0.410299987	-0.0648730025	-1.16229999	4	184	120
0.410299987	-0.0660490021	-1.16219997	4	184	120
0.411630005	-0.065948002	-1.16040003	4	184	120
0.412530005	-0.0648730025	-1.16229999	4	184	120
0.412970006	-0.0637219995	-1.16330004	4	184	120
0.414759994	-0.0636729971	-1.16240001	4	184	120
0.414759994	-0.0648730025	-1.16229999	4	184	120
0.414310008	-0.0659990013	-1.16129994	4	184	120
0.409399986	-0.0662010014	-1.16489995	4	184	120
0.409399986	-0.0650219992	-1.16499996	4	184	120
0.407609999	-0.0662510023	-1.16579998	4	184	120
0.407169998	-0.0673369989	-1.16480005	4	184	120
0.405820012	-0.0674400032	-1.16659999	4	184	120
0.406699985	-0.0686409995	-1.16830003	4	184	120
0.406699985	-0.0697730035	-1.16820002	4	184	120
0.408490002	-0.06972	-1.1674	4	184	120
0.408490002	-0.0685900003	-1.1674	4	184	120
0.410290003	-0.0685380027	-1.16659999	4	184	120
0.410730004	-0.0697209984	-1.1674	4	184	120
0.412970006	-0.0697219968	-1.1674	4	184	120
0.412970006	-0.0685909986	-1.16750002	4	184	120
0.412519991	-0.0674419999	-1.16659999	4	184	120
0.409839988	-0.0673900023	-1.16569996	4	184	120
0.408490002	-0.0709019974	-1.16729999	4	184	120
0.408930004	-0.0721400008	-1.1681	4	184	120
0.406699985	-0.0721390024	-1.1681	4	184	120
0.406260014	-0.0732659996	-1.16709995	4	184	120
0.408050001	-0.0732109994	-1.16630006	4	184	120
0.405380011	-0.070791997	-1.16550004	4	184	120
0.407139987	-0.0664540008	-1.16929996	4	184	120
0.404900014	-0.0652690008	-1.16939998	4	184	120
0.404029995	-0.0639630035	-1.16770005	4	184	120
0.403149992	-0.0626379997	-1.16589999	4	184	120
0.403149992	-0.0614899993	-1.16600001	4	184	120
0.404500008	-0.0625429973	-1.16419995	4	184	120
0.404500008	-0.0637679994	-1.16410005	4	184	120
0.405840009	-0.0636710003	-1.16229999	4	184	120
0.405400008	-0.0623999983	-1.16149998	4	184	120
0.404520005	-0.0611619987	-1.15980005	4	184	120
0.404960006	-0.060118001	-1.16069996	4	184	120
0.403180003	-0.0612550005	-1.16149998	4	184	120
0.405840009	-0.0590829998	-1.16260004	4	184	120
0.406729996	-0.064971	-1.16400003	4	184	120
0.405380011	-0.0650700033	-1.16579998	4	184	120
0.405820012	-0.0604420006	-1.16700006	4	184	120
0.404469997	-0.0605340004	-1.16869998	4	184	120
0.403109998	-0.0617260002	-1.17050004	4	184	120
0.403539985	-0.0606720001	-1.17139995	4	184	120
0.405779988	-0.059537001	-1.17149997	4	184	120
0.407139987	-0.0594470017	-1.16970003	4	184	120
0.403539985	-0.0641589984	-1.17120004	4	184	120
0.420130014	-0.0709569976	-1.16820002	4	184	120
0.41565001	-0.0768299997	-1.16779995	4	184	120
0.414299995	-0.076948002	-1.16960001	4	184	120
0.414299995	-0.0781780034	-1.16949999	4	184	120
0.412499994	-0.0782369971	-1.17040002	4	184	120
0.412499994	-0.0794320032	-1.17040002	4	184	120
0.413390011	-0.0807129964	-1.17209995	4	184	120
0.413390011	-0.081882	-1.17200005	4	184	120
0.413830012	-0.083130002	-1.17279994	4	184	120
0.414270014	-0.0843459964	-1.17359996	4	184	120
0.41516	-0.0855939984	-1.1753	4	184	120
0.41516	-0.0867410004	-1.17519999	4	184	120
0.413349986	-0.0868069977	-1.17610002	4	184	120
0.413789988	-0.0857240036	-1.17709994	4	184	120
0.414229989	-0.0881320015	-1.17780006	4	184	120
0.414669991	-0.0893739983	-1.17859995	4	184	120
0.415109992	-0.0905900002	-1.17939997	4	184	120
0.413300008	-0.0906580016	-1.1803	4	184	120
0.412420005	-0.0916690007	-1.17840004	4	184	120
0.411980003	-0.092749998	-1.17750001	4	184	120
0.410160005	-0.0928189978	-1.17830002	4	184	120
0.409729987	-0.0915990025	-1.17750001	4	184	120
0.410160005	-0.0905200019	-1.17850006	4	184	120
0.407909989	-0.0916669965	-1.17840004	4	184	120
0.407909989	-0.0928179994	-1.17830002	4	184	120
0.407909989	-0.0939909965	-1.17820001	4	184	120
0.408349991	-0.0952870026	-1.17900002	4	184	120
0.406529993	-0.0953579992	-1.17990005	4	184	120
0.406100005	-0.0940610021	-1.17910004	4	184	120
0.405660003	-0.092817001	-1.17830002	4	184	120
0.406100005	-0.0917349979	-1.17929995	4	184	120
0.404280007	-0.0918029994	-1.18019998	4	184	120
0.404709995	-0.0930270031	-1.18099999	4	184	120
0.404280007	-0.094130002	-1.17999995	4	184	120
0.405149996	-0.0955009982	-1.18169999	4	184	120
0.403320014	-0.0943429992	-1.18270004	4	184	120
0.403759986	-0.0932369977	-1.18359995	4	184	120
0.403759986	-0.0920810029	-1.18369997	4	184	120
0.404619992	-0.091064997	-1.18560004	4	184	120
0.405050009	-0.0899790004	-1.18659997	4	184	120
0.405050009	-0.0887959972	-1.18669999	4	184	120
0.404080003	-0.0913399979	-1.18920004	4	184	120
0.403219998	-0.092358999	-1.18729997	4	184	120
0.400959998	-0.0935159996	-1.18719995	4	184	120
0.40279001	-0.0946279988	-1.18620002	4	184	120
0.401930004	-0.0933059976	-1.18449998	4	184	120
0.405050009	-0.0958620012	-1.18610001	4	184	120
0.405919999	-0.0972409993	-1.18780005	4	184	120
0.405919999	-0.0984750018	-1.18770003	4	184	120
0.405919999	-0.0996569991	-1.18760002	4	184	120
0.405479997	-0.100709997	-1.18669999	4	184	120
0.407310009	-0.100639999	-1.18579996	4	184	120
0.407310009	-0.0995080024	-1.18589997	4	184	120
0.40775001	-0.098402001	-1.18690002	4	184	120
0.407310009	-0.0970960036	-1.18610001	4	184	120
0.408270001	-0.0968770012	-1.18340003	4	184	120
0.407840014	-0.0980319977	-1.18239999	4	184	120
0.407840014	-0.0992090032	-1.18229997	4	184	120
0.408270001	-0.100409999	-1.18309999	4	184	120
0.408270001	-0.101539999	-1.18299997	4	184	120
0.408270001	-0.102679998	-1.18289995	4	184	120
0.406450003	-0.102760002	-1.18379998	4	184	120
0.406450003	-0.101620004	-1.1839	4	184	120
0.404619992	-0.101690002	-1.18480003	4	184	120
0.405479997	-0.102990001	-1.18649995	4	184	120
0.405919999	-0.104230002	-1.18729997	4	184	120
0.406349987	-0.105489999	-1.18799996	4	184	120
0.405919999	-0.106619999	-1.18700004	4	184	120
0.40775001	-0.106540002	-1.18620002	4	184	120
0.408179998	-0.105420001	-1.18719995	4	184	120
0.40775001	-0.104149997	-1.18640006	4	184	120
0.409579992	-0.10407	-1.18550003	4	184	120
0.41001001	-0.105339997	-1.18630004	4	184	120
0.409579992	-0.106470004	-1.18529999	4	184	120
0.410450011	-0.107890002	-1.18700004	4	184	120
0.408609986	-0.107969999	-1.18780005	4	184	120
0.408609986	-0.109180003	-1.18770003	4	184	120
0.406780005	-0.10926	-1.18859994	4	184	120
0.406780005	-0.108050004	-1.18869996	4	184	120
0.404509991	-0.108050004	-1.18869996	4	184	120
0.404509991	-0.10926	-1.18859994	4	184	120
0.404080003	-0.110289998	-1.18760002	4	184	120
0.405919999	-0.110210001	-1.18669999	4	184	120
0.40775001	-0.110129997	-1.18579996	4	184	120
0.410450011	-0.110210001	-1.1868	4	184	120
0.411320001	-0.10926	-1.18859994	4	184	120
0.411320001	-0.111550003	-1.18840003	4	184	120
0.409480006	-0.11163	-1.18929994	4	184	120
0.409049988	-0.112829998	-1.18830001	4	184	120
0.408609986	-0.113990001	-1.18729997	4	184	120
0.406349987	-0.113990001	-1.18729997	4	184	120
0.406780005	-0.112829998	-1.18830001	4	184	120
0.407209992	-0.11163	-1.18929994	4	184	120
0.405369997	-0.111709997	-1.19019997	4	184	120
0.405800015	-0.113080002	-1.19089997	4	184	120
0.40395999	-0.113159999	-1.1918	4	184	120
0.40395999	-0.111869998	-1.19190001	4	184	120
0.404390007	-0.110789999	-1.19299996	4	184	120
0.40298	-0.110950001	-1.1947	4	184	120
0.403400004	-0.112209998	-1.19550002	4	184	120
0.403829992	-0.113590002	-1.19630003	4	184	120
0.403400004	-0.115970001	-1.19519997	4	184	120
0.405680001	-0.11716	-1.19509995	4	184	120
0.405680001	-0.118330002	-1.19500005	4	184	120
0.405250013	-0.119419999	-1.19389999	4	184	120
0.406109989	-0.120810002	-1.19560003	4	184	120
0.406109989	-0.12201	-1.19550002	4	184	120
0.405680001	-0.123089999	-1.19449997	4	184	120
0.406109989	-0.124370001	-1.19519997	4	184	120
0.406540006	-0.125640005	-1.19599998	4	184	120
0.406540006	-0.126829997	-1.19589996	4	184	120
0.408389986	-0.126729995	-1.19500005	4	184	120
0.408389986	-0.125550002	-1.19509995	4	184	120
0.408389986	-0.124370001	-1.19529998	4	184	120
0.408820003	-0.122100003	-1.19640005	4	184	120
0.408820003	-0.120899998	-1.19649994	4	184	120
0.410239995	-0.120719999	-1.19480002	4	184	120
0.410670012	-0.12201	-1.19550002	4	184	120
0.412519991	-0.121919997	-1.19459999	4	184	120
0.412519991	-0.120719999	-1.19480002	4	184	120
0.41207999	-0.119419999	-1.19400001	4	184	120
0.413929999	-0.119340003	-1.19309998	4	184	120
0.413929999	-0.118160002	-1.19319999	4	184	120
0.413929999	-0.11699	-1.19330001	4	184	120
0.413060009	-0.115630001	-1.19169998	4	184	120
0.41218999	-0.114249997	-1.19000006	4	184	120
0.41218999	-0.112999998	-1.19009995	4	184	120
0.414460003	-0.112999998	-1.19009995	4	184	120
0.414029986	-0.11417	-1.18910003	4	184	120
0.413590014	-0.111550003	-1.18840003	4	184	120
0.412719995	-0.110210001	-1.1868	4	184	120
0.412719995	-0.107890002	-1.18700004	4	184	120
0.413150012	-0.106710002	-1.18799996	4	184	120
0.412719995	-0.105420001	-1.18719995	4	184	120
0.414990008	-0.105420001	-1.18719995	4	184	120
0.414550006	-0.106550001	-1.18620002	4	184	120
0.415419996	-0.107969999	-1.18789995	4	184	120
0.417699993	-0.107979998	-1.18789995	4	184	120
0.418139994	-0.10926	-1.18869996	4	184	120
0.418139994	-0.110380001	-1.18859994	4	184	120
0.418579996	-0.11163	-1.18929994	4	184	120
0.419459999	-0.113080002	-1.19099998	4	184	120
0.417180002	-0.113090001	-1.19099998	4	184	120
0.417180002	-0.11434	-1.19089997	4	184	120
0.418049991	-0.115719996	-1.19260001	4	184	120
0.418049991	-0.116910003	-1.1925	4	184	120
0.418049991	-0.118069999	-1.19229996	4	184	120
0.417620003	-0.119159997	-1.19130003	4	184	120
0.418049991	-0.120449997	-1.19210005	4	184	120
0.416209996	-0.12054	-1.19299996	4	184	120
0.416209996	-0.121739998	-1.19289994	4	184	120
0.417079985	-0.123099998	-1.19449997	4	184	120
0.417519987	-0.124370001	-1.19529998	4	184	120
0.417959988	-0.125650004	-1.1961	4	184	120
0.416099995	-0.125740007	-1.19700003	4	184	120
0.416539997	-0.127020001	-1.19770002	4	184	120
0.416539997	-0.128220007	-1.19760001	4	184	120
0.416539997	-0.129429996	-1.19749999	4	184	120
0.414689988	-0.13075	-1.19819999	4	184	120
0.415120006	-0.132029995	-1.199	4	184	120
0.415120006	-0.133129999	-1.19889998	4	184	120
0.415989995	-0.134460002	-1.20060003	4	184	120
0.413690001	-0.135690004	-1.20039999	4	184	120
0.413260013	-0.136820003	-1.19939995	4	184	120
0.412829995	-0.134259999	-1.19879997	4	184	120
0.410970002	-0.13436	-1.19959998	4	184	120
0.410109997	-0.133019999	-1.19799995	4	184	120
0.411960006	-0.132919997	-1.19710004	4	184	120
0.411960006	-0.130659997	-1.19729996	4	184	120
0.412829995	-0.132029995	-1.199	4	184	120
0.410970002	-0.132119998	-1.19990003	4	184	120
0.408679992	-0.13436	-1.19959998	4	184	120
0.40911001	-0.135690004	-1.20039999	4	184	120
0.412259996	-0.135890007	-1.20220006	4	184	120
0.406390011	-0.133220002	-1.1997	4	184	120
0.407819986	-0.131919995	-1.19809997	4	184	120
0.407400012	-0.132919997	-1.19710004	4	184	120
0.405110002	-0.131819993	-1.19710004	4	184	120
0.404689997	-0.130549997	-1.19640005	4	184	120
0.406540006	-0.130459994	-1.19550002	4	184	120
0.406969994	-0.129329994	-1.19649994	4	184	120
0.407400012	-0.128209993	-1.19760001	4	184	120
0.405970007	-0.128399998	-1.19930005	4	184	120
0.405539989	-0.129519999	-1.1983	4	184	120
0.403679997	-0.130840003	-1.199	4	184	120
0.404110014	-0.132119998	-1.19980001	4	184	120
0.403100014	-0.132410005	-1.20249999	4	184	120
0.403519988	-0.131329998	-1.20350003	4	184	120
0.404960006	-0.129899994	-1.20190001	4	184	120
0.404540002	-0.128590003	-1.20109999	4	184	120
0.404110014	-0.127299994	-1.20029998	4	184	120
0.402249992	-0.127389997	-1.20120001	4	184	120
0.403100014	-0.128780007	-1.20290005	4	184	120
0.405389994	-0.126389995	-1.20319998	4	184	120
0.403950006	-0.125389993	-1.20510006	4	184	120
0.403519988	-0.1241	-1.20430005	4	184	120
0.403519988	-0.121710002	-1.20449996	4	184	120
0.404960006	-0.121529996	-1.20280004	4	184	120
0.404960006	-0.12274	-1.2026	4	184	120
0.404540002	-0.120219998	-1.20200002	4	184	120
0.405970007	-0.118859999	-1.20029998	4	184	120
0.403679997	-0.117689997	-1.20039999	4	184	120
0.403679997	-0.116489999	-1.20050001	4	184	120
0.405110002	-0.115099996	-1.19889998	4	184	120
0.404689997	-0.117430001	-1.19770002	4	184	120
0.40426001	-0.119690001	-1.19659996	4	184	120
0.405110002	-0.121080004	-1.1983	4	184	120
0.404689997	-0.122189999	-1.19729996	4	184	120
0.402830005	-0.123460002	-1.19799995	4	184	120
0.402410001	-0.12455	-1.19700003	4	184	120
0.403829992	-0.124360003	-1.19519997	4	184	120
0.403829992	-0.123180002	-1.19529998	4	184	120
0.404689997	-0.125729993	-1.19690001	4	184	120
0.405110002	-0.127010003	-1.19770002	4	184	120
0.404540002	-0.114179999	-1.2026	4	184	120
0.404960006	-0.112970002	-1.20360005	4	184	120
0.404110014	-0.111620001	-1.20190001	4	184	120
0.403259993	-0.110320002	-1.20019996	4	184	120
0.404110014	-0.109269999	-1.20210004	4	184	120
0.403679997	-0.10791	-1.20130002	4	184	120
0.401829988	-0.106760003	-1.20229995	4	184	120
0.403259993	-0.105400003	-1.20060003	4	184	120
0.404110014	-0.104390003	-1.20249999	4	184	120
0.404110014	-0.10323	-1.2026	4	184	120
0.403679997	-0.101999998	-1.20179999	4	184	120
0.403679997	-0.10086	-1.20190001	4	184	120
0.402669996	-0.0998819992	-1.20469999	4	184	120
0.403519988	-0.101230003	-1.20640004	4	184	120
0.403950006	-0.102459997	-1.20720005	4	184	120
0.401659995	-0.100100003	-1.20739996	4	184	120
0.402079999	-0.0989229977	-1.20840001	4	184	120
0.403519988	-0.098778002	-1.20659995	4	184	120
0.40437001	-0.0976710021	-1.20850003	4	184	120
0.403349996	-0.0954239964	-1.21140003	4	184	120
0.40377	-0.0967010036	-1.21220005	4	184	120
0.404190004	-0.0980330035	-1.21300006	4	184	120
0.403160006	-0.0969870016	-1.21580005	4	184	120
0.402740002	-0.0957060009	-1.21500003	4	184	120
0.404190004	-0.0943809971	-1.21329999	4	184	120
0.40377	-0.0931290016	-1.21249998	4	184	120
0.403349996	-0.0918800011	-1.21169996	4	184	120
0.403349996	-0.0906720012	-1.21179998	4	184	120
0.404799998	-0.0917449966	-1.20990002	4	184	120
0.405220002	-0.0941729993	-1.21060002	4	184	120
0.403160006	-0.0995120034	-1.21560001	4	184	120
0.40189001	-0.100550003	-1.21280003	4	184	120
0.40377	-0.101680003	-1.21179998	4	184	120
0.403349996	-0.102760002	-1.21080005	4	184	120
0.405220002	-0.105010003	-1.20969999	4	184	120
0.402920008	-0.106190003	-1.20959997	4	184	120
0.402920008	-0.1074	-1.20949996	4	184	120
0.402920008	-0.109920003	-1.20930004	4	184	120
0.401470006	-0.110079996	-1.21099997	4	184	120
0.401470006	-0.113640003	-1.21070004	4	184	120
0.403349996	-0.11355	-1.2098	4	184	120
0.403349996	-0.114859998	-1.20969999	4	184	120
0.405220002	-0.113470003	-1.20899999	4	184	120
0.405220002	-0.112290002	-1.20910001	4	184	120
0.405220002	-0.108630002	-1.20940006	4	184	120
0.404799998	-0.115960002	-1.20780003	4	184	120
0.403950006	-0.114519998	-1.20609999	4	184	120
0.405389994	-0.115620002	-1.20420003	4	184	120
0.403519988	-0.116920002	-1.20500004	4	184	120
0.403519988	-0.118129998	-1.20490003	4	184	120
0.404799998	-0.120760001	-1.20729995	4	184	120
0.406659991	-0.119479999	-1.20659995	4	184	120
0.402920008	-0.11727	-1.20860004	4	184	120
0.404190004	-0.11874	-1.2112	4	184	120
0.406489998	-0.11992	-1.21109998	4	184	120
0.402740002	-0.115199998	-1.21329999	4	184	120
0.402249992	-0.103299998	-1.20350003	4	184	120
0.403100014	-0.105789997	-1.20510006	4	184	120
0.403100014	-0.109509997	-1.20480001	4	184	120
0.402669996	-0.110650003	-1.20379996	4	184	120
0.405110002	-0.103	-1.20000005	4	184	120
0.405110002	-0.104160003	-1.19990003	4	184	120
0.405680001	-0.10385	-1.19630003	4	184	120
0.403400004	-0.105010003	-1.19620001	4	184	120
0.401980013	-0.106360003	-1.19780004	4	184	120
0.403829992	-0.107500002	-1.19690001	4	184	120
0.405680001	-0.107430004	-1.19599998	4	184	120
0.40298	-0.108620003	-1.19490004	4	184	120
0.402119994	-0.10966	-1.19299996	4	184	120
0.403109998	-0.109420002	-1.1904	4	184	120
0.403109998	-0.108209997	-1.19050002	4	184	120
0.40268001	-0.10565	-1.18980002	4	184	120
0.404509991	-0.105570003	-1.18889999	4	184	120
0.404080003	-0.1043	-1.18809998	4	184	120
0.404080003	-0.101999998	-1.18830001	4	184	120
0.404509991	-0.100939997	-1.18929994	4	184	120
0.404509991	-0.0998060033	-1.18939996	4	184	120
0.404080003	-0.0985469967	-1.18859994	4	184	120
0.40268001	-0.0986939967	-1.1904	4	184	120
0.403539985	-0.0976049975	-1.19229996	4	184	120
0.404940009	-0.0974600017	-1.19050002	4	184	120
0.405369997	-0.0962959975	-1.19149995	4	184	120
0.404819995	-0.0965849981	-1.19509995	4	184	120
0.40298	-0.0978970006	-1.19589996	4	184	120
0.401560009	-0.0980419964	-1.19760001	4	184	120
0.401980013	-0.0993610024	-1.19840002	4	184	120
0.403829992	-0.100479998	-1.19749999	4	184	120
0.403829992	-0.101620004	-1.19739997	4	184	120
0.40426001	-0.0968739986	-1.19869995	4	184	120
0.401690006	-0.0989160016	-1.19309998	4	184	120
0.40395999	-0.100110002	-1.19299996	4	184	120
0.40395999	-0.101240002	-1.19289994	4	184	120
0.40395999	-0.10238	-1.19280005	4	184	120
0.405800015	-0.103459999	-1.1918	4	184	120
0.403539985	-0.104620002	-1.19169998	4	184	120
0.401690006	-0.10588	-1.1925	4	184	120
0.402249992	-0.0949129984	-1.18980002	4	184	120
0.404080003	-0.106700003	-1.18789995	4	184	120
0.404799998	-0.130390003	-1.20630002	4	184	120
0.408820003	-0.128020003	-1.19579995	4	184	120
0.408820003	-0.129229993	-1.19570005	4	184	120
0.409249991	-0.130559996	-1.19640005	4	184	120
0.410239995	-0.129040003	-1.19389999	4	184	120
0.410239995	-0.127829999	-1.19400001	4	184	120
0.412950009	-0.129140005	-1.19480002	4	184	120
