0.206579998	0.262930006	-1.44400001	238	138	16
0.204040006	0.262849987	-1.44360006	238	138	16
0.203380004	0.260890007	-1.44099998	238	138	16
0.205459997	0.260619998	-1.43949997	238	138	16
0.205019996	0.258850008	-1.43780005	238	138	16
0.207320005	0.258749992	-1.43729997	238	138	16
0.206870005	0.256989986	-1.43560004	238	138	16
0.20939	0.257070005	-1.43610001	238	138	16
0.209849998	0.258830011	-1.43770003	238	138	16
0.210069999	0.260430008	-1.43840003	238	138	16
0.207990006	0.260699987	-1.43990004	238	138	16
0.212149993	0.258740008	-1.43719995	238	138	16
0.214220002	0.258469999	-1.43570006	238	138	16
0.216979995	0.258720011	-1.43710005	238	138	16
0.219040006	0.258450001	-1.43560004	238	138	16
0.221579999	0.258520007	-1.43599999	238	138	16
0.224110007	0.258590013	-1.43640006	238	138	16
0.226410002	0.25850001	-1.43589997	238	138	16
0.228709996	0.258390009	-1.43529999	238	138	16
0.228469998	0.256810009	-1.4346	238	138	16
0.231010005	0.256879985	-1.43499994	238	138	16
0.231010005	0.258289993	-1.43470001	238	138	16
0.2333	0.256779999	-1.43439996	238	138	16
0.233789995	0.258540004	-1.43610001	238	138	16
0.236090004	0.258430004	-1.43550003	238	138	16
0.238629997	0.25850001	-1.43589997	238	138	16
0.240930006	0.258399993	-1.43529999	238	138	16
0.243479997	0.258459985	-1.43570006	238	138	16
0.242980003	0.256709993	-1.43400002	238	138	16
0.245519996	0.256770015	-1.43439996	238	138	16
0.247820005	0.256669998	-1.43379998	238	138	16
0.248070002	0.258249998	-1.43449998	238	138	16
0.246030003	0.258529991	-1.43599999	238	138	16
0.250620008	0.258320004	-1.43490005	238	138	16
0.252660006	0.258040011	-1.43330002	238	138	16
0.249599993	0.256220013	-1.43130004	238	138	16
0.249090001	0.25444001	-1.42970002	238	138	16
0.246800005	0.25455001	-1.4303	238	138	16
0.244770005	0.254819989	-1.43180001	238	138	16
0.251120001	0.254170001	-1.42809999	238	138	16
0.251370013	0.255769998	-1.42879999	238	138	16
0.253399998	0.252609998	-1.42780006	238	138	16
0.255679995	0.252510011	-1.42719996	238	138	16
0.258489996	0.252730012	-1.42850006	238	138	16
0.260769993	0.252629995	-1.42780006	238	138	16
0.261559993	0.254579991	-1.43040001	238	138	16
0.259539992	0.254860014	-1.43200004	238	138	16
0.256989986	0.254799992	-1.43169999	238	138	16
0.25444001	0.25474	-1.43130004	238	138	16
0.257770002	0.256749988	-1.43429995	238	138	16
0.255730003	0.25703001	-1.43579996	238	138	16
0.255989999	0.25861001	-1.43649995	238	138	16
0.258549988	0.258670002	-1.43690002	238	138	16
0.260589987	0.256980002	-1.43550003	238	138	16
0.250349998	0.252209991	-1.42550004	238	138	16
0.250090003	0.250629991	-1.42480004	238	138	16
0.252110004	0.250349998	-1.42330003	238	138	16
0.248070002	0.252319992	-1.42610002	238	138	16
0.245529994	0.25226	-1.42569995	238	138	16
0.240180001	0.256469995	-1.43270004	238	138	16
0.237890005	0.256570011	-1.43330002	238	138	16
0.235349998	0.256500006	-1.43289995	238	138	16
0.234860003	0.254720002	-1.43120003	238	138	16
0.232570007	0.254830003	-1.43180001	238	138	16
0.230279997	0.25492999	-1.43239999	238	138	16
0.227510005	0.254689991	-1.43099999	238	138	16
0.225459993	0.256390005	-1.43229997	238	138	16
0.222929999	0.25632	-1.43190002	238	138	16
0.224739999	0.25444001	-1.42970002	238	138	16
0.236660004	0.254280001	-1.42879999	238	138	16
0.239439994	0.254519999	-1.43009996	238	138	16
0.241469994	0.25424999	-1.42859995	238	138	16
0.231969997	0.260410011	-1.43830001	238	138	16
0.230149999	0.260850012	-1.44079995	238	138	16
0.227129996	0.260439992	-1.43850005	238	138	16
0.225060001	0.260710001	-1.44000006	238	138	16
0.222519994	0.260639995	-1.43959999	238	138	16
0.220449999	0.260910004	-1.4411	238	138	16
0.217899993	0.260829985	-1.44070005	238	138	16
0.215369999	0.260760009	-1.44019997	238	138	16
0.212830007	0.26067999	-1.43980002	238	138	16
0.235009998	0.260820001	-1.44060004	238	138	16
0.237560004	0.260890007	-1.44099998	238	138	16
0.23962	0.260610014	-1.43939996	238	138	16
0.242170006	0.26067999	-1.43980002	238	138	16
0.244729996	0.260749996	-1.44019997	238	138	16
0.245480001	0.262710005	-1.44280005	238	138	16
0.243169993	0.262809992	-1.44340003	238	138	16
0.241349995	0.263269991	-1.44589996	238	138	16
0.241589993	0.264889985	-1.44649994	238	138	16
0.24391	0.264780015	-1.44599998	238	138	16
0.24673	0.265020013	-1.44729996	238	138	16
0.249050006	0.264910012	-1.44669998	238	138	16
0.25187999	0.265150011	-1.44799995	238	138	16
0.253939986	0.264869988	-1.44640005	238	138	16
0.256260008	0.264759988	-1.44579995	238	138	16
0.25575	0.262970001	-1.44420004	238	138	16
0.253430009	0.263080001	-1.44480002	238	138	16
0.250860006	0.263009995	-1.44449997	238	138	16
0.247789994	0.262600005	-1.44219995	238	138	16
0.247789994	0.261159986	-1.4425	238	138	16
0.249589995	0.260710001	-1.44000006	238	138	16
0.251899987	0.260600001	-1.43939996	238	138	16
0.254720002	0.260829985	-1.44070005	238	138	16
0.257539988	0.261070013	-1.44200003	238	138	16
0.258579999	0.263200015	-1.44550002	238	138	16
0.254709989	0.266840011	-1.449	238	138	16
0.252640009	0.267129987	-1.45060003	238	138	16
0.250310004	0.267239988	-1.45120001	238	138	16
0.250809997	0.269050002	-1.45280004	238	138	16
0.253399998	0.269109994	-1.45319998	238	138	16
0.248730004	0.269340008	-1.45439994	238	138	16
0.246150002	0.269270003	-1.454	238	138	16
0.243320003	0.269019991	-1.45270002	238	138	16
0.24075	0.268959999	-1.45229995	238	138	16
0.238419995	0.269059986	-1.45290005	238	138	16
0.236570001	0.269520015	-1.45539999	238	138	16
0.233989999	0.269450009	-1.45500004	238	138	16
0.240260005	0.267140001	-1.45070004	238	138	16
0.242579997	0.267030001	-1.45009995	238	138	16
0.245159999	0.267100006	-1.45050001	238	138	16
0.247730002	0.267170012	-1.45079994	238	138	16
0.239769995	0.26534	-1.449	238	138	16
0.237200007	0.265269995	-1.44869995	238	138	16
0.236959994	0.266550004	-1.44739997	238	138	16
0.23488	0.266829997	-1.449	238	138	16
0.23488	0.265379995	-1.44920003	238	138	16
0.232309997	0.266759992	-1.44860005	238	138	16
0.232069999	0.265130013	-1.44790006	238	138	16
0.229509994	0.265060008	-1.44749999	238	138	16
0.226950005	0.264990002	-1.44710004	238	138	16
0.224629998	0.265089989	-1.44770002	238	138	16
0.221849993	0.264840007	-1.44630003	238	138	16
0.221849993	0.263390005	-1.44659996	238	138	16
0.223930001	0.263119996	-1.44500005	238	138	16
0.226480007	0.263190001	-1.4454	238	138	16
0.228560001	0.262919992	-1.44389999	238	138	16
0.231350005	0.26315999	-1.44529998	238	138	16
0.233909994	0.263229996	-1.44570005	238	138	16
0.236220002	0.263130009	-1.44509995	238	138	16
0.238790005	0.263200015	-1.44550002	238	138	16
0.230230004	0.267030001	-1.45009995	238	138	16
0.227899998	0.267140001	-1.45070004	238	138	16
0.225810006	0.267419994	-1.45220006	238	138	16
0.223250002	0.267340004	-1.45179999	238	138	16
0.220689997	0.267269999	-1.45140004	238	138	16
0.218130007	0.267190009	-1.45089996	238	138	16
0.215570003	0.26710999	-1.45050001	238	138	16
0.212789997	0.266860008	-1.44910002	238	138	16
0.210690007	0.267129987	-1.45060003	238	138	16
0.20792	0.266880006	-1.44920003	238	138	16
0.205819994	0.267150015	-1.45070004	238	138	16
0.202830002	0.266710013	-1.44840002	238	138	16
0.200509995	0.26681	-1.44889998	238	138	16
0.200289994	0.265179992	-1.44819999	238	138	16
0.211459994	0.256799996	-1.4346	238	138	16
0.213300005	0.256370008	-1.43210006	238	138	16
0.204119995	0.256740004	-1.43420005	238	138	16
0.202710003	0.258940011	-1.43830001	238	138	16
0.199970007	0.25869	-1.43690002	238	138	16
0.197889999	0.258949995	-1.43840003	238	138	16
0.19833	0.260720015	-1.44009995	238	138	16
0.200849995	0.260809988	-1.44050002	238	138	16
0.195590004	0.260470003	-1.43859994	238	138	16
0.195150003	0.258700013	-1.43700004	238	138	16
0.192849994	0.258789986	-1.4375	238	138	16
0.190339997	0.258700013	-1.43700004	238	138	16
0.190760002	0.260470003	-1.43869996	238	138	16
0.188669994	0.260740012	-1.44009995	238	138	16
0.186360002	0.260829985	-1.44060004	238	138	16
0.184060007	0.260910004	-1.4411	238	138	16
0.184469998	0.262699991	-1.44280005	238	138	16
0.182160005	0.262789994	-1.44319999	238	138	16
0.179639995	0.262699991	-1.44280005	238	138	16
0.177129999	0.262609988	-1.44229996	238	138	16
0.17441	0.262349993	-1.44079995	238	138	16
0.172309995	0.262609988	-1.44219995	238	138	16
0.169990003	0.262690008	-1.44270003	238	138	16
0.167490005	0.262600005	-1.44219995	238	138	16
0.165370002	0.26286	-1.44360006	238	138	16
0.162670001	0.262589991	-1.44210005	238	138	16
0.162090003	0.260619998	-1.43949997	238	138	16
0.161709994	0.258850008	-1.43780005	238	138	16
0.15941	0.258929998	-1.43830001	238	138	16
0.156729996	0.258659989	-1.4368	238	138	16
0.154239997	0.258560002	-1.43620002	238	138	16
0.152119994	0.258819997	-1.43760002	238	138	16
0.149639994	0.258720011	-1.43710005	238	138	16
0.164199993	0.260369986	-1.43809998	238	138	16
0.166309997	0.25869	-1.43690002	238	138	16
0.168809995	0.258780003	-1.43739998	238	138	16
0.169009998	0.26038	-1.43809998	238	138	16
0.166899994	0.260630012	-1.43959999	238	138	16
0.171309993	0.258870006	-1.43789995	238	138	16
0.171709999	0.260639995	-1.43959999	238	138	16
0.173409998	0.260039985	-1.43630004	238	138	16
0.173409998	0.25861001	-1.43649995	238	138	16
0.163619995	0.258419991	-1.43540001	238	138	16
0.165329993	0.256410003	-1.43239999	238	138	16
0.167820007	0.256500006	-1.43289995	238	138	16
0.170110002	0.256419986	-1.43239999	238	138	16
0.172399998	0.256330013	-1.43190002	238	138	16
0.174689993	0.256249994	-1.43149996	238	138	16
0.186989993	0.262789994	-1.44319999	238	138	16
0.188250005	0.258969992	-1.43850005	238	138	16
0.193499997	0.260729998	-1.44009995	238	138	16
0.158989996	0.265080005	-1.44760001	238	138	16
0.157049999	0.266959995	-1.4497	238	138	16
0.154719993	0.267040014	-1.45009995	238	138	16
0.152030006	0.266759992	-1.44860005	238	138	16
0.14971	0.266840011	-1.449	238	138	16
0.14756	0.267100006	-1.45039999	238	138	16
0.145239994	0.267170012	-1.45079994	238	138	16
0.142910004	0.267250001	-1.45130002	238	138	16
0.143260002	0.269069999	-1.45290005	238	138	16
0.145590007	0.26899001	-1.45249999	238	138	16
0.148100004	0.269089997	-1.45309997	238	138	16
0.150800005	0.26936999	-1.45459998	238	138	16
0.140760005	0.268970013	-1.45239997	238	138	16
0.138769999	0.269400001	-1.45469999	238	138	16
0.135920003	0.268940002	-1.45220006	238	138	16
0.135580003	0.267120004	-1.45050001	238	138	16
0.135240003	0.265309989	-1.44889998	238	138	16
0.137559995	0.265240014	-1.44850004	238	138	16
0.139699996	0.264990002	-1.44710004	238	138	16
0.142199993	0.265089989	-1.44770002	238	138	16
0.144700006	0.265190005	-1.44819999	238	138	16
0.147019997	0.26512	-1.44780004	238	138	16
0.149159998	0.264860004	-1.44640005	238	138	16
0.151289999	0.264609993	-1.44500005	238	138	16
0.14023	0.266970009	-1.4497	238	138	16
0.138080001	0.26721999	-1.45109999	238	138	16
0.132740006	0.265210003	-1.4483	238	138	16
0.130250007	0.265100002	-1.44770002	238	138	16
0.12793	0.265170008	-1.44809997	238	138	16
0.125440001	0.265069991	-1.44749999	238	138	16
0.125770003	0.266869992	-1.44920003	238	138	16
0.123290002	0.266759992	-1.44860005	238	138	16
0.120959997	0.266829997	-1.449	238	138	16
0.118799999	0.267080009	-1.45029998	238	138	16
0.116470002	0.267140001	-1.45070004	238	138	16
0.115999997	0.265159994	-1.44799995	238	138	16
0.118479997	0.265269995	-1.44860005	238	138	16
0.120480001	0.264849991	-1.44630003	238	138	16
0.1228	0.264780015	-1.44599998	238	138	16
0.113360003	0.264869988	-1.44649994	238	138	16
0.110890001	0.264759988	-1.44589996	238	138	16
0.128429994	0.267159998	-1.45079994	238	138	16
0.128759995	0.268979996	-1.45239997	238	138	16
0.13109	0.268900007	-1.45200002	238	138	16
0.133420005	0.268830001	-1.45159996	238	138	16
0.133420005	0.267369986	-1.45190001	238	138	16
0.130590007	0.266909987	-1.44939995	238	138	16
0.126599997	0.269230008	-1.45379996	238	138	16
0.200560004	0.271809995	-1.45940006	238	138	16
0.212490007	0.271510005	-1.45770001	238	138	16
0.215059996	0.271589994	-1.45819998	238	138	16
0.21717	0.271310002	-1.45669997	238	138	16
0.219740003	0.271380007	-1.45710003	238	138	16
0.222310007	0.271459997	-1.45749998	238	138	16
0.226050004	0.275429994	-1.46210003	238	138	16
0.223930001	0.275709987	-1.46360004	238	138	16
0.221809998	0.275990009	-1.46510005	238	138	16
0.219219998	0.275920004	-1.46469998	238	138	16
0.216419995	0.275660008	-1.46340001	238	138	16
0.214070007	0.275759995	-1.46389997	238	138	16
0.211490005	0.275680006	-1.46350002	238	138	16
0.228400007	0.273820013	-1.46179998	238	138	16
0.230979994	0.273900002	-1.46220005	238	138	16
0.233329996	0.273790002	-1.46169996	238	138	16
0.236399993	0.27421999	-1.46399999	238	138	16
0.238989994	0.274289995	-1.46440005	238	138	16
0.241579995	0.274360001	-1.46469998	238	138	16
0.241830006	0.276039988	-1.46539998	238	138	16
0.242310002	0.277859986	-1.46700001	238	138	16
0.244670004	0.277749985	-1.46640003	238	138	16
0.247280002	0.277819991	-1.46679997	238	138	16
0.250129998	0.278059989	-1.46809995	238	138	16
0.243689999	0.275579989	-1.46290004	238	138	16
0.243450001	0.273900002	-1.46220005	238	138	16
0.245790005	0.273790002	-1.46169996	238	138	16
0.245790005	0.275290012	-1.46140003	238	138	16
0.247889996	0.273499995	-1.46010005	238	138	16
0.247390002	0.271649987	-1.45850003	238	138	16
0.249740005	0.271530002	-1.45790005	238	138	16
0.251819998	0.27125001	-1.45630002	238	138	16
0.24481	0.271580011	-1.45809996	238	138	16
0.242219999	0.271510005	-1.45780003	238	138	16
0.239879996	0.271620005	-1.45829999	238	138	16
0.237780005	0.271899998	-1.45990002	238	138	16
0.234950006	0.271649987	-1.45850003	238	138	16
0.248640001	0.27553001	-1.46270001	238	138	16
0.250990003	0.27392	-1.46239996	238	138	16
0.251489997	0.275779992	-1.46399999	238	138	16
0.253589988	0.273990005	-1.46270001	238	138	16
0.234280005	0.276010007	-1.46519995	238	138	16
0.231690004	0.275940001	-1.4648	238	138	16
0.229100004	0.275860012	-1.46440005	238	138	16
0.207450002	0.277869999	-1.46710002	238	138	16
0.210250005	0.278140008	-1.46850002	238	138	16
0.212830007	0.278219998	-1.46889997	238	138	16
0.215419993	0.278299987	-1.46940005	238	138	16
0.217779994	0.278200001	-1.46879995	238	138	16
0.220369995	0.278270006	-1.46920002	238	138	16
0.223419994	0.278710008	-1.47160006	238	138	16
0.225779995	0.278609991	-1.47099996	238	138	16
0.228379995	0.27869001	-1.47140002	238	138	16
0.195219994	0.277990013	-1.46780002	238	138	16
0.183819994	0.280209988	-1.47189999	238	138	16
0.145490006	0.282609999	-1.47679996	238	138	16
0.148750007	0.284920007	-1.48099995	238	138	16
0.149110004	0.286760002	-1.48259997	238	138	16
0.151490003	0.286680013	-1.48220003	238	138	16
0.151490003	0.285210013	-1.48249996	238	138	16
0.15388	0.285129994	-1.48210001	238	138	16
0.15388	0.286599994	-1.48179996	238	138	16
0.156269997	0.285050005	-1.48160005	238	138	16
0.158649996	0.284960002	-1.48119998	238	138	16
0.161219999	0.285059988	-1.48169994	238	138	16
0.156629995	0.28689	-1.48329997	238	138	16
0.159569994	0.287360013	-1.48570001	238	138	16
0.159940004	0.289220005	-1.48740005	238	138	16
0.157539994	0.289310008	-1.4878	238	138	16
0.154960006	0.289200008	-1.48730004	238	138	16
0.152390003	0.289099991	-1.48679996	238	138	16
0.149990007	0.289180011	-1.48720002	238	138	16
0.147770002	0.28944999	-1.48860002	238	138	16
0.145539999	0.289719999	-1.48989999	238	138	16
0.143309996	0.289990008	-1.49129999	238	138	16
0.14091	0.290069997	-1.49170005	238	138	16
0.138339996	0.289959997	-1.49119997	238	138	16
0.135429993	0.289469987	-1.48870003	238	138	16
0.133359998	0.291449994	-1.49070001	238	138	16
0.130960003	0.291530013	-1.49109995	238	138	16
0.128560007	0.291599989	-1.49150002	238	138	16
0.126310006	0.291869998	-1.4928	238	138	16
0.123899996	0.291940004	-1.49319994	238	138	16
0.1215	0.292019993	-1.49360001	238	138	16
0.119240001	0.292279989	-1.49489999	238	138	16
0.116680004	0.292160004	-1.49430001	238	138	16
0.113969997	0.291850001	-1.4928	238	138	16
0.111709997	0.292109996	-1.49409997	238	138	16
0.112159997	0.29429999	-1.49670005	238	138	16
0.114869997	0.294609994	-1.49829996	238	138	16
0.117749996	0.295109987	-1.50080001	238	138	16
0.120020002	0.294849992	-1.49950004	238	138	16
0.121969998	0.294200003	-1.49619997	238	138	16
0.124540001	0.294319987	-1.49679995	238	138	16
0.126949996	0.294239998	-1.4964	238	138	16
0.129360005	0.294169992	-1.49600005	238	138	16
0.131940007	0.294279993	-1.49660003	238	138	16
0.134350002	0.294200003	-1.49619997	238	138	16
0.137099996	0.294510007	-1.49769998	238	138	16
0.139349997	0.294239998	-1.4964	238	138	16
0.139180005	0.292430013	-1.4957	238	138	16
0.141760007	0.292540014	-1.49629998	238	138	16
0.144170001	0.292459995	-1.49590003	238	138	16
0.146589994	0.292380005	-1.49539995	238	138	16
0.148819998	0.292109996	-1.49409997	238	138	16
0.151409999	0.292210013	-1.49460006	238	138	16
0.153999999	0.292320013	-1.49510002	238	138	16
0.156770006	0.29260999	-1.49660003	238	138	16
0.158999994	0.29234001	-1.49520004	238	138	16
0.161410004	0.292250007	-1.49479997	238	138	16
0.164000005	0.292349994	-1.49530005	238	138	16
0.166419998	0.292270005	-1.49489999	238	138	16
0.168830007	0.292180002	-1.49440002	238	138	16
0.171240002	0.292089999	-1.49399996	238	138	16
0.173639998	0.291999996	-1.49349999	238	138	16
0.176050007	0.291909993	-1.49300003	238	138	16
0.178650007	0.291999996	-1.49349999	238	138	16
0.181060001	0.291909993	-1.49310005	238	138	16
0.183669999	0.292010009	-1.49349999	238	138	16
0.186079994	0.291909993	-1.49310005	238	138	16
0.188480005	0.29181999	-1.49259996	238	138	16
0.191090003	0.291909993	-1.49300003	238	138	16
0.193709999	0.291999996	-1.49349999	238	138	16
0.195910007	0.291709989	-1.49199998	238	138	16
0.195280001	0.289629996	-1.48950005	238	138	16
0.197889999	0.289709985	-1.48989999	238	138	16
0.200289994	0.289620012	-1.48940003	238	138	16
0.202900007	0.289700001	-1.48989999	238	138	16
0.205310002	0.289600015	-1.48930001	238	138	16
0.207489997	0.289310008	-1.48790002	238	138	16
0.209670007	0.289029986	-1.48640001	238	138	16
0.209230006	0.287169993	-1.48479998	238	138	16
0.211840004	0.288740009	-1.4849	238	138	16
0.21401	0.28696999	-1.48370004	238	138	16
0.216849998	0.287230015	-1.48510003	238	138	16
0.219689995	0.287499994	-1.48640001	238	138	16
0.222310007	0.287580013	-1.48689997	238	138	16
0.220359996	0.289539993	-1.48899996	238	138	16
0.21796	0.289649993	-1.48959994	238	138	16
0.215120003	0.289380014	-1.48819995	238	138	16
0.210960001	0.286509991	-1.48140001	238	138	16
0.206190005	0.286720008	-1.48239994	238	138	16
0.204019994	0.287	-1.48389995	238	138	16
0.201629996	0.287099987	-1.48440003	238	138	16
0.199239999	0.287200004	-1.4849	238	138	16
0.198809996	0.285360008	-1.48329997	238	138	16
0.196419999	0.285459995	-1.48380005	238	138	16
0.193829998	0.285369992	-1.48329997	238	138	16
0.194240004	0.287209988	-1.4849	238	138	16
0.191440001	0.286929995	-1.4835	238	138	16
0.188840002	0.286839992	-1.48310006	238	138	16
0.186450005	0.286940008	-1.4835	238	138	16
0.184269994	0.287220001	-1.48500001	238	138	16
0.181669995	0.287120014	-1.48450005	238	138	16
0.179089993	0.287030011	-1.48399997	238	138	16
0.176689997	0.287120014	-1.48450005	238	138	16
0.173910007	0.286839992	-1.48300004	238	138	16
0.173529997	0.284999996	-1.48140001	238	138	16
0.176109999	0.285089999	-1.48189998	238	138	16
0.178289995	0.28481999	-1.48039997	238	138	16
0.171330005	0.286740005	-1.48249996	238	138	16
0.168750003	0.286639988	-1.48199999	238	138	16
0.170760006	0.284720004	-1.4799	238	138	16
0.167989999	0.284429997	-1.47839999	238	138	16
0.166940004	0.287290007	-1.48539996	238	138	16
0.164350003	0.28718999	-1.4849	238	138	16
0.162330002	0.287649989	-1.48720002	238	138	16
0.162330002	0.289139986	-1.48689997	238	138	16
0.165099993	0.289420009	-1.48839998	238	138	16
0.167689994	0.289519995	-1.48889995	238	138	16
0.170090005	0.289429992	-1.4885	238	138	16
0.172490001	0.289350003	-1.48800004	238	138	16
0.175080001	0.289440006	-1.4885	238	138	16
0.177670002	0.289539993	-1.48899996	238	138	16
0.180270001	0.289629996	-1.48950005	238	138	16
0.182870001	0.289730012	-1.49000001	238	138	16
0.185269997	0.289629996	-1.48950005	238	138	16
0.187270001	0.289169997	-1.48710001	238	138	16
0.189250007	0.288700014	-1.48469996	238	138	16
0.190819994	0.284909993	-1.48090005	238	138	16
0.188030005	0.284630001	-1.47950006	238	138	16
0.185440004	0.284539998	-1.47899997	238	138	16
0.197260007	0.287669986	-1.48730004	238	138	16
0.200990006	0.285079986	-1.48179996	238	138	16
0.203370005	0.284979999	-1.4813	238	138	16
0.205320001	0.284509987	-1.47880006	238	138	16
0.207699999	0.28441	-1.47829998	238	138	16
0.209859997	0.284119993	-1.47679996	238	138	16
0.209639996	0.282480001	-1.47619998	238	138	16
0.212019995	0.282380015	-1.4756	238	138	16
0.212239996	0.284020007	-1.4763	238	138	16
0.207049996	0.282400012	-1.47570002	238	138	16
0.204889998	0.282680005	-1.47720003	238	138	16
0.202299997	0.282599986	-1.47679996	238	138	16
0.200139999	0.282880008	-1.47819996	238	138	16
0.197760001	0.282979995	-1.47870004	238	138	16
0.194959998	0.282709986	-1.47730005	238	138	16
0.192159995	0.282429993	-1.47590005	238	138	16
0.189380005	0.282160014	-1.47449994	238	138	16
0.192469999	0.289350003	-1.48800004	238	138	16
0.198939994	0.292180002	-1.49440002	238	138	16
0.201350003	0.292079985	-1.49389994	238	138	16
0.204180002	0.292349994	-1.49530005	238	138	16
0.206589997	0.292250007	-1.49479997	238	138	16
0.209000006	0.292149991	-1.49430001	238	138	16
0.211410001	0.292050004	-1.49370003	238	138	16
0.213819996	0.291940004	-1.49319994	238	138	16
0.216450006	0.292019993	-1.49360001	238	138	16
0.219080001	0.292109996	-1.49409997	238	138	16
0.221489996	0.291999996	-1.49349999	238	138	16
0.214479998	0.294120014	-1.49580002	238	138	16
0.212070003	0.294220001	-1.49629998	238	138	16
0.209649995	0.294330001	-1.49679995	238	138	16
0.207880005	0.294990003	-1.50020003	238	138	16
0.205459997	0.296629995	-1.50039995	238	138	16
0.203250006	0.296920002	-1.50189996	238	138	16
0.200200006	0.296449989	-1.49960005	238	138	16
0.199780002	0.294539988	-1.49790001	238	138	16
0.202399999	0.294629991	-1.49839997	238	138	16
0.204820007	0.294530004	-1.49790001	238	138	16
0.196940005	0.294270009	-1.49650002	238	138	16
0.194529995	0.294369996	-1.49699998	238	138	16
0.191909999	0.294270009	-1.49660003	238	138	16
0.189700007	0.294559985	-1.49800003	238	138	16
0.187279999	0.294660002	-1.49849999	238	138	16
0.184860006	0.294750005	-1.49899995	238	138	16
0.182050005	0.294470012	-1.49749994	238	138	16
0.179240003	0.294180006	-1.49609995	238	138	16
0.176630005	0.294090003	-1.49559999	238	138	16
0.174030006	0.293989986	-1.49510002	238	138	16
0.171619996	0.294079989	-1.49559999	238	138	16
0.169200003	0.294169992	-1.49600005	238	138	16
0.167170003	0.294640005	-1.49839997	238	138	16
0.167539999	0.296550006	-1.5	238	138	16
0.169960007	0.296460003	-1.49960005	238	138	16
0.172570005	0.296550006	-1.50010002	238	138	16
0.175569996	0.297030002	-1.50250006	238	138	16
0.1778	0.296750009	-1.50109994	238	138	16
0.180219993	0.296660006	-1.50059998	238	138	16
0.182840005	0.296750009	-1.50109994	238	138	16
0.178379998	0.298720002	-1.50370002	238	138	16
0.176149994	0.298999995	-1.50510001	238	138	16
0.173720002	0.299089998	-1.50559998	238	138	16
0.171279997	0.299190015	-1.50600004	238	138	16
0.168850005	0.299279988	-1.50650001	238	138	16
0.166419998	0.299369991	-1.50699997	238	138	16
0.163980007	0.299459994	-1.50740004	238	138	16
0.161369994	0.299349993	-1.50689995	238	138	16
0.158749998	0.299250007	-1.50639999	238	138	16
0.159109995	0.301090002	-1.50800002	238	138	16
0.156859994	0.301369995	-1.50940001	238	138	16
0.154420003	0.301450014	-1.50979996	238	138	16
0.152150005	0.301730007	-1.51119995	238	138	16
0.149540007	0.301620007	-1.51069999	238	138	16
0.147100002	0.30171001	-1.51110005	238	138	16
0.144480005	0.301600009	-1.51059997	238	138	16
0.141870007	0.301490009	-1.50999999	238	138	16
0.13944	0.301569998	-1.51040006	238	138	16
0.136989996	0.301649988	-1.5108	238	138	16
0.134719998	0.301919997	-1.5122	238	138	16
0.131950006	0.301609993	-1.51059997	238	138	16
0.12951	0.301690012	-1.51100004	238	138	16
0.127069995	0.301770002	-1.51139998	238	138	16
0.124619998	0.301840007	-1.51180005	238	138	16
0.121720001	0.301340014	-1.50929999	238	138	16
0.119280003	0.30140999	-1.50960004	238	138	16
0.118969999	0.299569994	-1.50800002	238	138	16
0.121250004	0.299299985	-1.50660002	238	138	16
0.123839997	0.299419999	-1.5072	238	138	16
0.126120001	0.29914999	-1.50590003	238	138	16
0.128869995	0.299459994	-1.50740004	238	138	16
0.13098	0.298999995	-1.50510001	238	138	16
0.133739993	0.299309999	-1.50670004	238	138	16
0.13617	0.299230009	-1.50629997	238	138	16
0.138769999	0.29934001	-1.50680006	238	138	16
0.141200006	0.29925999	-1.50639999	238	138	16
0.143629998	0.299180001	-1.50600004	238	138	16
0.146060005	0.299100012	-1.50559998	238	138	16
0.148499995	0.299010009	-1.50520003	238	138	16
0.148149997	0.297239989	-1.50349998	238	138	16
0.145720005	0.297320008	-1.50390005	238	138	16
0.143120006	0.297210008	-1.50339997	238	138	16
0.140359998	0.296909988	-1.50189996	238	138	16
0.137930006	0.296990007	-1.50230002	238	138	16
0.135340005	0.296869993	-1.50170004	238	138	16
0.132760003	0.296759993	-1.50109994	238	138	16
0.130009994	0.296460003	-1.49960005	238	138	16
0.127749994	0.296719998	-1.50090003	238	138	16
0.125489995	0.296990007	-1.50230002	238	138	16
0.123060003	0.297069997	-1.50269997	238	138	16
0.120789997	0.297329992	-1.50399995	238	138	16
0.118359998	0.297410011	-1.50440001	238	138	16
0.150580004	0.29855001	-1.50279999	238	138	16
0.150220007	0.296770006	-1.50119996	238	138	16
0.152649999	0.296689987	-1.5007	238	138	16
0.152290002	0.294779986	-1.49909997	238	138	16
0.154890001	0.294880003	-1.49969995	238	138	16
0.157309994	0.294800013	-1.49919999	238	138	16
0.159730002	0.29471001	-1.49880004	238	138	16
0.162330002	0.294809997	-1.4993	238	138	16
0.162509993	0.296530008	-1.5	238	138	16
0.164930001	0.296440005	-1.49950004	238	138	16
0.164930001	0.294919997	-1.49979997	238	138	16
0.160459995	0.296999991	-1.50230002	238	138	16
0.158030003	0.297089994	-1.50279999	238	138	16
0.155430004	0.296979994	-1.50220001	238	138	16
0.155959994	0.298949987	-1.50489998	238	138	16
0.153359994	0.29885	-1.5043	238	138	16
0.149519995	0.294479996	-1.49759996	238	138	16
0.146929994	0.294369996	-1.4971	238	138	16
0.14452	0.294459999	-1.49749994	238	138	16
0.142100006	0.294539988	-1.49790001	238	138	16
0.116690002	0.301290005	-1.50899994	238	138	16
0.114249997	0.301369995	-1.50940001	238	138	16
0.11152	0.301050007	-1.50779998	238	138	16
0.109229997	0.301310003	-1.50909996	238	138	16
0.106640004	0.301189989	-1.50849998	238	138	16
0.104489997	0.301649988	-1.5108	238	138	16
0.104780003	0.303629994	-1.51240003	238	138	16
0.107220002	0.303559989	-1.51209998	238	138	16
0.109810002	0.303680003	-1.51269996	238	138	16
0.112400003	0.303799987	-1.51329994	238	138	16
0.115000002	0.303930014	-1.51390004	238	138	16
0.117600001	0.304049999	-1.51450002	238	138	16
0.120200001	0.304170012	-1.5151	238	138	16
0.1228	0.304289997	-1.51569998	238	138	16
0.125249997	0.304210007	-1.51530004	238	138	16
0.127540007	0.303939998	-1.51400006	238	138	16
0.129989997	0.303860009	-1.51359999	238	138	16
0.132760003	0.304170012	-1.51520002	238	138	16
0.135370001	0.304289997	-1.51569998	238	138	16
0.137649998	0.304010004	-1.51440001	238	138	16
0.139939994	0.303739995	-1.51300001	238	138	16
0.142719999	0.304040015	-1.51450002	238	138	16
0.145339996	0.304159999	-1.5151	238	138	16
0.147780001	0.304069996	-1.51470006	238	138	16
0.150230005	0.303990006	-1.51419997	238	138	16
0.152850002	0.304100007	-1.51479995	238	138	16
0.155660003	0.304399997	-1.51629996	238	138	16
0.157930002	0.304120004	-1.51489997	238	138	16
0.1602	0.303829998	-1.51349998	238	138	16
0.162640005	0.303750008	-1.51300001	238	138	16
0.164719999	0.301679999	-1.51100004	238	138	16
0.167160004	0.301589996	-1.51049995	238	138	16
0.169980004	0.301880002	-1.51199996	238	138	16
0.172419995	0.301789999	-1.5115	238	138	16
0.174860001	0.301699996	-1.51110005	238	138	16
0.177489996	0.301800013	-1.51160002	238	138	16
0.17994	0.301699996	-1.51110005	238	138	16
0.180319995	0.303680003	-1.51269996	238	138	16
0.178460002	0.304349989	-1.51610005	238	138	16
0.175620005	0.304060012	-1.51460004	238	138	16
0.17317	0.304159999	-1.5151	238	138	16
0.170719996	0.304250002	-1.51549995	238	138	16
0.168270007	0.304340005	-1.51600003	238	138	16
0.165820003	0.304430008	-1.51639998	238	138	16
0.176390007	0.306419998	-1.51810002	238	138	16
0.173930004	0.306510001	-1.51859999	238	138	16
0.171849996	0.306989998	-1.52100003	238	138	16
0.169019997	0.306699991	-1.51950002	238	138	16
0.166559994	0.306789994	-1.51999998	238	138	16
0.167109996	0.30893001	-1.52250004	238	138	16
0.169949993	0.30923	-1.52400005	238	138	16
0.172409996	0.309139997	-1.52359998	238	138	16
0.172790006	0.311060011	-1.52520001	238	138	16
0.170320004	0.311150014	-1.52559996	238	138	16
0.167850003	0.311239988	-1.52610004	238	138	16
0.165560007	0.311529994	-1.52750003	238	138	16
0.162900001	0.311419994	-1.52699995	238	138	16
0.160789996	0.311910003	-1.52939999	238	138	16
0.157780007	0.31141001	-1.52690005	238	138	16
0.179230005	0.306710005	-1.51960003	238	138	16
0.181879997	0.306809992	-1.5201	238	138	16
0.184729993	0.307099998	-1.52149999	238	138	16
0.187189996	0.307000011	-1.52100003	238	138	16
0.161909997	0.301380008	-1.50950003	238	138	16
0.102329999	0.3037	-1.51279998	238	138	16
0.100029998	0.303959996	-1.51409996	238	138	16
0.0975779966	0.304030001	-1.51440001	238	138	16
0.0954009965	0.304479986	-1.51670003	238	138	16
0.0926809981	0.304159999	-1.5151	238	138	16
0.0900999978	0.304030001	-1.51440001	238	138	16
0.0873899981	0.3037	-1.51279998	238	138	16
0.181199998	0.299010009	-1.50510001	238	138	16
0.197980002	0.296739995	-1.50100005	238	138	16
0.195559993	0.296840012	-1.50150001	238	138	16
0.19314	0.296939999	-1.50199997	238	138	16
0.190919995	0.297230005	-1.50349998	238	138	16
0.18829	0.297129989	-1.50300002	238	138	16
0.186059996	0.297419995	-1.50450003	238	138	16
0.208529994	0.297089994	-1.50279999	238	138	16
0.206530005	0.298970014	-1.505	238	138	16
0.136429995	0.292129993	-1.49419999	238	138	16
0.116070002	0.289880008	-1.49080002	238	138	16
0.118620001	0.289999992	-1.4914	238	138	16
0.121030003	0.289920002	-1.49100006	238	138	16
0.123269998	0.289660007	-1.48959994	238	138	16
0.125670001	0.289590001	-1.48930001	238	138	16
0.127590001	0.288949996	-1.48599994	238	138	16
0.127430007	0.287279993	-1.48529994	238	138	16
0.129820004	0.287200004	-1.4849	238	138	16
0.129979998	0.288870007	-1.48559999	238	138	16
0.132369995	0.288800001	-1.48520005	238	138	16
0.132210001	0.287120014	-1.48450005	238	138	16
0.134770006	0.287239999	-1.48510003	238	138	16
0.136989996	0.28696999	-1.48370004	238	138	16
0.13955	0.28707999	-1.48430002	238	138	16
0.141939998	0.287	-1.48389995	238	138	16
0.144329995	0.286920011	-1.4835	238	138	16
0.146540001	0.286650002	-1.48210001	238	138	16
0.11321	0.289380014	-1.48819995	238	138	16
0.110809997	0.28944999	-1.48860002	238	138	16
0.108410001	0.289519995	-1.48889995	238	138	16
0.105719998	0.289209992	-1.48730004	238	138	16
0.103179999	0.289090008	-1.48670006	238	138	16
0.100929998	0.289339989	-1.48800004	238	138	16
0.0988100022	0.289790004	-1.49030006	238	138	16
0.0964080021	0.289849997	-1.49059999	238	138	16
0.0940060019	0.289920002	-1.49100006	238	138	16
0.0940060019	0.29144001	-1.49070001	238	138	16
0.0917380005	0.291700006	-1.49199998	238	138	16
0.0916019976	0.289979994	-1.49129999	238	138	16
0.089064002	0.289849997	-1.49059999	238	138	16
0.0893319994	0.291759998	-1.49230003	238	138	16
0.0869259983	0.29181999	-1.49259996	238	138	16
0.0841279998	0.291310012	-1.49000001	238	138	16
0.081983	0.291750014	-1.49220002	238	138	16
0.0794499964	0.291619986	-1.49160004	238	138	16
0.0770450011	0.291680008	-1.49189997	238	138	16
0.0742689967	0.291170001	-1.48930001	238	138	16
0.0740220025	0.28926	-1.48759997	238	138	16
0.0762939975	0.289020002	-1.48629999	238	138	16
0.0786880031	0.28896001	-1.48599994	238	138	16
0.08134	0.289279997	-1.48769999	238	138	16
0.0836059973	0.289029986	-1.48640001	238	138	16
0.0862649977	0.289350003	-1.48800004	238	138	16
0.0760430023	0.287149996	-1.48469996	238	138	16
0.0736510009	0.287209988	-1.48500001	238	138	16
0.0713810027	0.287459999	-1.48619998	238	138	16
0.0687469989	0.287129998	-1.48459995	238	138	16
0.0662370026	0.287	-1.48389995	238	138	16
0.0718690008	0.289700001	-1.48979998	238	138	16
0.0719899982	0.291409999	-1.49049997	238	138	16
0.0695869997	0.289950013	-1.49109995	238	138	16
0.0669469982	0.289620012	-1.48940003	238	138	16
0.0643130019	0.289299995	-1.4878	238	138	16
0.0619160011	0.289350003	-1.48800004	238	138	16
0.0595179982	0.289400011	-1.48829997	238	138	16
0.0571190007	0.28944999	-1.48860002	238	138	16
0.0966869965	0.291759998	-1.49230003	238	138	16
0.0990919992	0.291689992	-1.49189997	238	138	16
0.101499997	0.29163	-1.49160004	238	138	16
0.1039	0.291559994	-1.49129999	238	138	16
0.239759997	0.282499999	-1.47619998	238	138	16
0.242369995	0.282570004	-1.47660005	238	138	16
0.244990006	0.28264001	-1.477	238	138	16
0.247620001	0.282709986	-1.47730005	238	138	16
0.248349994	0.284720004	-1.4799	238	138	16
0.245969996	0.284830004	-1.48049998	238	138	16
0.243100002	0.284579992	-1.47920001	238	138	16
0.241160005	0.296620011	-1.50039995	238	138	16
0.21311	0.301739991	-1.51129997	238	138	16
0.187059999	0.299769998	-1.50899994	238	138	16
0.184619993	0.299870014	-1.50950003	238	138	16
0.223539993	0.301880002	-1.51199996	238	138	16
0.233309999	0.301440001	-1.50979996	238	138	16
0.235750005	0.30133	-1.50919998	238	138	16
0.238179997	0.301209986	-1.5086	238	138	16
0.232390001	0.299219996	-1.50619996	238	138	16
0.234589994	0.298920006	-1.50469995	238	138	16
0.237020001	0.298810005	-1.50409997	238	138	16
0.239680007	0.298880011	-1.50450003	238	138	16
0.234689996	0.304179996	-1.51520002	238	138	16
0.237369999	0.304250002	-1.51559997	238	138	16
0.219970003	0.306430012	-1.51820004	238	138	16
0.222650006	0.306510001	-1.51859999	238	138	16
0.225109994	0.306400001	-1.51800001	238	138	16
0.228009999	0.30667001	-1.5194	238	138	16
0.230690002	0.30675	-1.51979995	238	138	16
0.231150001	0.308699995	-1.52139997	238	138	16
0.228689998	0.308809996	-1.52199996	238	138	16
0.226219997	0.308919996	-1.52250004	238	138	16
0.224199995	0.30941999	-1.52499998	238	138	16
0.221509993	0.30934	-1.52460003	238	138	16
0.219050005	0.309450001	-1.52509999	238	138	16
0.219479993	0.311369985	-1.52670002	238	138	16
0.222169995	0.311450005	-1.52709997	238	138	16
0.224869996	0.311529994	-1.52750003	238	138	16
0.227559999	0.311619997	-1.52789998	238	138	16
0.230039999	0.311500013	-1.52740002	238	138	16
0.232280001	0.311190009	-1.52590001	238	138	16
0.22823	0.313679993	-1.53050005	238	138	16
0.22597	0.313989997	-1.53199995	238	138	16
0.22349	0.314099997	-1.53260005	238	138	16
0.22101	0.314209998	-1.53310001	238	138	16
0.218089998	0.313930005	-1.53170002	238	138	16
0.215399995	0.313840002	-1.53129995	238	138	16
0.212699994	0.313760012	-1.5309	238	138	16
0.210219994	0.313870013	-1.53139997	238	138	16
0.207739994	0.31397	-1.53190005	238	138	16
0.205050007	0.313879997	-1.53149998	238	138	16
0.202360004	0.313789994	-1.53100002	238	138	16
0.199880004	0.313899994	-1.5316	238	138	16
0.198009998	0.314590007	-1.53489995	238	138	16
0.195120007	0.314300001	-1.53349996	238	138	16
0.192640007	0.314399987	-1.53400004	238	138	16
0.198620006	0.316670001	-1.53750002	238	138	16
0.196129993	0.316780001	-1.53799999	238	138	16
0.193829998	0.317079991	-1.5395	238	138	16
0.190939993	0.316780001	-1.53799999	238	138	16
0.188449994	0.316879988	-1.53849995	238	138	16
0.185570002	0.316590011	-1.53709996	238	138	16
0.182879999	0.316489995	-1.53659999	238	138	16
0.180199996	0.316390008	-1.53610003	238	138	16
0.177709997	0.316489995	-1.53659999	238	138	16
0.178090006	0.318399996	-1.53820002	238	138	16
0.175779998	0.318699986	-1.53970003	238	138	16
0.175600007	0.316980004	-1.53900003	238	138	16
0.181160003	0.318899989	-1.54059994	238	138	16
0.184039995	0.319200009	-1.54209995	238	138	16
0.186729997	0.319299996	-1.54260004	238	138	16
0.189229995	0.319200009	-1.54209995	238	138	16
0.191729993	0.319090009	-1.54159999	238	138	16
0.194629997	0.319389999	-1.54299998	238	138	16
0.197129995	0.319290012	-1.54250002	238	138	16
0.19923	0.318780005	-1.54009998	238	138	16
0.201110005	0.318080008	-1.53670001	238	138	16
0.200910002	0.31637001	-1.53600001	238	138	16
0.203600004	0.316460013	-1.53649998	238	138	16
0.204009995	0.318370014	-1.5381	238	138	16
0.206090003	0.316359997	-1.53600001	238	138	16
0.208790004	0.31645	-1.53639996	238	138	16
0.211490005	0.316529989	-1.53680003	238	138	16
0.213770002	0.316229999	-1.53540003	238	138	16
0.216900006	0.316709995	-1.53770006	238	138	16
0.219390005	0.316599995	-1.53719997	238	138	16
0.221660003	0.316289991	-1.53569996	238	138	16
0.224150002	0.316179991	-1.53509998	238	138	16
0.226860002	0.31626001	-1.53550005	238	138	16
0.230020002	0.316740006	-1.53779995	238	138	16
0.227970004	0.318760008	-1.53999996	238	138	16
0.225470006	0.318879992	-1.54050004	238	138	16
0.222749993	0.318789989	-1.54009998	238	138	16
0.220469996	0.319099993	-1.54159999	238	138	16
0.217969999	0.319220006	-1.54219997	238	138	16
0.215049997	0.31893	-1.54079998	238	138	16
0.212339997	0.318839997	-1.54040003	238	138	16
0.209629998	0.318749994	-1.53989995	238	138	16
0.20713	0.318859994	-1.54050004	238	138	16
0.195230007	0.321520001	-1.54560006	238	138	16
0.192919999	0.321819991	-1.54700005	238	138	16
0.193309993	0.323769987	-1.54859996	238	138	16
0.190799996	0.323870003	-1.54910004	238	138	16
0.188089997	0.323769987	-1.54859996	238	138	16
0.188480005	0.32574001	-1.55019999	238	138	16
0.185959995	0.325839996	-1.55069995	238	138	16
0.18344	0.325940013	-1.55120003	238	138	16
0.181109995	0.326249987	-1.55260003	238	138	16
0.178220004	0.325940013	-1.55120003	238	138	16
0.178029999	0.324169993	-1.55060005	238	138	16
0.175699994	0.32604	-1.5517	238	138	16
0.173360005	0.32633999	-1.55309999	238	138	16
0.170839995	0.326440006	-1.55350006	238	138	16
0.168139994	0.326330006	-1.55299997	238	138	16
0.165079996	0.325819999	-1.55060005	238	138	16
0.162740007	0.326110005	-1.55200005	238	138	16
0.160569996	0.326609999	-1.55439997	238	138	16
0.158040002	0.326700002	-1.55480003	238	138	16
0.15535	0.326590002	-1.55429995	238	138	16
0.152649999	0.326480001	-1.55369997	238	138	16
0.150130004	0.326570004	-1.55420005	238	138	16
0.164539993	0.323639989	-1.54799998	238	138	16
0.162029997	0.323740005	-1.54849994	238	138	16
0.159339994	0.323630005	-1.54799998	238	138	16
0.157179996	0.324119985	-1.5503	238	138	16
0.167239994	0.323749989	-1.54849994	238	138	16
0.169750005	0.323659986	-1.54809999	238	138	16
0.172079995	0.323359996	-1.5467	238	138	16
0.174590006	0.323260009	-1.54620004	238	138	16
0.18017	0.32367	-1.54820001	238	138	16
0.182679996	0.323570013	-1.54770005	238	138	16
0.182490006	0.321819991	-1.54700005	238	138	16
0.185000002	0.321720004	-1.54659998	238	138	16
0.185000002	0.323269993	-1.54620004	238	138	16
0.187509999	0.321619987	-1.54610002	238	138	16
0.190019995	0.321520001	-1.54560006	238	138	16
0.191389993	0.32604	-1.5517	238	138	16
0.194100007	0.326139987	-1.55209994	238	138	16
0.196620002	0.326029986	-1.55159998	238	138	16
0.198740005	0.323960006	-1.54949999	238	138	16
0.201460004	0.324050009	-1.54999995	238	138	16
0.204180002	0.324149996	-1.55040002	238	138	16
0.206689999	0.324039996	-1.54990005	238	138	16
0.209000006	0.323729992	-1.54840004	238	138	16
0.211510003	0.323619992	-1.54789996	238	138	16
0.210889995	0.321469992	-1.54540002	238	138	16
0.208379999	0.321579993	-1.54589999	238	138	16
0.205870003	0.321689993	-1.54639995	238	138	16
0.203160003	0.32159999	-1.546	238	138	16
0.200240001	0.321310014	-1.54460001	238	138	16
0.198139995	0.321810007	-1.54700005	238	138	16
0.195830002	0.323659986	-1.54809999	238	138	16
0.213389993	0.321359992	-1.54480004	238	138	16
0.204429999	0.31182	-1.52890003	238	138	16
0.201539993	0.311529994	-1.52750003	238	138	16
0.198860005	0.311439991	-1.52709997	238	138	16
0.195779994	0.310959995	-1.52470005	238	138	16
0.195380002	0.30904001	-1.52310002	238	138	16
0.192910001	0.309139997	-1.52359998	238	138	16
0.198039994	0.309130013	-1.52349997	238	138	16
0.200509995	0.309029996	-1.523	238	138	16
0.202769995	0.308730006	-1.52160001	238	138	16
0.20544	0.308820009	-1.52199996	238	138	16
0.208110005	0.308910012	-1.52240002	238	138	16
0.210999995	0.309190005	-1.52380002	238	138	16
0.210999995	0.310719997	-1.52349997	238	138	16
0.208739996	0.311019987	-1.52499998	238	138	16
0.206269994	0.311129987	-1.52550006	238	138	16
0.213459998	0.309089988	-1.52330005	238	138	16
0.21593	0.308979988	-1.52279997	238	138	16
0.216360003	0.310889989	-1.5244	238	138	16
0.213890001	0.31099999	-1.52489996	238	138	16
0.193719998	0.311450005	-1.52709997	238	138	16
0.191239998	0.311549991	-1.52760005	238	138	16
0.23116	0.313950002	-1.53180003	238	138	16
0.233610004	0.308580011	-1.52079999	238	138	16
0.233380005	0.306829989	-1.52020001	238	138	16
0.236070007	0.306910008	-1.52059996	238	138	16
0.153459996	0.321260005	-1.54429996	238	138	16
0.15095	0.321350008	-1.54470003	238	138	16
0.148609996	0.321630001	-1.54610002	238	138	16
0.1461	0.321720004	-1.54659998	238	138	16
0.146439999	0.32367	-1.54820001	238	138	16
0.143759996	0.323559999	-1.54760003	238	138	16
0.141090006	0.323439986	-1.54709995	238	138	16
0.140760005	0.32148999	-1.54540002	238	138	16
0.143270001	0.32141	-1.54499996	238	138	16
0.13809	0.321370006	-1.54489994	238	138	16
0.135739997	0.321660012	-1.54620004	238	138	16
0.132919997	0.321339995	-1.54470003	238	138	16
0.130260006	0.321220011	-1.54410005	238	138	16
0.127440006	0.320899993	-1.54260004	238	138	16
0.12494	0.320980012	-1.54299998	238	138	16
0.12274	0.321460009	-1.54530001	238	138	16
0.120229997	0.321530014	-1.54569995	238	138	16
0.117870003	0.321810007	-1.54700005	238	138	16
0.115649998	0.322290003	-1.54929996	238	138	16
0.126980007	0.318769991	-1.53999996	238	138	16
0.129319996	0.318489999	-1.53859997	238	138	16
0.132290006	0.31900999	-1.54120004	238	138	16
0.134939998	0.319130003	-1.54170001	238	138	16
0.137600005	0.319240004	-1.54229999	238	138	16
0.139939994	0.318960011	-1.54089999	238	138	16
0.141949996	0.318280011	-1.53760004	238	138	16
0.144270003	0.317990005	-1.53620005	238	138	16
0.138899997	0.323929995	-1.54939997	238	138	16
0.126770005	0.326519996	-1.5539	238	138	16
0.123949997	0.326189995	-1.55239999	238	138	16
0.121430002	0.326270014	-1.55270004	238	138	16
0.11891	0.326350003	-1.55309999	238	138	16
0.103210002	0.325980008	-1.55139995	238	138	16
0.0956529975	0.326189995	-1.55239999	238	138	16
0.093001999	0.326059997	-1.5517	238	138	16
0.0990649983	0.318980008	-1.54100001	238	138	16
0.101290002	0.318509996	-1.5388	238	138	16
0.101149999	0.316790015	-1.5381	238	138	16
0.098522	0.316659987	-1.53750002	238	138	16
0.0960299969	0.316729993	-1.53779995	238	138	16
0.103780001	0.316920012	-1.53869998	238	138	16
0.103780001	0.31843999	-1.53840005	238	138	16
0.106420003	0.318569988	-1.53900003	238	138	16
0.106279999	0.316850007	-1.53840005	238	138	16
0.108910002	0.316980004	-1.53900003	238	138	16
0.109200001	0.318899989	-1.54059994	238	138	16
0.112130001	0.319429994	-1.54320002	238	138	16
0.114629999	0.319350004	-1.54279995	238	138	16
0.117129996	0.319279999	-1.54250002	238	138	16
0.119479999	0.319000006	-1.54110003	238	138	16
0.121979997	0.318919986	-1.54079998	238	138	16
0.11112	0.316509992	-1.53670001	238	138	16
0.113750003	0.316630006	-1.53729999	238	138	16
0.11654	0.316960007	-1.53890002	238	138	16
0.118890002	0.316680014	-1.53760004	238	138	16
0.121380001	0.316610008	-1.53719997	238	138	16
0.123709999	0.316329986	-1.5359	238	138	16
0.12387	0.318049997	-1.53649998	238	138	16
0.0914359987	0.318989992	-1.54110003	238	138	16
0.0888080001	0.318850011	-1.54040003	238	138	16
0.0863099992	0.318919986	-1.54069996	238	138	16
0.0838119984	0.318980008	-1.54100001	238	138	16
0.0810659975	0.318639994	-1.53939998	238	138	16
0.0785700008	0.318709999	-1.53970003	238	138	16
0.0761929974	0.318969995	-1.54100001	238	138	16
0.0738129988	0.31922999	-1.54219997	238	138	16
0.0713120028	0.319290012	-1.54250002	238	138	16
0.0689250007	0.321079999	-1.54349995	238	138	16
0.0664210021	0.321139991	-1.54369998	238	138	16
0.0638059974	0.320989996	-1.54299998	238	138	16
0.0613019988	0.321049988	-1.54330003	238	138	16
0.0589069985	0.321310014	-1.54460001	238	138	16
0.0564009994	0.321359992	-1.54480004	238	138	16
0.0537899993	0.321209997	-1.54410005	238	138	16
0.0538950004	0.322959989	-1.54480004	238	138	16
0.0513879992	0.321469992	-1.54530001	238	138	16
0.0489820018	0.321729988	-1.54659998	238	138	16
0.0464730002	0.321779996	-1.54680002	238	138	16
0.0437679999	0.321420014	-1.54509997	238	138	16
0.0410699993	0.321069986	-1.54340005	238	138	16
0.038660001	0.321319997	-1.54460001	238	138	16
0.0360619985	0.321159989	-1.54390001	238	138	16
0.0335570015	0.321209997	-1.54410005	238	138	16
0.0310520008	0.321260005	-1.54429996	238	138	16
0.0282860007	0.320690006	-1.54159999	238	138	16
0.0281119999	0.318760008	-1.53999996	238	138	16
0.0306969993	0.318919986	-1.54069996	238	138	16
0.0332860015	0.319070011	-1.54149997	238	138	16
0.0355999991	0.318619996	-1.53929996	238	138	16
0.0380959995	0.318580002	-1.53910005	238	138	16
0.0406860001	0.318729997	-1.53980005	238	138	16
0.0431829989	0.318679988	-1.53960001	238	138	16
0.0455790013	0.318430007	-1.53840005	238	138	16
0.0481740013	0.318580002	-1.53910005	238	138	16
0.0479720011	0.316659987	-1.53750002	238	138	16
0.0452810004	0.316309988	-1.53579998	238	138	16
0.0427919999	0.316359997	-1.53600001	238	138	16
0.0403029993	0.316410005	-1.53620005	238	138	16
0.0502579994	0.316210002	-1.53530002	238	138	16
0.0528500006	0.316359997	-1.53600001	238	138	16
0.0552330017	0.316100001	-1.53470004	238	138	16
0.0579349995	0.31645	-1.53639996	238	138	16
0.0603150018	0.316190004	-1.5352	238	138	16
0.062913999	0.316339999	-1.5359	238	138	16
0.0654029995	0.316280007	-1.53559995	238	138	16
0.0678910017	0.316219985	-1.53530002	238	138	16
0.070262	0.315970004	-1.53410006	238	138	16
0.0727469996	0.315910012	-1.53380001	238	138	16
0.0753529966	0.316049993	-1.5345	238	138	16
0.077839002	0.315979987	-1.53419995	238	138	16
0.0803240016	0.315919995	-1.53390002	238	138	16
0.0828090012	0.315860003	-1.53359997	238	138	16
0.0856750011	0.316399992	-1.53620005	238	138	16
0.0881640017	0.316329986	-1.5359	238	138	16
0.090783	0.316469997	-1.53649998	238	138	16
0.0657420009	0.318399996	-1.53820002	238	138	16
0.063248001	0.318459988	-1.53849995	238	138	16
0.0607540011	0.318509996	-1.5388	238	138	16
0.0584749989	0.318969995	-1.54100001	238	138	16
0.0556569993	0.318419993	-1.53830004	238	138	16
0.0532680005	0.318679988	-1.53960001	238	138	16
0.0506689996	0.318529993	-1.5388	238	138	16
0.0685800016	0.318949997	-1.54089999	238	138	16
0.0255290009	0.318599999	-1.53919995	238	138	16
0.0230340008	0.318650007	-1.53939998	238	138	16
0.0206199996	0.318890005	-1.54059994	238	138	16
0.0181220006	0.31893	-1.54079998	238	138	16
0.0156230005	0.318969995	-1.54100001	238	138	16
0.0259559993	0.321139991	-1.5438	238	138	16
0.0233679991	0.320980012	-1.54299998	238	138	16
0.0211110003	0.321630001	-1.54610002	238	138	16
0.0186030008	0.321669996	-1.54630005	238	138	16
0.0159370005	0.321310014	-1.54460001	238	138	16
0.0133539997	0.321150005	-1.5438	238	138	16
0.0107000005	0.320780009	-1.54200006	238	138	16
0.00834560022	0.321220011	-1.54419994	238	138	16
0.00591209996	0.321460009	-1.54530001	238	138	16
0.00333540002	0.3213	-1.54449999	238	138	16
0.000965759973	0.321740001	-1.54659998	238	138	16
0.00110170001	0.323689997	-1.54830003	238	138	16
-0.0013449	0.323929995	-1.54939997	238	138	16
-0.00392419985	0.323760003	-1.54859996	238	138	16
-0.00656320015	0.323379993	-1.54680002	238	138	16
-0.0091343997	0.323210001	-1.546	238	138	16
-0.0116429999	0.323240012	-1.54610002	238	138	16
-0.014095	0.32348001	-1.54719996	238	138	16
-0.0167169999	0.323100001	-1.54540002	238	138	16
-0.0190629996	0.323740005	-1.54849994	238	138	16
-0.0215760004	0.323769987	-1.54859996	238	138	16
-0.0240390003	0.324000001	-1.54970002	238	138	16
-0.0265539996	0.324019998	-1.54980004	238	138	16
-0.0291169994	0.323839992	-1.54900002	238	138	16
-0.0316760018	0.323659986	-1.54809999	238	138	16
-0.0341890007	0.323689997	-1.54820001	238	138	16
