-0.749970019	-0.500029981	-1.52160001	253	107	82
-0.747009993	-0.500100017	-1.52180004	253	107	82
-0.746599972	-0.501489997	-1.52040005	253	107	82
-0.74405998	-0.500169992	-1.52199996	253	107	82
-0.743250012	-0.501269996	-1.51979995	253	107	82
-0.740700006	-0.501619995	-1.52079999	253	107	82
-0.741100013	-0.500230014	-1.52219999	253	107	82
-0.739489973	-0.502120018	-1.51779997	253	107	82
-0.741630018	-0.501479983	-1.5158	253	107	82
-0.740819991	-0.502399981	-1.51359999	253	107	82
-0.740819991	-0.504050016	-1.51300001	253	107	82
-0.74000001	-0.504830003	-1.51090002	253	107	82
-0.737869978	-0.505479991	-1.51279998	253	107	82
-0.737469971	-0.506699979	-1.51139998	253	107	82
-0.735339999	-0.507340014	-1.51329994	253	107	82
-0.734939992	-0.505540013	-1.51300001	253	107	82
-0.734529972	-0.503889978	-1.51259995	253	107	82
-0.733730018	-0.501670003	-1.51139998	253	107	82
-0.736660004	-0.501600027	-1.51119995	253	107	82
-0.731599987	-0.50395	-1.51279998	253	107	82
-0.7324	-0.502879977	-1.51499999	253	107	82
-0.730660021	-0.503809988	-1.51779997	253	107	82
-0.730260015	-0.500660002	-1.51789999	253	107	82
-0.731850028	-0.503170013	-1.52090001	253	107	82
-0.733200014	-0.506470025	-1.5158	253	107	82
-0.732800007	-0.507700026	-1.51440001	253	107	82
-0.731599987	-0.508340001	-1.51129997	253	107	82
-0.729460001	-0.505949974	-1.51419997	253	107	82
-0.728659987	-0.504010022	-1.51289999	253	107	82
-0.725329995	-0.503780007	-1.5122	253	107	82
-0.725329995	-0.505140007	-1.51180005	253	107	82
-0.724539995	-0.506070018	-1.50950003	253	107	82
-0.724940002	-0.507870018	-1.50989997	253	107	82
-0.722010016	-0.507920027	-1.51010001	253	107	82
-0.72161001	-0.506120026	-1.50969994	253	107	82
-0.719079971	-0.506470025	-1.51069999	253	107	82
-0.717899978	-0.507099986	-1.50759995	253	107	82
-0.717899978	-0.50861001	-1.50709999	253	107	82
-0.717109978	-0.509549975	-1.50479996	253	107	82
-0.716719985	-0.510770023	-1.50349998	253	107	82
-0.716319978	-0.511979997	-1.50209999	253	107	82
-0.715529978	-0.512880027	-1.49979997	253	107	82
-0.715529978	-0.514379978	-1.4993	253	107	82
-0.718050003	-0.51402998	-1.49829996	253	107	82
-0.71766001	-0.512229979	-1.49790001	253	107	82
-0.720570028	-0.512179971	-1.49779999	253	107	82
-0.720960021	-0.51098001	-1.49919999	253	107	82
-0.718840003	-0.511629999	-1.50109994	253	107	82
-0.719630003	-0.510720015	-1.50329995	253	107	82
-0.720420003	-0.509790003	-1.50559998	253	107	82
-0.720420003	-0.508260012	-1.50610006	253	107	82
-0.722949982	-0.507910013	-1.505	253	107	82
-0.722949982	-0.509440005	-1.50450003	253	107	82
-0.722159982	-0.510370016	-1.50230002	253	107	82
-0.72507	-0.510309994	-1.50209999	253	107	82
-0.724680007	-0.511510015	-1.5007	253	107	82
-0.727590024	-0.512960017	-1.5	253	107	82
-0.727989972	-0.511749983	-1.50139999	253	107	82
-0.728399992	-0.510550022	-1.50279999	253	107	82
-0.728799999	-0.509320021	-1.50419998	253	107	82
-0.729600012	-0.508379996	-1.50639999	253	107	82
-0.731719971	-0.509259999	-1.50399995	253	107	82
-0.731320024	-0.507449985	-1.5036	253	107	82
-0.731320024	-0.51049	-1.50259995	253	107	82
-0.730920017	-0.511690021	-1.50119996	253	107	82
-0.734239995	-0.511919975	-1.50189996	253	107	82
-0.735050023	-0.511009991	-1.50419998	253	107	82
-0.734650016	-0.509199977	-1.50380003	253	107	82
-0.735450029	-0.508260012	-1.50610006	253	107	82
-0.736259997	-0.50733	-1.50829995	253	107	82
-0.738789976	-0.506980002	-1.5072	253	107	82
-0.738380015	-0.505180001	-1.50689995	253	107	82
-0.737980008	-0.5079	-1.505	253	107	82
-0.737980008	-0.509429991	-1.50450003	253	107	82
-0.738789976	-0.511529982	-1.50569999	253	107	82
-0.741320014	-0.51117003	-1.50460005	253	107	82
-0.740909994	-0.509360015	-1.5043	253	107	82
-0.741320014	-0.508130014	-1.50569999	253	107	82
-0.743839979	-0.50928998	-1.50409997	253	107	82
-0.743430018	-0.510519981	-1.50269997	253	107	82
-0.745949984	-0.508639991	-1.50220001	253	107	82
-0.747179985	-0.507990003	-1.50530005	253	107	82
-0.74466002	-0.508350015	-1.50629997	253	107	82
-0.745880008	-0.507719994	-1.50940001	253	107	82
-0.745469987	-0.505919993	-1.50909996	253	107	82
-0.746290028	-0.504989982	-1.51129997	253	107	82
-0.746699989	-0.503920019	-1.51259995	253	107	82
-0.749230027	-0.503560007	-1.51160002	253	107	82
-0.749230027	-0.504920006	-1.51110005	253	107	82
-0.748820007	-0.506139994	-1.50969994	253	107	82
-0.748409986	-0.507350028	-1.50839996	253	107	82
-0.750119984	-0.504909992	-1.50610006	253	107	82
-0.749230027	-0.501909971	-1.51209998	253	107	82
-0.750460029	-0.50128001	-1.51520002	253	107	82
-0.747919977	-0.501630008	-1.51629996	253	107	82
-0.747919977	-0.500270009	-1.51670003	253	107	82
-0.747919977	-0.503130019	-1.5158	253	107	82
-0.744570017	-0.501420021	-1.51559997	253	107	82
-0.744159997	-0.502619982	-1.51429999	253	107	82
-0.744159997	-0.504270017	-1.51370001	253	107	82
-0.742940009	-0.504769981	-1.51069999	253	107	82
-0.741720021	-0.505410016	-1.50759995	253	107	82
-0.75128001	-0.498820007	-1.51789999	253	107	82
-0.744159997	-0.508660018	-1.5122	253	107	82
-0.737569988	-0.51214999	-1.50259995	253	107	82
-0.739279985	-0.511200011	-1.49979997	253	107	82
-0.74138999	-0.510550022	-1.49790001	253	107	82
-0.740980029	-0.511749983	-1.49650002	253	107	82
-0.740980029	-0.51323998	-1.49600005	253	107	82
-0.738470018	-0.513610005	-1.4971	253	107	82
-0.738059998	-0.511820018	-1.49670005	253	107	82
-0.735949993	-0.513970017	-1.49810004	253	107	82
-0.734740019	-0.511590004	-1.49600005	253	107	82
-0.732219994	-0.511940002	-1.4971	253	107	82
-0.731819987	-0.513140023	-1.4957	253	107	82
-0.731419981	-0.514330029	-1.49430001	253	107	82
-0.732219994	-0.516349971	-1.49559999	253	107	82
-0.731819987	-0.517490029	-1.49419999	253	107	82
-0.729709983	-0.518149972	-1.49609995	253	107	82
-0.729309976	-0.516409993	-1.49580002	253	107	82
-0.733929992	-0.516820014	-1.49230003	253	107	82
-0.734740019	-0.515980005	-1.49450004	253	107	82
-0.734329998	-0.514259994	-1.49409997	253	107	82
-0.73724997	-0.514199972	-1.49399996	253	107	82
-0.73684001	-0.515320003	-1.49259996	253	107	82
-0.738940001	-0.514660001	-1.49070001	253	107	82
-0.735620022	-0.515860021	-1.48950005	253	107	82
-0.732710004	-0.517490029	-1.4892	253	107	82
-0.731899977	-0.518440008	-1.48689997	253	107	82
-0.73150003	-0.519630015	-1.48549998	253	107	82
-0.73150003	-0.521099985	-1.48500001	253	107	82
-0.730690002	-0.521899998	-1.48280001	253	107	82
-0.728190005	-0.520860016	-1.48430002	253	107	82
-0.728590012	-0.519689977	-1.48570001	253	107	82
-0.729399979	-0.518809974	-1.48790002	253	107	82
-0.730210006	-0.517859995	-1.49020004	253	107	82
-0.728100002	-0.518519998	-1.4921	253	107	82
-0.725589991	-0.51888001	-1.49319994	253	107	82
-0.725589991	-0.517310023	-1.49370003	253	107	82
-0.725589991	-0.515869975	-1.49419999	253	107	82
-0.725989997	-0.51327002	-1.49609995	253	107	82
-0.723079979	-0.513320029	-1.49619997	253	107	82
-0.723079979	-0.511829972	-1.49670005	253	107	82
-0.727699995	-0.512319982	-1.49329996	253	107	82
-0.727699995	-0.513790011	-1.4928	253	107	82
-0.72438997	-0.513549984	-1.4921	253	107	82
-0.721490026	-0.513610005	-1.49230003	253	107	82
-0.721880019	-0.515330017	-1.49259996	253	107	82
-0.722280025	-0.517069995	-1.49300003	253	107	82
-0.719380021	-0.514259994	-1.49409997	253	107	82
-0.718580008	-0.515089989	-1.49189997	253	107	82
-0.718580008	-0.516520023	-1.4914	253	107	82
-0.716069996	-0.516879976	-1.49240005	253	107	82
-0.716069996	-0.515439987	-1.49290001	253	107	82
-0.716859996	-0.514620006	-1.49520004	253	107	82
-0.715680003	-0.518149972	-1.49100006	253	107	82
-0.713169992	-0.51849997	-1.4921	253	107	82
-0.712779999	-0.516629994	-1.49170005	253	107	82
-0.712779999	-0.515190005	-1.49220002	253	107	82
-0.711989999	-0.513170004	-1.49100006	253	107	82
-0.709479988	-0.514940023	-1.49150002	253	107	82
-0.708700001	-0.512920022	-1.49030006	253	107	82
-0.706589997	-0.513570011	-1.4921	253	107	82
-0.707369983	-0.515590012	-1.49339998	253	107	82
-0.707369983	-0.517030001	-1.49290001	253	107	82
-0.710269988	-0.516979992	-1.49269998	253	107	82
-0.704469979	-0.514219999	-1.49399996	253	107	82
-0.703689992	-0.51503998	-1.49179995	253	107	82
-0.703689992	-0.516470015	-1.49129999	253	107	82
-0.703689992	-0.518040001	-1.49070001	253	107	82
-0.705410004	-0.517090023	-1.48800004	253	107	82
-0.704630017	-0.518029988	-1.48570001	253	107	82
-0.70502001	-0.519819975	-1.48609996	253	107	82
-0.707520008	-0.51797998	-1.48559999	253	107	82
-0.708310008	-0.52007997	-1.48679996	253	107	82
-0.710409999	-0.519420028	-1.4849	253	107	82
-0.711199999	-0.518540025	-1.48720002	253	107	82
-0.714100003	-0.518490016	-1.48699999	253	107	82
-0.714489996	-0.520280004	-1.48740005	253	107	82
-0.717390001	-0.520219982	-1.48720002	253	107	82
-0.716600001	-0.518130004	-1.48599994	253	107	82
-0.716989994	-0.516889989	-1.48740005	253	107	82
-0.719489992	-0.518079996	-1.48590004	253	107	82
-0.719889998	-0.519869983	-1.48619998	253	107	82
-0.720290005	-0.521640003	-1.48650002	253	107	82
-0.722790003	-0.521279991	-1.48549998	253	107	82
-0.722389996	-0.519509971	-1.48520005	253	107	82
-0.722389996	-0.518019974	-1.48570001	253	107	82
-0.724479973	-0.518840015	-1.48329997	253	107	82
-0.72529	-0.520919979	-1.48450005	253	107	82
-0.72529	-0.522329986	-1.48399997	253	107	82
-0.727379978	-0.52165997	-1.48210001	253	107	82
-0.726090014	-0.518570006	-1.48720002	253	107	82
-0.720690012	-0.517430007	-1.48899996	253	107	82
-0.721589983	-0.521780014	-1.48239994	253	107	82
-0.720390022	-0.522289991	-1.47930002	253	107	82
-0.720390022	-0.523829997	-1.47880006	253	107	82
-0.717899978	-0.524190009	-1.47979999	253	107	82
-0.717899978	-0.522650003	-1.48039997	253	107	82
-0.717499971	-0.520919979	-1.48000002	253	107	82
-0.715009987	-0.522710025	-1.48049998	253	107	82
-0.715399981	-0.524550021	-1.48080003	253	107	82
-0.714209974	-0.520669997	-1.47930002	253	107	82
-0.71171999	-0.521030009	-1.48029995	253	107	82
-0.711329997	-0.52214998	-1.47889996	253	107	82
-0.71092999	-0.523379982	-1.47749996	253	107	82
-0.708840013	-0.524039984	-1.47940004	253	107	82
-0.708840013	-0.525550008	-1.47889996	253	107	82
-0.706340015	-0.52591002	-1.4799	253	107	82
-0.705169976	-0.526390016	-1.47679996	253	107	82
-0.707650006	-0.526030004	-1.47580004	253	107	82
-0.71013999	-0.525669992	-1.47479999	253	107	82
-0.70934999	-0.523660004	-1.47350001	253	107	82
-0.71183002	-0.523299992	-1.47249997	253	107	82
-0.712230027	-0.52500999	-1.47290003	253	107	82
-0.71262002	-0.526730001	-1.47319996	253	107	82
-0.715110004	-0.526359975	-1.47220004	253	107	82
-0.715499997	-0.528159976	-1.47259998	253	107	82
-0.718389988	-0.528110027	-1.47239995	253	107	82
-0.718789995	-0.526920021	-1.47379994	253	107	82
-0.718789995	-0.525510013	-1.47430003	253	107	82
-0.719190001	-0.524420023	-1.47570002	253	107	82
-0.722069979	-0.524360001	-1.47549999	253	107	82
-0.722469985	-0.523159981	-1.47689998	253	107	82
-0.722880006	-0.521929979	-1.47829998	253	107	82
-0.724960029	-0.521260023	-1.47640002	253	107	82
-0.724150002	-0.522180021	-1.47409999	253	107	82
-0.724560022	-0.523989975	-1.47449994	253	107	82
-0.723349988	-0.524469972	-1.47140002	253	107	82
-0.722940028	-0.525579989	-1.47000003	253	107	82
-0.722140014	-0.526449978	-1.46780002	253	107	82
-0.720059991	-0.527119994	-1.46969998	253	107	82
-0.721270025	-0.526560009	-1.47280002	253	107	82
-0.721270025	-0.525150001	-1.47329998	253	107	82
-0.718859971	-0.52767998	-1.46650004	253	107	82
-0.718460023	-0.528900027	-1.46510005	253	107	82
-0.717649996	-0.529770017	-1.46290004	253	107	82
-0.719309986	-0.528779984	-1.46010005	253	107	82
-0.714380026	-0.530900002	-1.46169996	253	107	82
-0.711910009	-0.531270027	-1.46270001	253	107	82
-0.712710023	-0.530499995	-1.46490002	253	107	82
-0.713509977	-0.529630005	-1.46720004	253	107	82
-0.712710023	-0.527480006	-1.46599996	253	107	82
-0.710240006	-0.527849972	-1.46700001	253	107	82
-0.710640013	-0.529680014	-1.46730006	253	107	82
-0.70776999	-0.528209984	-1.46800005	253	107	82
-0.70776999	-0.526719987	-1.46850002	253	107	82
-0.70529002	-0.527079999	-1.46949995	253	107	82
-0.704900026	-0.528259993	-1.46809995	253	107	82
-0.704900026	-0.529779971	-1.46759999	253	107	82
-0.707369983	-0.529420018	-1.46659994	253	107	82
-0.702419996	-0.530139983	-1.46860003	253	107	82
-0.702030003	-0.52680999	-1.46879995	253	107	82
-0.702419996	-0.525640011	-1.47019994	253	107	82
-0.699549973	-0.527170002	-1.4698	253	107	82
-0.697070003	-0.527520001	-1.47080004	253	107	82
-0.697849989	-0.526660025	-1.47300005	253	107	82
-0.698629975	-0.525860012	-1.47529995	253	107	82
-0.697849989	-0.52384001	-1.47399998	253	107	82
-0.695760012	-0.524500012	-1.47590005	253	107	82
-0.696139991	-0.52621001	-1.4763	253	107	82
-0.695760012	-0.527320027	-1.47490001	253	107	82
-0.693270028	-0.526260018	-1.47640002	253	107	82
-0.693650007	-0.525160015	-1.47780001	253	107	82
-0.69404	-0.523959994	-1.47920001	253	107	82
-0.693650007	-0.522109985	-1.47880006	253	107	82
-0.691550016	-0.521340013	-1.48119998	253	107	82
-0.689440012	-0.520579994	-1.4835	253	107	82
-0.689440012	-0.519110024	-1.48399997	253	107	82
-0.689819992	-0.517929971	-1.48539996	253	107	82
-0.690199971	-0.516690016	-1.48679996	253	107	82
-0.688080013	-0.517329991	-1.48870003	253	107	82
-0.687319994	-0.518270016	-1.48640001	253	107	82
-0.687319994	-0.519760013	-1.48590004	253	107	82
-0.686559975	-0.520619988	-1.48360002	253	107	82
-0.684059978	-0.520959973	-1.48459995	253	107	82
-0.684440017	-0.519789994	-1.48599994	253	107	82
-0.684440017	-0.51831001	-1.48650002	253	107	82
-0.681940019	-0.518639982	-1.48749995	253	107	82
-0.682319999	-0.520439982	-1.4878	253	107	82
-0.68155998	-0.521300018	-1.48559999	253	107	82
-0.680429995	-0.521790028	-1.48239994	253	107	82
-0.679669976	-0.522589982	-1.48020005	253	107	82
-0.678919971	-0.523509979	-1.47790003	253	107	82
-0.676050007	-0.52354002	-1.47800004	253	107	82
-0.675300002	-0.524429977	-1.47570002	253	107	82
-0.677789986	-0.524089992	-1.47479999	253	107	82
-0.677030027	-0.524879992	-1.47249997	253	107	82
-0.677030027	-0.526289999	-1.472	253	107	82
-0.676649988	-0.527459979	-1.47060001	253	107	82
-0.676270008	-0.528639972	-1.46920002	253	107	82
-0.673799992	-0.528980017	-1.47010005	253	107	82
-0.674170017	-0.527800024	-1.47160006	253	107	82
-0.674170017	-0.526310027	-1.47210002	253	107	82
-0.674170017	-0.524900019	-1.47259998	253	107	82
-0.671689987	-0.526650012	-1.47300005	253	107	82
-0.671320021	-0.527830005	-1.47160006	253	107	82
-0.671320021	-0.529320002	-1.47109997	253	107	82
-0.668829978	-0.526679993	-1.47309995	253	107	82
-0.669950008	-0.526199996	-1.47619998	253	107	82
-0.669579983	-0.524479985	-1.47590005	253	107	82
-0.670329988	-0.523599982	-1.47809994	253	107	82
-0.67106998	-0.522679985	-1.48039997	253	107	82
-0.671819985	-0.521870017	-1.48269999	253	107	82
-0.671450019	-0.520150006	-1.48230004	253	107	82
-0.668950021	-0.520479977	-1.48329997	253	107	82
-0.669690013	-0.519630015	-1.48549998	253	107	82
-0.670059979	-0.518450022	-1.48689997	253	107	82
-0.670440018	-0.517199993	-1.48829997	253	107	82
-0.670440018	-0.51564002	-1.48889995	253	107	82
-0.667930007	-0.515969992	-1.48979998	253	107	82
-0.667930007	-0.517530024	-1.48930001	253	107	82
-0.667559981	-0.518779993	-1.48790002	253	107	82
-0.665430009	-0.519410014	-1.48969996	253	107	82
-0.665799975	-0.518159986	-1.49109995	253	107	82
-0.665430009	-0.516290009	-1.49080002	253	107	82
-0.665430009	-0.514859974	-1.49129999	253	107	82
-0.662919998	-0.515179992	-1.49220002	253	107	82
-0.662559986	-0.516309977	-1.49080002	253	107	82
-0.663290024	-0.518490016	-1.49199998	253	107	82
-0.662919998	-0.519739985	-1.49059999	253	107	82
-0.664020002	-0.514670014	-1.49530005	253	107	82
-0.664390028	-0.513490021	-1.49670005	253	107	82
-0.664759994	-0.512290001	-1.49810004	253	107	82
-0.665489972	-0.511389971	-1.50039995	253	107	82
-0.665120006	-0.509599984	-1.5	253	107	82
-0.668009996	-0.509570003	-1.49989998	253	107	82
-0.668009996	-0.511070013	-1.49940002	253	107	82
-0.668009996	-0.512570024	-1.49890006	253	107	82
-0.668370008	-0.514370024	-1.4993	253	107	82
-0.670520008	-0.513750017	-1.49749994	253	107	82
-0.670149982	-0.51493001	-1.49609995	253	107	82
-0.667270005	-0.514949977	-1.49609995	253	107	82
-0.672290027	-0.514299989	-1.49419999	253	107	82
-0.672290027	-0.51572001	-1.49380004	253	107	82
-0.674799979	-0.515389979	-1.4928	253	107	82
-0.674799979	-0.513970017	-1.49329996	253	107	82
-0.676940024	-0.513339996	-1.49150002	253	107	82
-0.674799979	-0.516830027	-1.49230003	253	107	82
-0.678059995	-0.517099977	-1.49310005	253	107	82
-0.678430021	-0.515969992	-1.49450004	253	107	82
-0.680939972	-0.51564002	-1.49349999	253	107	82
-0.680939972	-0.514219999	-1.49399996	253	107	82
-0.680939972	-0.517069995	-1.49300003	253	107	82
-0.683449984	-0.516740024	-1.4921	253	107	82
-0.683449984	-0.515309989	-1.49259996	253	107	82
-0.682699978	-0.513279974	-1.49129999	253	107	82
-0.686339974	-0.515269995	-1.49249995	253	107	82
-0.686720014	-0.514150023	-1.49380004	253	107	82
-0.687099993	-0.512969971	-1.49520004	253	107	82
-0.684589982	-0.513310015	-1.49619997	253	107	82
-0.685339987	-0.512409985	-1.49839997	253	107	82
-0.682449996	-0.512440026	-1.49849999	253	107	82
-0.682070017	-0.513639987	-1.4971	253	107	82
-0.679560006	-0.513970017	-1.49810004	253	107	82
-0.679929972	-0.512769997	-1.49950004	253	107	82
-0.680679977	-0.511870027	-1.50179994	253	107	82
-0.678160012	-0.512199998	-1.50269997	253	107	82
-0.675260007	-0.512229979	-1.50279999	253	107	82
-0.674520016	-0.510129988	-1.50160003	253	107	82
-0.671630025	-0.510150015	-1.50160003	253	107	82
-0.671630025	-0.511650026	-1.50109994	253	107	82
-0.671259999	-0.512849987	-1.49969995	253	107	82
-0.673409998	-0.513719976	-1.49740005	253	107	82
-0.67592001	-0.513400018	-1.4964	253	107	82
-0.677039981	-0.512799978	-1.49960005	253	107	82
-0.674520016	-0.513130009	-1.50049996	253	107	82
-0.671630025	-0.508629978	-1.50209999	253	107	82
-0.66911	-0.508949995	-1.50310004	253	107	82
-0.666589975	-0.509270012	-1.50399995	253	107	82
-0.667320013	-0.508350015	-1.50629997	253	107	82
-0.667320013	-0.506839991	-1.50680006	253	107	82
-0.670580029	-0.508620024	-1.50709999	253	107	82
-0.670949996	-0.50740999	-1.50849998	253	107	82
-0.674220026	-0.507679999	-1.50929999	253	107	82
-0.674220026	-0.509190023	-1.50880003	253	107	82
-0.677489996	-0.509459972	-1.50960004	253	107	82
-0.677489996	-0.507950008	-1.51010001	253	107	82
-0.677860022	-0.506739974	-1.5115	253	107	82
-0.680400014	-0.506410003	-1.51059997	253	107	82
-0.681140006	-0.505490005	-1.51279998	253	107	82
-0.684050024	-0.505460024	-1.51269996	253	107	82
-0.684800029	-0.504689991	-1.51489997	253	107	82
-0.685549974	-0.503620028	-1.51730001	253	107	82
-0.685180008	-0.501829982	-1.51689994	253	107	82
-0.683009982	-0.501079977	-1.51919997	253	107	82
-0.683009982	-0.499410003	-1.51970005	253	107	82
-0.680459976	-0.499729991	-1.52069998	253	107	82
-0.680459976	-0.501399994	-1.5201	253	107	82
-0.68009001	-0.503970027	-1.51830006	253	107	82
-0.679719985	-0.505330026	-1.51689994	253	107	82
-0.678979993	-0.506110013	-1.51470006	253	107	82
-0.675700009	-0.505840003	-1.51390004	253	107	82
-0.675329983	-0.504180014	-1.51339996	253	107	82
-0.676069975	-0.503120005	-1.5158	253	107	82
-0.676440001	-0.501919985	-1.51709998	253	107	82
-0.676810026	-0.500850022	-1.51849997	253	107	82
-0.676810026	-0.499179989	-1.51900005	253	107	82
-0.67426002	-0.499489993	-1.51999998	253	107	82
-0.671720028	-0.499799997	-1.52090001	253	107	82
-0.669170022	-0.500119984	-1.52190006	253	107	82
-0.669170022	-0.498580009	-1.52240002	253	107	82
-0.669539988	-0.497480005	-1.5237	253	107	82
-0.670270026	-0.496380001	-1.52600002	253	107	82
-0.673189998	-0.49634999	-1.52600002	253	107	82
-0.672450006	-0.497460008	-1.5237	253	107	82
-0.673189998	-0.499430001	-1.52499998	253	107	82
-0.675740004	-0.499110013	-1.52400005	253	107	82
-0.675369978	-0.49744001	-1.52359998	253	107	82
-0.676110029	-0.496329993	-1.52590001	253	107	82
-0.676110029	-0.494800001	-1.52639997	253	107	82
-0.676840007	-0.493959993	-1.52859998	253	107	82
-0.674279988	-0.495689988	-1.52909994	253	107	82
-0.675019979	-0.494839996	-1.53139997	253	107	82
-0.675750017	-0.493660003	-1.53369999	253	107	82
-0.673189998	-0.493970007	-1.53460002	253	107	82
-0.67355001	-0.492720008	-1.53600001	253	107	82
-0.670979977	-0.493019998	-1.53699994	253	107	82
-0.670260012	-0.493990004	-1.53470004	253	107	82
-0.666970015	-0.492190003	-1.53439999	253	107	82
-0.666239977	-0.493160009	-1.53209996	253	107	82
-0.666239977	-0.494910002	-1.5316	253	107	82
-0.668799996	-0.494599998	-1.53059995	253	107	82
-0.668439984	-0.495730013	-1.52929997	253	107	82
-0.671360016	-0.495709985	-1.52919996	253	107	82
-0.671729982	-0.494580001	-1.53050005	253	107	82
-0.667349994	-0.496399999	-1.52610004	253	107	82
-0.667349994	-0.498079985	-1.52559996	253	107	82
-0.666989982	-0.499179989	-1.52419996	253	107	82
-0.663709998	-0.49752	-1.52380002	253	107	82
-0.663349986	-0.498620003	-1.52250004	253	107	82
-0.66407001	-0.49612999	-1.52530003	253	107	82
-0.664799988	-0.495180011	-1.52750003	253	107	82
-0.668049991	-0.491659999	-1.53750002	253	107	82
-0.667689979	-0.489899993	-1.53709996	253	107	82
-0.664759994	-0.48991999	-1.53709996	253	107	82
-0.665480018	-0.491959989	-1.53840005	253	107	82
-0.661830008	-0.489930004	-1.53719997	253	107	82
-0.661830008	-0.491409987	-1.53670001	253	107	82
-0.658909976	-0.489950001	-1.53719997	253	107	82
-0.658550024	-0.491140008	-1.5359	253	107	82
-0.659619987	-0.488900006	-1.5395	253	107	82
-0.662909985	-0.489170015	-1.54040003	253	107	82
-0.672070026	-0.492489994	-1.54009998	253	107	82
-0.672070026	-0.49101001	-1.54059994	253	107	82
-0.671710014	-0.489109993	-1.5402	253	107	82
-0.675010026	-0.489369988	-1.54100001	253	107	82
-0.675010026	-0.490990013	-1.54050004	253	107	82
-0.675379992	-0.492749989	-1.54089999	253	107	82
-0.677950025	-0.492439985	-1.53989995	253	107	82
-0.677950025	-0.490960002	-1.54040003	253	107	82
-0.677579999	-0.489069998	-1.53999996	253	107	82
-0.677219987	-0.487399995	-1.53960001	253	107	82
-0.680149972	-0.488759995	-1.53910005	253	107	82
-0.680519998	-0.487659991	-1.54040003	253	107	82
-0.680149972	-0.485819995	-1.53999996	253	107	82
-0.675379992	-0.488270015	-1.54229999	253	107	82
-0.677219987	-0.493259996	-1.53770006	253	107	82
-0.679769993	-0.495350003	-1.52810001	253	107	82
-0.680509984	-0.494509995	-1.53030002	253	107	82
-0.68344003	-0.494480014	-1.5302	253	107	82
-0.682690024	-0.495319992	-1.528	253	107	82
-0.681949973	-0.496280015	-1.52569997	253	107	82
-0.681949973	-0.497960001	-1.52520001	253	107	82
-0.681580007	-0.499060005	-1.52380002	253	107	82
-0.679030001	-0.499379992	-1.52479994	253	107	82
-0.679400027	-0.498270005	-1.52620006	253	107	82
-0.679030001	-0.496300012	-1.52579999	253	107	82
-0.684499979	-0.499029994	-1.52380002	253	107	82
-0.684870005	-0.49792999	-1.52509999	253	107	82
-0.68562001	-0.496820003	-1.52740002	253	107	82
-0.685989976	-0.495579988	-1.52880001	253	107	82
-0.686370015	-0.494450003	-1.53009999	253	107	82
-0.687430024	-0.499000013	-1.5237	253	107	82
-0.689970016	-0.498679996	-1.52269995	253	107	82
-0.690349996	-0.497579992	-1.52400005	253	107	82
-0.692520022	-0.498349994	-1.52170002	253	107	82
-0.692139983	-0.499599993	-1.52030003	253	107	82
-0.692520022	-0.501559973	-1.52059996	253	107	82
-0.692139983	-0.502640009	-1.51929998	253	107	82
-0.689599991	-0.502960026	-1.52030003	253	107	82
-0.689970016	-0.501890004	-1.52160001	253	107	82
-0.689220011	-0.499639988	-1.52040005	253	107	82
-0.68629998	-0.499669999	-1.52049994	253	107	82
-0.68629998	-0.501339972	-1.51999998	253	107	82
-0.694689989	-0.502309978	-1.51830006	253	107	82
-0.694689989	-0.500949979	-1.51880002	253	107	82
-0.694689989	-0.499280006	-1.51929998	253	107	82
-0.695070028	-0.498030007	-1.52069998	253	107	82
-0.69799	-0.497990012	-1.52059996	253	107	82
-0.697610021	-0.499240011	-1.51919997	253	107	82
-0.697229981	-0.500620008	-1.51779997	253	107	82
-0.696850002	-0.50168997	-1.5165	253	107	82
-0.697229981	-0.503480017	-1.51680005	253	107	82
-0.696850002	-0.504840016	-1.51540005	253	107	82
-0.696089983	-0.505620003	-1.51320004	253	107	82
-0.695710003	-0.506829977	-1.51180005	253	107	82
-0.694939971	-0.507749975	-1.50960004	253	107	82
-0.694559991	-0.508970022	-1.50820005	253	107	82
-0.69709003	-0.508639991	-1.5072	253	107	82
-0.697480023	-0.507420003	-1.5086	253	107	82
-0.699999988	-0.507089972	-1.50759995	253	107	82
-0.699620008	-0.508300006	-1.50619996	253	107	82
-0.701759994	-0.507669985	-1.5043	253	107	82
-0.702530026	-0.506749988	-1.50660002	253	107	82
-0.704670012	-0.507629991	-1.50419998	253	107	82
-0.703890026	-0.508560002	-1.50189996	253	107	82
-0.703509986	-0.50977999	-1.50049996	253	107	82
-0.704280019	-0.511870027	-1.50179994	253	107	82
-0.703509986	-0.512780011	-1.49950004	253	107	82
-0.70273	-0.513679981	-1.49730003	253	107	82
-0.701569974	-0.514259994	-1.49409997	253	107	82
-0.701179981	-0.515380025	-1.4928	253	107	82
-0.700789988	-0.516520023	-1.4914	253	107	82
-0.700020015	-0.517480016	-1.48909998	253	107	82
-0.697130024	-0.51752001	-1.4892	253	107	82
-0.694239974	-0.515990019	-1.48989999	253	107	82
-0.693470001	-0.516950011	-1.48759997	253	107	82
-0.692700028	-0.51789999	-1.48529994	253	107	82
-0.693090022	-0.519689977	-1.48570001	253	107	82
-0.693090022	-0.521160007	-1.48520005	253	107	82
-0.695969999	-0.521120012	-1.48510003	253	107	82
-0.695969999	-0.519649982	-1.48559999	253	107	82
-0.695580006	-0.517859995	-1.48520005	253	107	82
-0.698469996	-0.517820001	-1.48510003	253	107	82
-0.69885999	-0.519599974	-1.48539996	253	107	82
-0.698469996	-0.520770013	-1.48409998	253	107	82
-0.701349974	-0.520730019	-1.48389995	253	107	82
-0.701349974	-0.519259989	-1.48450005	253	107	82
-0.701349974	-0.517769992	-1.48500001	253	107	82
-0.700580001	-0.521529973	-1.48169994	253	107	82
-0.700580001	-0.522949994	-1.48119998	253	107	82
-0.703459978	-0.522899985	-1.48109996	253	107	82
-0.702679992	-0.52086997	-1.47979999	253	107	82
-0.703069985	-0.519770026	-1.48119998	253	107	82
-0.706340015	-0.521430016	-1.48140001	253	107	82
-0.705950022	-0.522549987	-1.48010004	253	107	82
-0.705169976	-0.523469985	-1.47780001	253	107	82
-0.701900005	-0.523209989	-1.47710001	253	107	82
-0.701510012	-0.524410009	-1.47570002	253	107	82
-0.701900005	-0.526130021	-1.47599995	253	107	82
-0.701110005	-0.526920021	-1.47379994	253	107	82
-0.699020028	-0.523259997	-1.47720003	253	107	82
-0.696529984	-0.523609996	-1.47819996	253	107	82
-0.697309971	-0.522689998	-1.48049998	253	107	82
-0.697309971	-0.521260023	-1.48099995	253	107	82
-0.695580006	-0.522220016	-1.48370004	253	107	82
-0.709230006	-0.522809982	-1.48080003	253	107	82
-0.709230006	-0.521390021	-1.4813	253	107	82
-0.708840013	-0.51967001	-1.48090005	253	107	82
-0.706740022	-0.520330012	-1.48280001	253	107	82
-0.691730022	-0.516330004	-1.49090004	253	107	82
-0.688849986	-0.516369998	-1.49100006	253	107	82
-0.685959995	-0.516409993	-1.49109995	253	107	82
-0.685580015	-0.517669976	-1.48969996	253	107	82
-0.682699978	-0.517700016	-1.48979998	253	107	82
-0.679820001	-0.517729998	-1.48989999	253	107	82
-0.676559985	-0.517459989	-1.48909998	253	107	82
-0.673680007	-0.517480016	-1.48909998	253	107	82
-0.672559977	-0.518119991	-1.48599994	253	107	82
-0.672559977	-0.519599974	-1.48539996	253	107	82
-0.674690008	-0.518970013	-1.48360002	253	107	82
-0.674310029	-0.520129979	-1.48220003	253	107	82
-0.674310029	-0.521539986	-1.48169994	253	107	82
-0.673940003	-0.522650003	-1.48039997	253	107	82
-0.676810026	-0.521200001	-1.48080003	253	107	82
-0.676810026	-0.519789994	-1.4813	253	107	82
-0.677179992	-0.522930026	-1.48119998	253	107	82
-0.677929997	-0.519240022	-1.48440003	253	107	82
-0.678309977	-0.518060029	-1.48580003	253	107	82
-0.675440013	-0.51809001	-1.48590004	253	107	82
-0.672810018	-0.523259997	-1.47720003	253	107	82
-0.672439992	-0.524460018	-1.47580004	253	107	82
-0.672439992	-0.525860012	-1.47529995	253	107	82
-0.69828999	-0.516860008	-1.49240005	253	107	82
-0.697899997	-0.515120029	-1.49199998	253	107	82
-0.69828999	-0.513999999	-1.49339998	253	107	82
-0.69828999	-0.512520015	-1.49389994	253	107	82
-0.69867003	-0.511330009	-1.49530005	253	107	82
-0.696929991	-0.51226002	-1.49800003	253	107	82
-0.694410026	-0.512600005	-1.49899995	253	107	82
-0.695179999	-0.511699975	-1.50129998	253	107	82
-0.694410026	-0.509599984	-1.5	253	107	82
-0.694800019	-0.508390009	-1.50139999	253	107	82
-0.692659974	-0.509019971	-1.50329995	253	107	82
-0.691900015	-0.509940028	-1.50100005	253	107	82
-0.692279994	-0.511740029	-1.50139999	253	107	82
-0.692659974	-0.51354003	-1.50170004	253	107	82
-0.68937999	-0.51177001	-1.50150001	253	107	82
-0.68900001	-0.512969971	-1.50010002	253	107	82
-0.686479986	-0.511810005	-1.50160003	253	107	82
-0.686479986	-0.510309994	-1.50209999	253	107	82
-0.686100006	-0.508490026	-1.50170004	253	107	82
-0.688619971	-0.508159995	-1.50080001	253	107	82
-0.68900001	-0.509970009	-1.50109994	253	107	82
-0.683579981	-0.508819997	-1.50269997	253	107	82
-0.683950007	-0.510640025	-1.50310004	253	107	82
-0.683200002	-0.511539996	-1.50080001	253	107	82
-0.681810021	-0.511259973	-1.50489998	253	107	82
-0.681060016	-0.509150028	-1.50370002	253	107	82
-0.678529978	-0.50948	-1.50460005	253	107	82
-0.679279983	-0.511590004	-1.50590003	253	107	82
-0.680019975	-0.509140015	-1.50870001	253	107	82
-0.682560027	-0.508809984	-1.50769997	253	107	82
-0.682929993	-0.507600009	-1.50909996	253	107	82
-0.682560027	-0.505789995	-1.50870001	253	107	82
-0.685079992	-0.506969988	-1.5072	253	107	82
-0.684329987	-0.507889986	-1.505	253	107	82
-0.687609971	-0.508159995	-1.50580001	253	107	82
-0.687609971	-0.506649971	-1.50629997	253	107	82
-0.690129995	-0.507830024	-1.50479996	253	107	82
-0.690890014	-0.506910026	-1.50699997	253	107	82
-0.691649973	-0.505990028	-1.50929999	253	107	82
-0.688740015	-0.50602001	-1.50940001	253	107	82
-0.686209977	-0.506349981	-1.51040006	253	107	82
-0.686959982	-0.505429983	-1.51259995	253	107	82
-0.687720001	-0.504649997	-1.51489997	253	107	82
-0.688090026	-0.503289998	-1.51629996	253	107	82
-0.691009998	-0.503260016	-1.51619995	253	107	82
-0.690259993	-0.504329979	-1.51390004	253	107	82
-0.689880013	-0.505389988	-1.51250005	253	107	82
-0.692789972	-0.505360007	-1.51240003	253	107	82
-0.693170011	-0.504289985	-1.51380002	253	107	82
-0.69392997	-0.503220022	-1.51610005	253	107	82
-0.681140006	-0.508509994	-1.51180005	253	107	82
-0.675639987	-0.509500027	-1.50469995	253	107	82
-0.698080003	-0.510160029	-1.50170004	253	107	82
-0.698469996	-0.508939981	-1.50300002	253	107	82
-0.700600028	-0.50831002	-1.50119996	253	107	82
-0.700990021	-0.510119975	-1.50150001	253	107	82
-0.701370001	-0.511919975	-1.50189996	253	107	82
-0.698469996	-0.51196003	-1.50199997	253	107	82
-0.693270028	-0.513199985	-1.49590003	253	107	82
-0.693270028	-0.514680028	-1.49539995	253	107	82
-0.695779979	-0.514339983	-1.49440002	253	107	82
-0.695779979	-0.515770018	-1.49389994	253	107	82
-0.695389986	-0.51256001	-1.49399996	253	107	82
-0.690370023	-0.514720023	-1.49549997	253	107	82
-0.690370023	-0.51323998	-1.49600005	253	107	82
-0.690750003	-0.516439974	-1.49590003	253	107	82
-0.694410026	-0.517009974	-1.49749994	253	107	82
-0.706409991	-0.514230013	-1.49890006	253	107	82
-0.706799984	-0.513029993	-1.50030005	253	107	82
-0.706799984	-0.511529982	-1.50080001	253	107	82
-0.706409991	-0.509729981	-1.50039995	253	107	82
-0.709320009	-0.511189997	-1.49979997	253	107	82
-0.709710002	-0.509980023	-1.50109994	253	107	82
-0.709710002	-0.512979984	-1.50010002	253	107	82
-0.709320009	-0.514180005	-1.49870002	253	107	82
-0.711440027	-0.51354003	-1.49679995	253	107	82
-0.71262002	-0.511430025	-1.50049996	253	107	82
-0.713010013	-0.513230026	-1.50080001	253	107	82
-0.71341002	-0.510529995	-1.50269997	253	107	82
-0.711269975	-0.509649992	-1.50510001	253	107	82
-0.712059975	-0.508710027	-1.50740004	253	107	82
-0.712450027	-0.507489979	-1.50880003	253	107	82
-0.712450027	-0.505990028	-1.50929999	253	107	82
-0.713230014	-0.505060017	-1.5115	253	107	82
-0.715369999	-0.50594002	-1.50909996	253	107	82
-0.715369999	-0.507439971	-1.5086	253	107	82
-0.714980006	-0.508660018	-1.50730002	253	107	82
-0.714579999	-0.50989002	-1.50590003	253	107	82
-0.709919989	-0.504819989	-1.5108	253	107	82
-0.709140003	-0.505739987	-1.5086	253	107	82
-0.709529996	-0.507539988	-1.50890005	253	107	82
-0.70875001	-0.508459985	-1.50670004	253	107	82
-0.705829978	-0.507000029	-1.50730002	253	107	82
-0.70757997	-0.50910002	-1.50349998	253	107	82
-0.707379997	-0.506669998	-1.51129997	253	107	82
-0.706990004	-0.504859984	-1.51090002	253	107	82
-0.704850018	-0.505490005	-1.51279998	253	107	82
-0.704850018	-0.507000029	-1.51230001	253	107	82
-0.702310026	-0.507340014	-1.51329994	253	107	82
-0.701929986	-0.50553	-1.51300001	253	107	82
-0.702310026	-0.504469991	-1.51429999	253	107	82
-0.702310026	-0.502820015	-1.51479995	253	107	82
-0.699769974	-0.503149986	-1.5158	253	107	82
-0.699769974	-0.501649976	-1.51629996	253	107	82
-0.699769974	-0.500289977	-1.51680005	253	107	82
-0.702690005	-0.500249982	-1.51670003	253	107	82
-0.699769974	-0.504800022	-1.51530004	253	107	82
-0.698620021	-0.505280018	-1.5122	253	107	82
-0.698620021	-0.506789982	-1.51170003	253	107	82
-0.705229998	-0.502770007	-1.51470006	253	107	82
-0.705229998	-0.504419982	-1.51419997	253	107	82
-0.708159983	-0.502730012	-1.51460004	253	107	82
-0.708159983	-0.501230001	-1.5151	253	107	82
-0.709320009	-0.505249977	-1.51660001	253	107	82
-0.704079986	-0.50041002	-1.51259995	253	107	82
-0.701160014	-0.500450015	-1.51269996	253	107	82
-0.701300025	-0.499779999	-1.52079999	253	107	82
-0.702069998	-0.498820007	-1.52310002	253	107	82
-0.702830017	-0.497999996	-1.52530003	253	107	82
-0.703599989	-0.496890008	-1.52760005	253	107	82
-0.703980029	-0.495649993	-1.52900004	253	107	82
-0.703980029	-0.494230002	-1.52950001	253	107	82
-0.701420009	-0.49454999	-1.53050005	253	107	82
-0.701420009	-0.492810011	-1.53100002	253	107	82
-0.70104003	-0.495689988	-1.52909994	253	107	82
-0.70065999	-0.496930003	-1.52769995	253	107	82
-0.700280011	-0.498329997	-1.52629995	253	107	82
-0.706539989	-0.495319992	-1.528	253	107	82
-0.706149995	-0.496560007	-1.5266	253	107	82
-0.705380023	-0.497669995	-1.52429998	253	107	82
-0.704999983	-0.498769999	-1.523	253	107	82
-0.704230011	-0.499729991	-1.52069998	253	107	82
-0.706780016	-0.501070023	-1.51919997	253	107	82
-0.707549989	-0.499980003	-1.52149999	253	107	82
-0.707690001	-0.494749993	-1.53110003	253	107	82
-0.706920028	-0.492439985	-1.52989995	253	107	82
-0.70589	-0.493900001	-1.53439999	253	107	82
-0.673160017	-0.500289977	-1.51680005	253	107	82
-0.673160017	-0.501649976	-1.51629996	253	107	82
-0.672420025	-0.502560019	-1.51409996	253	107	82
-0.672789991	-0.504499972	-1.51440001	253	107	82
-0.673160017	-0.506160021	-1.51479995	253	107	82
-0.672789991	-0.507380009	-1.51339996	253	107	82
-0.675329983	-0.507059991	-1.51250005	253	107	82
-0.679350019	-0.501890004	-1.51709998	253	107	82
-0.681890011	-0.501569986	-1.51610005	253	107	82
-0.683009982	-0.503939986	-1.51820004	253	107	82
-0.683009982	-0.505599976	-1.51769996	253	107	82
-0.668299973	-0.514829993	-1.49119997	253	107	82
-0.666450024	-0.519339979	-1.48469996	253	107	82
-0.665709972	-0.520200014	-1.48239994	253	107	82
-0.66535002	-0.521300018	-1.48109996	253	107	82
-0.665709972	-0.523029983	-1.48140001	253	107	82
-0.66821003	-0.522700012	-1.48049998	253	107	82
-0.667840004	-0.520969987	-1.48010004	253	107	82
-0.667840004	-0.523930013	-1.47909999	253	107	82
-0.667469978	-0.526539981	-1.47720003	253	107	82
-0.666719973	-0.524510026	-1.47590005	253	107	82
-0.662850022	-0.52305001	-1.48150003	253	107	82
-0.662850022	-0.521629989	-1.48199999	253	107	82
-0.663219988	-0.520529985	-1.48339999	253	107	82
-0.663590014	-0.519360006	-1.48479998	253	107	82
-0.661090016	-0.519689977	-1.48570001	253	107	82
-0.660719991	-0.520850003	-1.48430002	253	107	82
-0.660719991	-0.522270024	-1.48380005	253	107	82
-0.660359979	-0.523379982	-1.48239994	253	107	82
-0.657500029	-0.521969974	-1.48300004	253	107	82
-0.657500029	-0.520560026	-1.4835	253	107	82
-0.657859981	-0.519400001	-1.4849	253	107	82
-0.655719995	-0.518540025	-1.48720002	253	107	82
-0.656090021	-0.520340025	-1.48749995	253	107	82
-0.657130003	-0.523090005	-1.48160005	253	107	82
-0.679130018	-0.528609991	-1.4691	253	107	82
-0.679130018	-0.527119994	-1.46969998	253	107	82
-0.681609988	-0.526780009	-1.46870005	253	107	82
-0.682370007	-0.528890014	-1.46990001	253	107	82
-0.684849977	-0.528550029	-1.46889997	253	107	82
-0.684849977	-0.527059972	-1.46949995	253	107	82
-0.685230017	-0.525879979	-1.47090006	253	107	82
-0.685989976	-0.525089979	-1.47309995	253	107	82
-0.683130026	-0.52512002	-1.47319996	253	107	82
-0.683130026	-0.526539981	-1.4727	253	107	82
-0.680649996	-0.526880026	-1.47370005	253	107	82
-0.681029975	-0.524370015	-1.47549999	253	107	82
-0.683889985	-0.524339974	-1.47549999	253	107	82
-0.685039997	-0.523760021	-1.47860003	253	107	82
-0.685419977	-0.522530019	-1.48000002	253	107	82
-0.685419977	-0.521109998	-1.48049998	253	107	82
-0.682919979	-0.521449983	-1.48150003	253	107	82
-0.682919979	-0.522870004	-1.48099995	253	107	82
-0.682169974	-0.523790002	-1.47870004	253	107	82
-0.68791002	-0.522189975	-1.47899997	253	107	82
-0.687520027	-0.523419976	-1.47759998	253	107	82
-0.687520027	-0.524919987	-1.47710001	253	107	82
-0.690400004	-0.526289999	-1.47650003	253	107	82
-0.690779984	-0.525200009	-1.47790003	253	107	82
-0.690400004	-0.523379982	-1.47749996	253	107	82
-0.690400004	-0.521839976	-1.47809994	253	107	82
-0.687139988	-0.520150006	-1.47780001	253	107	82
-0.679509997	-0.524529994	-1.47160006	253	107	82
-0.688090026	-0.525839984	-1.47080004	253	107	82
-0.688470006	-0.527639985	-1.47109997	253	107	82
-0.687709987	-0.528509974	-1.46879995	253	107	82
-0.687319994	-0.529720008	-1.46739995	253	107	82
-0.687319994	-0.531220019	-1.46689999	253	107	82
-0.689409971	-0.529060006	-1.46560001	253	107	82
-0.688639998	-0.529929996	-1.46329999	253	107	82
-0.686169982	-0.531669974	-1.46379995	253	107	82
-0.684080005	-0.530939996	-1.46609998	253	107	82
-0.685230017	-0.530390024	-1.46930003	253	107	82
-0.683510005	-0.531359971	-1.472	253	107	82
-0.690180004	-0.528159976	-1.46790004	253	107	82
-0.690949976	-0.527289987	-1.47010005	253	107	82
-0.691730022	-0.526430011	-1.47239995	253	107	82
-0.69382	-0.527260005	-1.47000003	253	107	82
-0.679509997	-0.530449986	-1.46940005	253	107	82
-0.698379993	-0.527729988	-1.46669996	253	107	82
-0.69915998	-0.529879987	-1.46780002	253	107	82
-0.698769987	-0.53105998	-1.46640003	253	107	82
-0.69915998	-0.532769978	-1.46679997	253	107	82
-0.701240003	-0.530700028	-1.46539998	253	107	82
-0.703320026	-0.530030012	-1.46360004	253	107	82
-0.701240003	-0.52767998	-1.46650004	253	107	82
-0.706470013	-0.526520014	-1.4727	253	107	82
-0.708949983	-0.526160002	-1.47169995	253	107	82
-0.711430013	-0.527289987	-1.47010005	253	107	82
-0.71638	-0.529569983	-1.46700001	253	107	82
-0.716780007	-0.531379998	-1.46730006	253	107	82
-0.716780007	-0.528360009	-1.4684	253	107	82
-0.725820005	-0.522710025	-1.47090006	253	107	82
-0.726230025	-0.521510005	-1.47220004	253	107	82
-0.726629972	-0.520280004	-1.47370005	253	107	82
-0.715900004	-0.525569975	-1.47449994	253	107	82
-0.71430999	-0.52293998	-1.47150004	253	107	82
-0.712909997	-0.520529985	-1.48339999	253	107	82
-0.715799987	-0.520479977	-1.48319995	253	107	82
-0.708700001	-0.517340004	-1.48870003	253	107	82
-0.729309976	-0.512009978	-1.49730003	253	107	82
-0.734399974	-0.518079996	-1.48580003	253	107	82
-0.733990014	-0.516229987	-1.48549998	253	107	82
-0.74267	-0.51078999	-1.49370003	253	107	82
-0.741850019	-0.508710027	-1.49249995	253	107	82
-0.74308002	-0.508099973	-1.49559999	253	107	82
-0.746410012	-0.506810009	-1.49679995	253	107	82
-0.746410012	-0.505299985	-1.49730003	253	107	82
-0.732930005	-0.50711	-1.50759995	253	107	82
-0.727869987	-0.507809997	-1.50969994	253	107	82
-0.727869987	-0.506299973	-1.51020002	253	107	82
-0.725870013	-0.509379983	-1.50440001	253	107	82
-0.725470006	-0.507560015	-1.50399995	253	107	82
-0.722800016	-0.505490005	-1.51279998	253	107	82
-0.72240001	-0.503840029	-1.51240003	253	107	82
-0.72319001	-0.502770007	-1.51470006	253	107	82
-0.738680005	-0.504700005	-1.51499999	253	107	82
-0.751190007	-0.497960001	-1.52520001	253	107	82
-0.751600027	-0.496560007	-1.5266	253	107	82
-0.751190007	-0.494749993	-1.52620006	253	107	82
-0.751190007	-0.491589993	-1.52719998	253	107	82
-0.749970019	-0.489219993	-1.52509999	253	107	82
-0.749970019	-0.492489994	-1.52409995	253	107	82
-0.749859989	-0.49278	-1.5309	253	107	82
-0.747699976	-0.493409991	-1.53289998	253	107	82
-0.744329989	-0.493189991	-1.53219998	253	107	82
-0.743529975	-0.494379997	-1.52989995	253	107	82
-0.743529975	-0.495799989	-1.52950001	253	107	82
-0.742169976	-0.493820012	-1.53419995	253	107	82
-0.735840023	-0.493660003	-1.53369999	253	107	82
-0.734650016	-0.494569987	-1.53050005	253	107	82
-0.733850002	-0.495420009	-1.52830005	253	107	82
-0.73168999	-0.49605	-1.5302	253	107	82
-0.732649982	-0.496100008	-1.52520001	253	107	82
-0.732249975	-0.497500002	-1.52380002	253	107	82
-0.729300022	-0.497550011	-1.52390003	253	107	82
-0.730099976	-0.496439993	-1.52620006	253	107	82
-0.735199988	-0.49744001	-1.52359998	253	107	82
-0.734799981	-0.498540014	-1.5223	253	107	82
-0.721430004	-0.489820004	-1.53680003	253	107	82
-0.721819997	-0.488489985	-1.53820002	253	107	82
-0.720650017	-0.490740001	-1.53460002	253	107	82
-0.720260024	-0.491840005	-1.53330004	253	107	82
-0.712949991	-0.48864001	-1.53869998	253	107	82
-0.712570012	-0.489969999	-1.53729999	253	107	82
-0.712180018	-0.491169989	-1.53600001	253	107	82
-0.710380018	-0.490579993	-1.53919995	253	107	82
-0.710380018	-0.488970011	-1.53970003	253	107	82
-0.708190024	-0.489569992	-1.54159999	253	107	82
-0.708570004	-0.488460004	-1.54289997	253	107	82
-0.708959997	-0.487179995	-1.54429996	253	107	82
-0.709720016	-0.486059994	-1.54659998	253	107	82
-0.712300003	-0.485740006	-1.54560006	253	107	82
-0.712689996	-0.48466	-1.54690003	253	107	82
-0.715269983	-0.485700011	-1.54540002	253	107	82
-0.715650022	-0.487639993	-1.54579997	253	107	82
-0.716040015	-0.484890014	-1.54760003	253	107	82
-0.717199981	-0.484149992	-1.55069995	253	107	82
-0.716809988	-0.48229	-1.55040002	253	107	82
-0.714219987	-0.482609987	-1.55139995	253	107	82
-0.714219987	-0.484200001	-1.55089998	253	107	82
-0.71164	-0.484519988	-1.55190003	253	107	82
-0.71164	-0.482930005	-1.55239999	253	107	82
-0.71201998	-0.481590003	-1.55379999	253	107	82
-0.709810019	-0.482179999	-1.55569994	253	107	82
-0.710189998	-0.480839998	-1.55710006	253	107	82
-0.707970023	-0.47984001	-1.55949998	253	107	82
-0.709110022	-0.479070008	-1.56260002	253	107	82
-0.708350003	-0.47694999	-1.56130004	253	107	82
-0.711709976	-0.478760004	-1.56159997	253	107	82
-0.711709976	-0.480340004	-1.56110001	253	107	82
-0.713549972	-0.481070012	-1.55780005	253	107	82
-0.715759993	-0.482089996	-1.55540001	253	107	82
-0.71912998	-0.482320011	-1.55610001	253	107	82
-0.706830025	-0.480610013	-1.55630004	253	107	82
-0.706449986	-0.481950015	-1.55499995	253	107	82
-0.706449986	-0.483559996	-1.55449998	253	107	82
-0.706070006	-0.48488	-1.55309999	253	107	82
-0.705309987	-0.485890001	-1.55079997	253	107	82
-0.707520008	-0.485300004	-1.54890001	253	107	82
-0.707520008	-0.483729988	-1.54939997	253	107	82
-0.707140028	-0.486380011	-1.54760003	253	107	82
-0.710870028	-0.485529989	-1.54970002	253	107	82
-0.701969981	-0.48409	-1.55060005	253	107	82
-0.701210022	-0.485100001	-1.54830003	253	107	82
-0.700460017	-0.485909998	-1.54610002	253	107	82
-0.699699998	-0.487019986	-1.5438	253	107	82
-0.698949993	-0.488029987	-1.54159999	253	107	82
-0.701520026	-0.487709999	-1.54059994	253	107	82
-0.702279985	-0.486710012	-1.54279995	253	107	82
-0.702660024	-0.489930004	-1.54279995	253	107	82
-0.705229998	-0.489609987	-1.54180002	253	107	82
-0.704850018	-0.490940005	-1.54040003	253	107	82
-0.707809985	-0.49090001	-1.5402	253	107	82
-0.704469979	-0.487670004	-1.54040003	253	107	82
-0.705619991	-0.486939996	-1.54359996	253	107	82
-0.703419983	-0.485870004	-1.546	253	107	82
-0.701520026	-0.490700006	-1.53960001	253	107	82
-0.697120011	-0.487340003	-1.54480004	253	107	82
-0.69788003	-0.486220002	-1.54709995	253	107	82
-0.698249996	-0.485139996	-1.54840004	253	107	82
-0.699000001	-0.484129995	-1.55069995	253	107	82
-0.696039975	-0.484160006	-1.55079997	253	107	82
-0.695670009	-0.48545	-1.54939997	253	107	82
-0.695290029	-0.48653999	-1.54809999	253	107	82
-0.694540024	-0.487650007	-1.54579997	253	107	82
-0.700129986	-0.483359993	-1.55379999	253	107	82
-0.700129986	-0.481750011	-1.55429995	253	107	82
-0.700129986	-0.480140001	-1.55480003	253	107	82
-0.703100026	-0.480100006	-1.55470002	253	107	82
-0.703100026	-0.481720001	-1.55420005	253	107	82
-0.703100026	-0.483319998	-1.55369997	253	107	82
-0.703859985	-0.479059994	-1.55700004	253	107	82
-0.701259971	-0.479369998	-1.55799997	253	107	82
-0.70905	-0.483240008	-1.55340004	253	107	82
-0.71450001	-0.488370001	-1.54270005	253	107	82
-0.71153003	-0.48842001	-1.54279995	253	107	82
-0.711920023	-0.48714	-1.54419994	253	107	82
-0.67167002	-0.482250005	-1.55019999	253	107	82
-0.672389984	-0.481189996	-1.55250001	253	107	82
-0.675339997	-0.481169999	-1.55239999	253	107	82
-0.674979985	-0.482499987	-1.55110002	253	107	82
-0.670580029	-0.48300001	-1.54709995	253	107	82
-0.670939982	-0.484840006	-1.54750001	253	107	82
-0.67167002	-0.48675999	-1.54879999	253	107	82
-0.669439971	-0.487340003	-1.55069995	253	107	82
-0.668359995	-0.485139996	-1.54840004	253	107	82
-0.668359995	-0.483579993	-1.54890001	253	107	82
-0.665059984	-0.48624	-1.54719996	253	107	82
-0.662119985	-0.486259997	-1.54719996	253	107	82
-0.666559994	-0.489719987	-1.54209995	253	107	82
-0.656239986	-0.487960011	-1.54680002	253	107	82
-0.656599998	-0.486570001	-1.54820001	253	107	82
-0.656239986	-0.484930009	-1.54770005	253	107	82
-0.656599998	-0.483639985	-1.54910004	253	107	82
-0.656239986	-0.481770009	-1.54869998	253	107	82
-0.653659999	-0.482059985	-1.54970002	253	107	82
-0.653659999	-0.483649999	-1.54920006	253	107	82
-0.653310001	-0.484939992	-1.54779994	253	107	82
-0.654009998	-0.486860007	-1.54910004	253	107	82
-0.653310001	-0.487969995	-1.54680002	253	107	82
-0.651069999	-0.488539994	-1.54859996	253	107	82
-0.651769996	-0.487430006	-1.551	253	107	82
-0.65072	-0.485229999	-1.54869998	253	107	82
-0.651069999	-0.483940005	-1.55009997	253	107	82
-0.651069999	-0.482349992	-1.55060005	253	107	82
-0.648140013	-0.488550007	-1.54869998	253	107	82
-0.663160026	-0.464170009	-1.58150005	253	107	82
-0.663860023	-0.466300011	-1.58280003	253	107	82
-0.666849971	-0.466289997	-1.58270001	253	107	82
-0.669480026	-0.465999991	-1.58179998	253	107	82
-0.689239979	-0.464049995	-1.58669996	253	107	82
-0.698260009	-0.462440014	-1.58679998	253	107	82
-0.700890005	-0.462150007	-1.58580005	253	107	82
-0.700519979	-0.463400006	-1.58449996	253	107	82
-0.683839977	-0.455680013	-1.59909999	253	107	82
-0.699050009	-0.475919992	-1.56900001	253	107	82
-0.698300004	-0.47389999	-1.56770003	253	107	82
-0.695689976	-0.474209994	-1.56869996	253	107	82
-0.696060002	-0.475950003	-1.56910002	253	107	82
-0.697929978	-0.476599991	-1.56589997	253	107	82
-0.700909972	-0.47657001	-1.56579995	253	107	82
-0.701659977	-0.475609988	-1.56799996	253	107	82
-0.701290011	-0.473870009	-1.5675	253	107	82
-0.693080008	-0.472900003	-1.57009995	253	107	82
-0.692340016	-0.473969996	-1.56789994	253	107	82
-0.691969991	-0.475169986	-1.56649995	253	107	82
-0.691229999	-0.476130009	-1.56429994	253	107	82
-0.693830013	-0.475829989	-1.56330001	253	107	82
-0.693090022	-0.47687	-1.56110001	253	107	82
-0.693459988	-0.478720009	-1.56149995	253	107	82
-0.692719996	-0.479750007	-1.55920005	253	107	82
-0.693459988	-0.481889993	-1.56050003	253	107	82
-0.696060002	-0.481579989	-1.55949998	253	107	82
-0.696439981	-0.480269998	-1.56089997	253	107	82
-0.696810007	-0.478960007	-1.56219995	253	107	82
-0.696060002	-0.476830006	-1.56099999	253	107	82
-0.689750016	-0.479779989	-1.55929995	253	107	82
-0.689750016	-0.481370002	-1.55879998	253	107	82
-0.690119982	-0.478480011	-1.56070006	253	107	82
-0.690119982	-0.476900011	-1.56120002	253	107	82
