0.849370003	-0.476069987	-1.58070004	154	240	0
0.846740007	-0.476550013	-1.58229995	154	240	0
0.847270012	-0.475100011	-1.58360004	154	240	0
0.845149994	-0.47744	-1.57930005	154	240	0
0.847779989	-0.478439987	-1.57729995	154	240	0
0.847779989	-0.479950011	-1.57690001	154	240	0
0.84671998	-0.481050014	-1.57480001	154	240	0
0.849340022	-0.480569988	-1.57319999	154	240	0
0.84987998	-0.479220003	-1.57449996	154	240	0
0.852500021	-0.48032999	-1.57239997	154	240	0
0.854579985	-0.479600012	-1.57000005	154	240	0
0.856190026	-0.481929988	-1.57190001	154	240	0
0.857800007	-0.484270006	-1.57389998	154	240	0
0.860960007	-0.482430011	-1.57360005	154	240	0
0.861500025	-0.484270006	-1.57389998	154	240	0
0.859350026	-0.480100006	-1.57159996	154	240	0
0.862500012	-0.479860008	-1.57079995	154	240	0
0.853070021	-0.47608	-1.58070004	154	240	0
0.869440019	-0.47823	-1.57659996	154	240	0
0.869440019	-0.479739994	-1.57620001	154	240	0
0.867820024	-0.480599999	-1.5733	154	240	0
0.868900001	-0.482679993	-1.57439995	154	240	0
0.871529996	-0.482190013	-1.57280004	154	240	0
0.870989978	-0.480349988	-1.57249999	154	240	0
0.870989978	-0.483530015	-1.57149994	154	240	0
0.874149978	-0.483280003	-1.57070005	154	240	0
0.875779986	-0.482430011	-1.57360005	154	240	0
0.875779986	-0.480839998	-1.57410002	154	240	0
0.873149991	-0.479739994	-1.57620001	154	240	0
0.873700023	-0.476990014	-1.57790005	154	240	0
0.870519996	-0.477239996	-1.57869995	154	240	0
0.871599972	-0.476099998	-1.58080006	154	240	0
0.872690022	-0.474900007	-1.58290005	154	240	0
0.875320017	-0.474409997	-1.58130002	154	240	0
0.875320017	-0.472869992	-1.58169997	154	240	0
0.875320017	-0.476099998	-1.58080006	154	240	0
0.877950013	-0.475609988	-1.57920003	154	240	0
0.877950013	-0.473919988	-1.57969999	154	240	0
0.877409995	-0.476990014	-1.57790005	154	240	0
0.878499985	-0.478960007	-1.579	154	240	0
0.878499985	-0.480459988	-1.57860005	154	240	0
0.881669998	-0.480210006	-1.57770002	154	240	0
0.881669998	-0.478709996	-1.57819998	154	240	0
0.88112998	-0.476980001	-1.57780004	154	240	0
0.884299994	-0.476729989	-1.57700002	154	240	0
0.883750021	-0.477970004	-1.57570004	154	240	0
0.884299994	-0.479710013	-1.57609999	154	240	0
0.883210003	-0.48082	-1.574	154	240	0
0.882659972	-0.482169986	-1.57270002	154	240	0
0.881569982	-0.483269989	-1.57060003	154	240	0
0.878400028	-0.483520001	-1.57149994	154	240	0
0.879490018	-0.482419997	-1.57350004	154	240	0
0.879490018	-0.480830014	-1.574	154	240	0
0.885829985	-0.48190999	-1.57190001	154	240	0
0.885829985	-0.480320007	-1.57239997	154	240	0
0.887470007	-0.479460001	-1.57529998	154	240	0
0.888019979	-0.476720005	-1.57700002	154	240	0
0.888019979	-0.475089997	-1.57739997	154	240	0
0.885389984	-0.475589991	-1.57910001	154	240	0
0.882759988	-0.47608	-1.58070004	154	240	0
0.890100002	-0.480549991	-1.57309997	154	240	0
0.890100002	-0.482140005	-1.57260001	154	240	0
0.888999999	-0.483240008	-1.57050002	154	240	0
0.886380017	-0.483749986	-1.57219994	154	240	0
0.892719984	-0.483229995	-1.57050002	154	240	0
0.895340025	-0.482719988	-1.56879997	154	240	0
0.893270016	-0.480289996	-1.57229996	154	240	0
0.875320017	-0.479209989	-1.57980001	154	240	0
0.870050013	-0.475389987	-1.58449996	154	240	0
0.871119976	-0.474319994	-1.58659995	154	240	0
0.872200012	-0.473289996	-1.58870006	154	240	0
0.872200012	-0.471700013	-1.5891	154	240	0
0.869019985	-0.473540008	-1.58949995	154	240	0
0.867940009	-0.471460015	-1.58829999	154	240	0
0.864759982	-0.471700013	-1.5891	154	240	0
0.864759982	-0.473289996	-1.58870006	154	240	0
0.861580014	-0.473529994	-1.58949995	154	240	0
0.861580014	-0.471940011	-1.58990002	154	240	0
0.860509992	-0.469830006	-1.58879995	154	240	0
0.86105001	-0.46845001	-1.59010005	154	240	0
0.86105001	-0.466839999	-1.59060001	154	240	0
0.857869983	-0.467070013	-1.59130001	154	240	0
0.857869983	-0.465539992	-1.59179997	154	240	0
0.857869983	-0.468679994	-1.59089994	154	240	0
0.857339978	-0.470059991	-1.58959997	154	240	0
0.858399987	-0.472169995	-1.59070003	154	240	0
0.857339978	-0.473280013	-1.58860004	154	240	0
0.856270015	-0.474310011	-1.58659995	154	240	0
0.856270015	-0.47586	-1.58609998	154	240	0
0.858910024	-0.473830014	-1.58500004	154	240	0
0.862079978	-0.4736	-1.58420002	154	240	0
0.863160014	-0.475620002	-1.58529997	154	240	0
0.860509992	-0.476110011	-1.5869	154	240	0
0.866330028	-0.475389987	-1.58449996	154	240	0
0.866330028	-0.477070004	-1.58399999	154	240	0
0.868430018	-0.476350009	-1.58159995	154	240	0
0.866869986	-0.474079996	-1.58580005	154	240	0
0.861549973	-0.476579994	-1.58239996	154	240	0
0.85838002	-0.476819992	-1.58319998	154	240	0
0.853089988	-0.473030001	-1.58780003	154	240	0
0.853089988	-0.471439987	-1.58829999	154	240	0
0.852029979	-0.474059999	-1.58570004	154	240	0
0.851499975	-0.475360006	-1.58440006	154	240	0
0.8653	-0.470310003	-1.59039998	154	240	0
0.866909981	-0.469410002	-1.59329998	154	240	0
0.866909981	-0.467799991	-1.59379995	154	240	0
0.866110027	-0.484519988	-1.56330001	154	240	0
0.865029991	-0.485639989	-1.56120002	154	240	0
0.863940001	-0.486739993	-1.55900002	154	240	0
0.863940001	-0.488319993	-1.55859995	154	240	0
0.862860024	-0.489179999	-1.55649996	154	240	0
0.865999997	-0.488929987	-1.55569994	154	240	0
0.865999997	-0.487560004	-1.55620003	154	240	0
0.866550028	-0.48624	-1.55739999	154	240	0
0.860800028	-0.489939988	-1.5589	154	240	0
0.861339986	-0.488819987	-1.56019998	154	240	0
0.861339986	-0.487239987	-1.56060004	154	240	0
0.862420022	-0.486140013	-1.56280005	154	240	0
0.862420022	-0.484519988	-1.56330001	154	240	0
0.859269977	-0.48477	-1.56400001	154	240	0
0.858730018	-0.486140013	-1.56270003	154	240	0
0.859269977	-0.487989992	-1.56299996	154	240	0
0.859269977	-0.489569992	-1.56260002	154	240	0
0.85819	-0.490440011	-1.56050003	154	240	0
0.855050027	-0.490680009	-1.56130004	154	240	0
0.855050027	-0.489309996	-1.56169999	154	240	0
0.854510009	-0.487480015	-1.56140006	154	240	0
0.85611999	-0.486629993	-1.56429994	154	240	0
0.855589986	-0.484759986	-1.56400001	154	240	0
0.855050027	-0.48289001	-1.56369996	154	240	0
0.85244	-0.485000014	-1.56480002	154	240	0
0.852980018	-0.486869991	-1.56509995	154	240	0
0.851369977	-0.482879996	-1.56369996	154	240	0
0.848219991	-0.483119994	-1.56449997	154	240	0
0.848760009	-0.484990001	-1.56480002	154	240	0
0.848219991	-0.486360013	-1.56350005	154	240	0
0.850300014	-0.487219989	-1.56060004	154	240	0
0.850300014	-0.488799989	-1.56009996	154	240	0
0.849759996	-0.489910007	-1.5589	154	240	0
0.846090019	-0.48853001	-1.55920005	154	240	0
0.845550001	-0.486699998	-1.5589	154	240	0
0.842419982	-0.488519996	-1.55920005	154	240	0
0.841880023	-0.486690015	-1.5589	154	240	0
0.839280009	-0.487179995	-1.56040001	154	240	0
0.839280009	-0.488750011	-1.55999994	154	240	0
0.837679982	-0.489360005	-1.55710006	154	240	0
0.837149978	-0.490790009	-1.55579996	154	240	0
0.840279996	-0.490550011	-1.55499995	154	240	0
0.840820014	-0.48912999	-1.55630004	154	240	0
0.843949974	-0.488889992	-1.55560005	154	240	0
0.843949974	-0.490570009	-1.55509996	154	240	0
0.843410015	-0.491890013	-1.55379999	154	240	0
0.842880011	-0.493030012	-1.55250001	154	240	0
0.845470011	-0.492529988	-1.55089998	154	240	0
0.846549988	-0.491649985	-1.55299997	154	240	0
0.846549988	-0.490079999	-1.55350006	154	240	0
0.849680007	-0.492799997	-1.55180001	154	240	0
0.850210011	-0.491659999	-1.55299997	154	240	0
0.84859997	-0.493910015	-1.54970002	154	240	0
0.848060012	-0.495139986	-1.54840004	154	240	0
0.846989989	-0.496019989	-1.54630005	154	240	0
0.850109994	-0.495770007	-1.54560006	154	240	0
0.851189971	-0.494899988	-1.54760003	154	240	0
0.851189971	-0.493409991	-1.54809999	154	240	0
0.850650012	-0.491530001	-1.54779994	154	240	0
0.851189971	-0.490399987	-1.54900002	154	240	0
0.848500013	-0.496549994	-1.54270005	154	240	0
0.84957999	-0.498829991	-1.54369998	154	240	0
0.849039972	-0.5	-1.5424	154	240	0
0.851620018	-0.499489993	-1.54089999	154	240	0
0.852159977	-0.498320013	-1.54209995	154	240	0
0.85108	-0.496039987	-1.54110003	154	240	0
0.854189992	-0.495790005	-1.54030001	154	240	0
0.855279982	-0.498070002	-1.54130006	154	240	0
0.854189992	-0.498979986	-1.53929996	154	240	0
0.856230021	-0.499740005	-1.53639996	154	240	0
0.856230021	-0.501439989	-1.53579998	154	240	0
0.855139971	-0.502319992	-1.53380001	154	240	0
0.858250022	-0.502059996	-1.53299999	154	240	0
0.857710004	-0.503350019	-1.53170002	154	240	0
0.858799994	-0.505550027	-1.53269994	154	240	0
0.859340012	-0.507189989	-1.53310001	154	240	0
0.861909986	-0.506669998	-1.53149998	154	240	0
0.861360013	-0.505029976	-1.53120005	154	240	0
0.863380015	-0.504239976	-1.52880001	154	240	0
0.862829983	-0.502300024	-1.52849996	154	240	0
0.864480019	-0.506139994	-1.52989995	154	240	0
0.866490006	-0.503979981	-1.528	154	240	0
0.867039979	-0.502560019	-1.52929997	154	240	0
0.870700002	-0.502560019	-1.52929997	154	240	0
0.871249974	-0.504499972	-1.52950001	154	240	0
0.871249974	-0.505869985	-1.52909994	154	240	0
0.868139982	-0.506139994	-1.52989995	154	240	0
0.874920011	-0.504490018	-1.52950001	154	240	0
0.875469983	-0.50612998	-1.52989995	154	240	0
0.875469983	-0.503069997	-1.5309	154	240	0
0.876020014	-0.501779974	-1.53219998	154	240	0
0.873449981	-0.502309978	-1.53380001	154	240	0
0.872900009	-0.500649989	-1.53340006	154	240	0
0.870329976	-0.501179993	-1.53499997	154	240	0
0.869780004	-0.502319992	-1.53380001	154	240	0
0.866670012	-0.502579987	-1.53460002	154	240	0
0.866670012	-0.501179993	-1.53509998	154	240	0
0.864639997	-0.50195998	-1.53750002	154	240	0
0.864090025	-0.503099978	-1.53620005	154	240	0
0.863550007	-0.504390001	-1.53489995	154	240	0
0.860430002	-0.501699984	-1.53670001	154	240	0
0.86097002	-0.500270009	-1.53799999	154	240	0
0.877680004	-0.501160026	-1.53499997	154	240	0
0.878780007	-0.499989986	-1.53709996	154	240	0
0.878030002	-0.502539992	-1.52929997	154	240	0
0.878030002	-0.504220009	-1.52869999	154	240	0
0.879140019	-0.506110013	-1.52980006	154	240	0
0.857309997	-0.506600022	-1.5359	154	240	0
0.852569997	-0.501429975	-1.53579998	154	240	0
0.849460006	-0.50168997	-1.53659999	154	240	0
0.850000024	-0.500249982	-1.53799999	154	240	0
0.848380029	-0.502560019	-1.5345	154	240	0
0.847299993	-0.503589988	-1.53240001	154	240	0
0.849860013	-0.503069997	-1.5309	154	240	0
0.850939989	-0.502049983	-1.53299999	154	240	0
0.850939989	-0.498959988	-1.53400004	154	240	0
0.853510022	-0.50308001	-1.5309	154	240	0
0.851490021	-0.505540013	-1.53269994	154	240	0
0.848919988	-0.506060004	-1.53429997	154	240	0
0.849860013	-0.50612998	-1.52989995	154	240	0
0.852419972	-0.505609989	-1.52830005	154	240	0
0.846210003	-0.506120026	-1.52980006	154	240	0
0.844190001	-0.505519986	-1.53260005	154	240	0
0.845269978	-0.502810001	-1.53530002	154	240	0
0.845799983	-0.501670003	-1.53659999	154	240	0
0.845269978	-0.499720007	-1.53629994	154	240	0
0.842689991	-0.500230014	-1.53789997	154	240	0
0.843230009	-0.50217998	-1.5381	154	240	0
0.841620028	-0.502799988	-1.53530002	154	240	0
0.839039981	-0.503310025	-1.53680003	154	240	0
0.839039981	-0.501909971	-1.53729999	154	240	0
0.838509977	-0.499949992	-1.53699994	154	240	0
0.841189981	-0.499709994	-1.54149997	154	240	0
0.845920026	-0.500249982	-1.54320002	154	240	0
0.846989989	-0.499339998	-1.54530001	154	240	0
0.845380008	-0.496800005	-1.54340005	154	240	0
0.842790008	-0.497299999	-1.54499996	154	240	0
0.842260003	-0.495490015	-1.54470003	154	240	0
0.839139998	-0.495730013	-1.54540002	154	240	0
0.839139998	-0.494340003	-1.54589999	154	240	0
0.838609993	-0.492599994	-1.54550004	154	240	0
0.835489988	-0.492839992	-1.54630005	154	240	0
0.836549997	-0.494839996	-1.5474	154	240	0
0.836019993	-0.495970011	-1.54620004	154	240	0
0.832899988	-0.496210009	-1.54690003	154	240	0
0.833429992	-0.495079994	-1.54820001	154	240	0
0.832369983	-0.493070006	-1.54700005	154	240	0
0.829779983	-0.49357	-1.54859996	154	240	0
0.830839992	-0.495570004	-1.54970002	154	240	0
0.830839992	-0.496969998	-1.54929996	154	240	0
0.830839992	-0.492460012	-1.55069995	154	240	0
0.831900001	-0.491580009	-1.55280006	154	240	0
0.830839992	-0.489499986	-1.5517	154	240	0
0.828249991	-0.489980012	-1.55320001	154	240	0
0.828779995	-0.491809994	-1.55350006	154	240	0
0.828249991	-0.492949992	-1.55229998	154	240	0
0.827189982	-0.49406001	-1.55009997	154	240	0
0.826139987	-0.495029986	-1.54799998	154	240	0
0.824549973	-0.49564001	-1.54519999	154	240	0
0.822489977	-0.496390015	-1.54750001	154	240	0
0.822489977	-0.495000005	-1.54789996	154	240	0
0.820429981	-0.494260013	-1.55079997	154	240	0
0.822000027	-0.493409991	-1.55369997	154	240	0
0.822000027	-0.492009997	-1.55410004	154	240	0
0.822000027	-0.490440011	-1.5546	154	240	0
0.822529972	-0.489010006	-1.55599999	154	240	0
0.823059976	-0.487899989	-1.55719995	154	240	0
0.823580027	-0.486580014	-1.55850005	154	240	0
0.826709986	-0.48635	-1.55780005	154	240	0
0.826709986	-0.484750003	-1.55830002	154	240	0
0.828289986	-0.483900011	-1.56120002	154	240	0
0.83089	-0.485029995	-1.55920005	154	240	0
0.83089	-0.486629993	-1.55869997	154	240	0
0.829840004	-0.487699986	-1.55659997	154	240	0
0.83089	-0.489569992	-1.55780005	154	240	0
0.832430005	-0.488579988	-1.5546	154	240	0
0.832430005	-0.487210006	-1.55499995	154	240	0
0.827229977	-0.488180012	-1.55809999	154	240	0
0.826709986	-0.489300013	-1.55690002	154	240	0
0.826709986	-0.492549986	-1.55589998	154	240	0
0.825649977	-0.493429989	-1.55379999	154	240	0
0.824599981	-0.494540006	-1.5517	154	240	0
0.825129986	-0.490209997	-1.5539	154	240	0
0.829869986	-0.483029991	-1.56420004	154	240	0
0.831449986	-0.482179999	-1.56710005	154	240	0
0.834060013	-0.4833	-1.56509995	154	240	0
0.833530009	-0.484670013	-1.56369996	154	240	0
0.836139977	-0.484189987	-1.56219995	154	240	0
0.836139977	-0.485810012	-1.56169999	154	240	0
0.835609972	-0.487159997	-1.56040001	154	240	0
0.825680017	-0.485989988	-1.56229997	154	240	0
0.818359971	-0.491979986	-1.55400002	154	240	0
0.817309976	-0.489899993	-1.55289996	154	240	0
0.81625998	-0.492339998	-1.55040002	154	240	0
0.815209985	-0.493449986	-1.54820001	154	240	0
0.815739989	-0.496589988	-1.54809999	154	240	0
0.817309976	-0.495979995	-1.551	154	240	0
0.81418997	-0.496199995	-1.5517	154	240	0
0.81832999	-0.494709998	-1.54700005	154	240	0
0.817279994	-0.495579988	-1.54499996	154	240	0
0.816219985	-0.496609986	-1.54289997	154	240	0
0.815699995	-0.498109996	-1.54149997	154	240	0
0.816219985	-0.499799997	-1.54180002	154	240	0
0.818799973	-0.499309987	-1.54030001	154	240	0
0.819859982	-0.498409986	-1.5424	154	240	0
0.819859982	-0.49665001	-1.54299998	154	240	0
0.822969973	-0.496410012	-1.54219997	154	240	0
0.821910024	-0.497649997	-1.53999996	154	240	0
0.821380019	-0.498820007	-1.5388	154	240	0
0.82032001	-0.499830008	-1.53670001	154	240	0
0.82032001	-0.501529992	-1.53610003	154	240	0
0.819800019	-0.502659976	-1.53480005	154	240	0
0.822889984	-0.502430022	-1.53410006	154	240	0
0.822359979	-0.500769973	-1.53380001	154	240	0
0.823419988	-0.499599993	-1.5359	154	240	0
0.823949993	-0.498320013	-1.53729999	154	240	0
0.827059984	-0.499619991	-1.53600001	154	240	0
0.825990021	-0.50079	-1.53390002	154	240	0
0.825460017	-0.503470004	-1.53209996	154	240	0
0.825990021	-0.505420029	-1.5323	154	240	0
0.825990021	-0.506799996	-1.53190005	154	240	0
0.828559995	-0.506290019	-1.53040004	154	240	0
0.828559995	-0.504920006	-1.53079998	154	240	0
0.829089999	-0.503499985	-1.53219998	154	240	0
0.831130028	-0.504410028	-1.52929997	154	240	0
0.831659973	-0.506049991	-1.52960002	154	240	0
0.834219992	-0.505540013	-1.52810001	154	240	0
0.836780012	-0.505029976	-1.52649999	154	240	0
0.838389993	-0.504450023	-1.52939999	154	240	0
0.838930011	-0.503030002	-1.53079998	154	240	0
0.836369991	-0.503539979	-1.5323	154	240	0
0.835829973	-0.504960001	-1.5309	154	240	0
0.834330022	-0.502759993	-1.5352	154	240	0
0.834869981	-0.501630008	-1.53639996	154	240	0
0.83326	-0.499150008	-1.53460002	154	240	0
0.830160022	-0.499390006	-1.53530002	154	240	0
0.831229985	-0.501609981	-1.53639996	154	240	0
0.831229985	-0.503009975	-1.5359	154	240	0
0.827589989	-0.502979994	-1.53579998	154	240	0
0.841489971	-0.502520025	-1.52919996	154	240	0
0.841489971	-0.505569994	-1.52820003	154	240	0
0.836239994	-0.507929981	-1.52470005	154	240	0
0.836239994	-0.509299994	-1.52419996	154	240	0
0.839339972	-0.507679999	-1.52390003	154	240	0
0.838259995	-0.505490005	-1.52289999	154	240	0
0.834630013	-0.505469978	-1.52279997	154	240	0
0.831539989	-0.505720019	-1.52359998	154	240	0
0.831009984	-0.50711	-1.52219999	154	240	0
0.831539989	-0.508750021	-1.52260005	154	240	0
0.831539989	-0.51027	-1.52209997	154	240	0
0.831009984	-0.511520028	-1.52079999	154	240	0
0.83355999	-0.510999978	-1.51919997	154	240	0
0.834100008	-0.509750009	-1.52049994	154	240	0
0.836650014	-0.509239972	-1.51900005	154	240	0
0.835569978	-0.510219991	-1.51689994	154	240	0
0.835030019	-0.51147002	-1.51559997	154	240	0
0.835030019	-0.513000011	-1.51499999	154	240	0
0.835569978	-0.514800012	-1.51530004	154	240	0
0.839190006	-0.51481998	-1.51540005	154	240	0
0.839730024	-0.513559997	-1.51670003	154	240	0
0.839730024	-0.512019992	-1.51719999	154	240	0
0.838649988	-0.509959996	-1.51610005	154	240	0
0.83811003	-0.508180022	-1.5158	154	240	0
0.842819989	-0.51177001	-1.5165	154	240	0
0.843360007	-0.513570011	-1.51670003	154	240	0
0.843360007	-0.515100002	-1.51619995	154	240	0
0.846449971	-0.513310015	-1.51600003	154	240	0
0.846989989	-0.515110016	-1.51619995	154	240	0
0.850080013	-0.51485002	-1.51549995	154	240	0
0.850080013	-0.513320029	-1.51600003	154	240	0
0.853169978	-0.513059974	-1.51520002	154	240	0
0.853169978	-0.514590025	-1.51470006	154	240	0
0.852079988	-0.515559971	-1.51259995	154	240	0
0.852079988	-0.517080009	-1.51209998	154	240	0
0.848990023	-0.51582998	-1.51339996	154	240	0
0.847360015	-0.516529977	-1.51049995	154	240	0
0.844820023	-0.517059982	-1.51199996	154	240	0
0.845359981	-0.515820026	-1.51329994	154	240	0
0.849349976	-0.517229974	-1.50759995	154	240	0
0.850790024	-0.517639995	-1.50390005	154	240	0
0.84969002	-0.518519998	-1.50189996	154	240	0
0.852769971	-0.518260002	-1.50109994	154	240	0
0.853860021	-0.520250022	-1.50220001	154	240	0
0.854409993	-0.522099972	-1.50240004	154	240	0
0.853860021	-0.523389995	-1.50109994	154	240	0
0.856389999	-0.522840023	-1.49950004	154	240	0
0.856389999	-0.524339974	-1.49899995	154	240	0
0.856939971	-0.52609998	-1.4993	154	240	0
0.857490003	-0.521830022	-1.50160003	154	240	0
0.856939971	-0.519980013	-1.50139999	154	240	0
0.855840027	-0.517989993	-1.50030005	154	240	0
0.851339996	-0.522369981	-1.50320005	154	240	0
0.851880014	-0.52105999	-1.50450003	154	240	0
0.84969002	-0.523109972	-1.50030005	154	240	0
0.854960024	-0.517920017	-1.50479996	154	240	0
0.856060028	-0.516969979	-1.50680006	154	240	0
0.854070008	-0.517780006	-1.50919998	154	240	0
0.855170012	-0.515299976	-1.51180005	154	240	0
0.856260002	-0.517350018	-1.51289999	154	240	0
0.858799994	-0.51681	-1.51129997	154	240	0
0.859350026	-0.515569985	-1.51259995	154	240	0
0.86243999	-0.515299976	-1.51180005	154	240	0
0.863539994	-0.514330029	-1.51390004	154	240	0
0.86243999	-0.51226002	-1.51289999	154	240	0
0.859350026	-0.512530029	-1.51370001	154	240	0
0.856260002	-0.512799978	-1.51440001	154	240	0
0.857909977	-0.51207	-1.51730001	154	240	0
0.861000001	-0.511799991	-1.51660001	154	240	0
0.864090025	-0.511529982	-1.5158	154	240	0
0.866639972	-0.512530029	-1.51359999	154	240	0
0.867190003	-0.514320016	-1.51390004	154	240	0
0.870280027	-0.515559971	-1.51259995	154	240	0
0.873380005	-0.515280008	-1.51180005	154	240	0
0.875039995	-0.514580011	-1.51470006	154	240	0
0.87559998	-0.513310015	-1.51600003	154	240	0
0.876150012	-0.512040019	-1.51730001	154	240	0
0.876150012	-0.510519981	-1.51779997	154	240	0
0.87559998	-0.508740008	-1.51750004	154	240	0
0.876709998	-0.507749975	-1.51960003	154	240	0
0.879809976	-0.50898999	-1.51830006	154	240	0
0.880919993	-0.508000016	-1.52030003	154	240	0
0.88459003	-0.509509981	-1.51979995	154	240	0
0.888249993	-0.509490013	-1.51970005	154	240	0
0.890799999	-0.508939981	-1.51810002	154	240	0
0.890799999	-0.510460019	-1.51760006	154	240	0
0.891919971	-0.512510002	-1.5187	154	240	0
0.895030022	-0.512220025	-1.51779997	154	240	0
0.896160007	-0.511229992	-1.51989996	154	240	0
0.895590007	-0.515550017	-1.51750004	154	240	0
0.878700018	-0.509980023	-1.51619995	154	240	0
0.879809976	-0.512030005	-1.51719999	154	240	0
0.880370021	-0.513830006	-1.51750004	154	240	0
0.872500002	-0.509019971	-1.51830006	154	240	0
0.873600006	-0.511059999	-1.5194	154	240	0
0.873600006	-0.512589991	-1.51890004	154	240	0
0.87105	-0.511600018	-1.52100003	154	240	0
0.87105	-0.51007998	-1.52149999	154	240	0
0.872160017	-0.509090006	-1.52359998	154	240	0
0.871599972	-0.507459998	-1.52330005	154	240	0
0.872160017	-0.506060004	-1.52460003	154	240	0
0.868499994	-0.507730007	-1.52409995	154	240	0
0.869050026	-0.509360015	-1.5244	154	240	0
0.869599998	-0.511150002	-1.52470005	154	240	0
0.867950022	-0.511870027	-1.52180004	154	240	0
0.865939975	-0.512679994	-1.52419996	154	240	0
0.865390003	-0.510890007	-1.52390003	154	240	0
0.866490006	-0.50989002	-1.52600002	154	240	0
0.862829983	-0.509899974	-1.52600002	154	240	0
0.861739993	-0.507990003	-1.52489996	154	240	0
0.860639989	-0.505810022	-1.52380002	154	240	0
0.856999993	-0.505800009	-1.52380002	154	240	0
0.858630002	-0.508260012	-1.52569997	154	240	0
0.860270023	-0.510429978	-1.52760005	154	240	0
0.855530024	-0.50989002	-1.52600002	154	240	0
0.854979992	-0.508249998	-1.52569997	154	240	0
0.864289999	-0.507470012	-1.52330005	154	240	0
0.864839971	-0.506070018	-1.52460003	154	240	0
0.867950022	-0.505800009	-1.52380002	154	240	0
0.872500002	-0.515120029	-1.51629996	154	240	0
0.870840013	-0.512790024	-1.51440001	154	240	0
0.868849993	-0.512059987	-1.51730001	154	240	0
0.870840013	-0.506709993	-1.5165	154	240	0
0.871710002	-0.515990019	-1.50890005	154	240	0
0.871710002	-0.517499983	-1.50839996	154	240	0
0.871710002	-0.51898998	-1.5079	154	240	0
0.868070006	-0.515999973	-1.50890005	154	240	0
0.867519975	-0.517229974	-1.50759995	154	240	0
0.866959989	-0.518459976	-1.50629997	154	240	0
0.863879979	-0.517239988	-1.50759995	154	240	0
0.863879979	-0.515730023	-1.50820005	154	240	0
0.864979982	-0.514760017	-1.51020002	154	240	0
0.860790014	-0.515999973	-1.50890005	154	240	0
0.860790014	-0.517509997	-1.50839996	154	240	0
0.861000001	-0.514869988	-1.51549995	154	240	0
0.857909977	-0.515129983	-1.51629996	154	240	0
0.859549999	-0.511349976	-1.52020001	154	240	0
0.859549999	-0.509829998	-1.52069998	154	240	0
0.856450021	-0.510089993	-1.52149999	154	240	0
0.856999993	-0.511879981	-1.52180004	154	240	0
0.85589999	-0.512870014	-1.51970005	154	240	0
0.853349984	-0.513400018	-1.52129996	154	240	0
0.852810025	-0.511600018	-1.52100003	154	240	0
0.852259994	-0.509819984	-1.52069998	154	240	0
0.848619998	-0.509809971	-1.52069998	154	240	0
0.848619998	-0.511330009	-1.52020001	154	240	0
0.849170029	-0.513119996	-1.52049994	154	240	0
0.848079979	-0.508019984	-1.52040005	154	240	0
0.848619998	-0.50691998	-1.52170002	154	240	0
0.849170029	-0.50553	-1.523	154	240	0
0.846069992	-0.505779982	-1.52380002	154	240	0
0.846069992	-0.507439971	-1.52320004	154	240	0
0.844990015	-0.508279979	-1.52119994	154	240	0
0.841889977	-0.508530021	-1.52190006	154	240	0
0.841889977	-0.507160008	-1.52240002	154	240	0
0.842970014	-0.506030023	-1.52450001	154	240	0
0.843360007	-0.509000003	-1.51830006	154	240	0
0.844990015	-0.511319995	-1.52020001	154	240	0
0.852810025	-0.505540013	-1.523	154	240	0
0.858590007	-0.517920017	-1.50479996	154	240	0
0.861670017	-0.517650008	-1.50399995	154	240	0
0.833019972	-0.51226002	-1.51789999	154	240	0
0.828450024	-0.510510027	-1.52279997	154	240	0
0.828989983	-0.509259999	-1.52409995	154	240	0
0.828989983	-0.507889986	-1.52460003	154	240	0
0.828450024	-0.505959988	-1.52429998	154	240	0
0.825900018	-0.508130014	-1.52530003	154	240	0
0.826430023	-0.509769976	-1.52559996	154	240	0
0.823870003	-0.50891	-1.52760005	154	240	0
0.824400008	-0.507510006	-1.52900004	154	240	0
0.826960027	-0.507000029	-1.52750003	154	240	0
0.821309984	-0.507749975	-1.52970004	154	240	0
0.820249975	-0.508880019	-1.52750003	154	240	0
0.822269976	-0.50948	-1.52479994	154	240	0
0.816619992	-0.508849978	-1.52740002	154	240	0
0.816100001	-0.50691998	-1.52719998	154	240	0
0.813530028	-0.509079993	-1.52810001	154	240	0
0.814059973	-0.506169975	-1.52999997	154	240	0
0.814589977	-0.505069971	-1.53129995	154	240	0
0.815639973	-0.503910005	-1.53340006	154	240	0
0.816699982	-0.502889991	-1.53559995	154	240	0
0.817219973	-0.501760006	-1.53680003	154	240	0
0.816169977	-0.499540001	-1.53579998	154	240	0
0.813600004	-0.500029981	-1.53729999	154	240	0
0.809970021	-0.499989986	-1.53719997	154	240	0
0.812070012	-0.49950999	-1.54089999	154	240	0
0.813120008	-0.498600006	-1.54299998	154	240	0
0.812590003	-0.496580005	-1.54270005	154	240	0
0.810010016	-0.498829991	-1.54369998	154	240	0
0.808969975	-0.499729991	-1.54159999	154	240	0
0.805859983	-0.499960005	-1.54229999	154	240	0
0.807430029	-0.499309987	-1.54519999	154	240	0
0.807919979	-0.496019989	-1.54100001	154	240	0
0.817680001	-0.503149986	-1.53110003	154	240	0
0.81874001	-0.505370021	-1.53219998	154	240	0
0.818210006	-0.506470025	-1.5309	154	240	0
0.812020004	-0.502330005	-1.53380001	154	240	0
0.811500013	-0.500670016	-1.53349996	154	240	0
0.811500013	-0.503610015	-1.53250003	154	240	0
0.811500013	-0.505299985	-1.53199995	154	240	0
0.809920013	-0.505869985	-1.52909994	154	240	0
0.806829989	-0.506099999	-1.52980006	154	240	0
0.807879984	-0.505259991	-1.53190005	154	240	0
0.80734998	-0.503310025	-1.5316	154	240	0
0.807879984	-0.502030015	-1.53289998	154	240	0
0.806309998	-0.499839991	-1.5309	154	240	0
0.803219974	-0.500060022	-1.5316	154	240	0
0.803219974	-0.501460016	-1.53120005	154	240	0
0.804270029	-0.503539979	-1.5323	154	240	0
0.804270029	-0.505219996	-1.53170002	154	240	0
0.800650001	-0.505180001	-1.5316	154	240	0
0.800650001	-0.503489971	-1.53219998	154	240	0
0.800650001	-0.501950026	-1.53269994	154	240	0
0.800650001	-0.500549972	-1.53310001	154	240	0
0.80013001	-0.498589993	-1.53289998	154	240	0
0.79756999	-0.499080002	-1.53429997	154	240	0
0.798089981	-0.501039982	-1.53460002	154	240	0
0.798089981	-0.502430022	-1.53419995	154	240	0
0.797049999	-0.503449976	-1.53199995	154	240	0
0.79756999	-0.505400002	-1.5323	154	240	0
0.796530008	-0.50624001	-1.5302	154	240	0
0.799610019	-0.50602001	-1.52950001	154	240	0
0.802179992	-0.505519986	-1.528	154	240	0
0.792930007	-0.506190002	-1.53009999	154	240	0
0.791369975	-0.504010022	-1.52810001	154	240	0
0.791890025	-0.502600014	-1.52939999	154	240	0
0.790849984	-0.50661999	-1.52629995	154	240	0
0.789820015	-0.507740021	-1.52409995	154	240	0
0.792370021	-0.507250011	-1.52269995	154	240	0
0.792370021	-0.508620024	-1.52219999	154	240	0
0.791849971	-0.509869993	-1.52090001	154	240	0
0.791849971	-0.511389971	-1.52040005	154	240	0
0.789300025	-0.511889994	-1.52180004	154	240	0
0.788779974	-0.510089993	-1.52149999	154	240	0
0.788259983	-0.508300006	-1.52119994	154	240	0
0.785189986	-0.508520007	-1.52190006	154	240	0
0.784680009	-0.509769976	-1.52059996	154	240	0
0.785189986	-0.511560023	-1.52090001	154	240	0
0.78263998	-0.512049973	-1.5223	154	240	0
0.781099975	-0.509710014	-1.52040005	154	240	0
0.786740005	-0.507960021	-1.52479994	154	240	0
0.787259996	-0.506569982	-1.52620006	154	240	0
0.794920027	-0.509649992	-1.52020001	154	240	0
0.795440018	-0.508400023	-1.52149999	154	240	0
0.796490014	-0.507570028	-1.52359998	154	240	0
0.795970023	-0.50563997	-1.52339995	154	240	0
0.792890012	-0.505859971	-1.52400005	154	240	0
0.79956001	-0.505689979	-1.52349997	154	240	0
0.79956001	-0.507350028	-1.52289999	154	240	0
0.800610006	-0.509259999	-1.52409995	154	240	0
0.795440018	-0.511439979	-1.52049994	154	240	0
0.797999978	-0.510940015	-1.51900005	154	240	0
0.797999978	-0.509429991	-1.51960003	154	240	0
0.808870018	-0.508509994	-1.52639997	154	240	0
0.811429977	-0.506349981	-1.52550006	154	240	0
0.822889984	-0.507040024	-1.53260005	154	240	0
0.823419988	-0.505930007	-1.53390002	154	240	0
0.822359979	-0.503709972	-1.53279996	154	240	0
0.83059001	-0.502470016	-1.52900004	154	240	0
0.827660024	-0.496960014	-1.54390001	154	240	0
0.826600015	-0.498199999	-1.54170001	154	240	0
0.828649998	-0.497449994	-1.53939998	154	240	0
0.829180002	-0.499130011	-1.53980005	154	240	0
0.829710007	-0.496210009	-1.54159999	154	240	0
0.833360016	-0.496230006	-1.54170001	154	240	0
0.833360016	-0.499419987	-1.54059994	154	240	0
0.834959984	-0.498769999	-1.54349995	154	240	0
0.837000012	-0.499440014	-1.54069996	154	240	0
0.835030019	-0.491340011	-1.55200005	154	240	0
0.833959997	-0.492220014	-1.54999995	154	240	0
0.838689983	-0.491360009	-1.55209994	154	240	0
0.839749992	-0.49327001	-1.55330002	154	240	0
0.839670002	-0.497539997	-1.54569995	154	240	0
0.840740025	-0.499830008	-1.54680002	154	240	0
0.843330026	-0.49932	-1.54519999	154	240	0
0.844940007	-0.495389998	-1.54910004	154	240	0
0.843869984	-0.49338001	-1.54799998	154	240	0
0.840870023	-0.486330003	-1.56340003	154	240	0
0.841400027	-0.48495999	-1.56470001	154	240	0
0.844550014	-0.484730005	-1.56389999	154	240	0
0.843479991	-0.485839993	-1.5618	154	240	0
0.846679986	-0.484100014	-1.56770003	154	240	0
0.846149981	-0.482259989	-1.56729996	154	240	0
0.84720999	-0.481169999	-1.56949997	154	240	0
0.850359976	-0.480930001	-1.56869996	154	240	0
0.849829972	-0.482270002	-1.56739998	154	240	0
0.845120013	-0.48348999	-1.57130003	154	240	0
0.844060004	-0.484589994	-1.56920004	154	240	0
0.840910017	-0.484820008	-1.57000005	154	240	0
0.841970026	-0.483720005	-1.57210004	154	240	0
0.839349985	-0.484200001	-1.57369995	154	240	0
0.837759972	-0.481860012	-1.57169998	154	240	0
0.839850008	-0.481139988	-1.56930006	154	240	0
0.840910017	-0.480040014	-1.57149994	154	240	0
0.838289976	-0.478929996	-1.57350004	154	240	0
0.842999995	-0.48089999	-1.56860006	154	240	0
0.841970026	-0.47744	-1.574	154	240	0
0.843029976	-0.479440004	-1.57519996	154	240	0
0.836179972	-0.479530007	-1.56980002	154	240	0
0.853439987	-0.491609991	-1.55840003	154	240	0
0.856040001	-0.491109997	-1.55680001	154	240	0
0.858640015	-0.490610003	-1.55519998	154	240	0
0.861240029	-0.49011001	-1.55359995	154	240	0
0.861240029	-0.491679996	-1.55309999	154	240	0
0.861240029	-0.493070006	-1.55270004	154	240	0
0.864369988	-0.491420001	-1.55229998	154	240	0
0.863290012	-0.489349991	-1.55120003	154	240	0
0.860350013	-0.483639985	-1.56620002	154	240	0
0.870350003	-0.486389995	-1.56359994	154	240	0
0.885160029	-0.483110011	-1.56449997	154	240	0
0.903729975	-0.486259997	-1.5632	154	240	0
0.90316999	-0.487619996	-1.56190002	154	240	0
0.902620018	-0.490319997	-1.56009996	154	240	0
0.905780017	-0.490049988	-1.55929995	154	240	0
0.906340003	-0.488920003	-1.56050003	154	240	0
0.906340003	-0.487349987	-1.56099999	154	240	0
0.906340003	-0.485740006	-1.56149995	154	240	0
0.908940017	-0.485219985	-1.55980003	154	240	0
0.908940017	-0.486820012	-1.55929995	154	240	0
0.910420001	-0.485810012	-1.55610001	154	240	0
0.910420001	-0.487379998	-1.55560005	154	240	0
0.911539972	-0.489239991	-1.55669999	154	240	0
0.910979986	-0.490680009	-1.55540001	154	240	0
0.911539972	-0.493889987	-1.55519998	154	240	0
0.907819986	-0.492529988	-1.55579996	154	240	0
0.906710029	-0.493420005	-1.55379999	154	240	0
0.904110014	-0.493950009	-1.55540001	154	240	0
0.904110014	-0.492559999	-1.55589998	154	240	0
0.902989984	-0.490480006	-1.55480003	154	240	0
0.906149983	-0.490209997	-1.5539	154	240	0
0.907819986	-0.489270002	-1.55680001	154	240	0
0.905030012	-0.494289994	-1.55089998	154	240	0
0.907060027	-0.495000005	-1.54789996	154	240	0
0.910210013	-0.494720012	-1.54709995	154	240	0
0.909300029	-0.494520009	-1.55159998	154	240	0
0.912460029	-0.494230002	-1.55069995	154	240	0
0.914139986	-0.487349987	-1.55550003	154	240	0
0.914139986	-0.485769987	-1.55599999	154	240	0
0.877200007	-0.489309996	-1.56169999	154	240	0
0.876649976	-0.487480015	-1.56140006	154	240	0
0.873920023	-0.492430001	-1.55550003	154	240	0
0.873380005	-0.493580014	-1.55420005	154	240	0
0.873380005	-0.490610003	-1.55519998	154	240	0
0.873920023	-0.489179999	-1.55649996	154	240	0
0.870230019	-0.489179999	-1.55649996	154	240	0
0.869690001	-0.490610003	-1.55519998	154	240	0
0.870779991	-0.492689997	-1.55630004	154	240	0
0.869140029	-0.493330002	-1.55350006	154	240	0
0.866550028	-0.493840009	-1.55509996	154	240	0
0.870779991	-0.486490011	-1.5582	154	240	0
0.872409999	-0.488819987	-1.56009996	154	240	0
0.879119992	-0.494419992	-1.55130005	154	240	0
0.908850014	-0.500069976	-1.53740001	154	240	0
0.908290029	-0.501510024	-1.53610003	154	240	0
0.907720029	-0.502650023	-1.53480005	154	240	0
0.905709982	-0.50345999	-1.53729999	154	240	0
0.904590011	-0.501540005	-1.53620005	154	240	0
0.901449978	-0.501829982	-1.53699994	154	240	0
0.902570009	-0.503740013	-1.5381	154	240	0
0.899439991	-0.502619982	-1.5395	154	240	0
0.898880005	-0.503769994	-1.53820002	154	240	0
0.899770021	-0.499359995	-1.5352	154	240	0
0.902339995	-0.498820007	-1.53359997	154	240	0
0.897199988	-0.499900013	-1.53690004	154	240	0
0.915120006	-0.502579987	-1.53460002	154	240	0
0.915690005	-0.504390001	-1.53489995	154	240	0
0.918829978	-0.504100025	-1.53400004	154	240	0
0.920530021	-0.503310025	-1.53680003	154	240	0
0.920530021	-0.501909971	-1.53729999	154	240	0
0.92110002	-0.500469983	-1.53859997	154	240	0
0.92110002	-0.498930007	-1.53910005	154	240	0
0.922230005	-0.49801001	-1.54120004	154	240	0
0.922800004	-0.496509999	-1.54250002	154	240	0
0.925379992	-0.495959997	-1.54079998	154	240	0
0.927089989	-0.498479992	-1.54260004	154	240	0
0.927389979	-0.49691999	-1.53779995	154	240	0
0.926240027	-0.497839987	-1.53569996	154	240	0
0.926240027	-0.499370009	-1.5352	154	240	0
0.923669994	-0.498389989	-1.53740001	154	240	0
0.924809992	-0.500429988	-1.53849995	154	240	0
0.925949991	-0.502640009	-1.5395	154	240	0
0.924809992	-0.503530025	-1.53750002	154	240	0
0.928529978	-0.503480017	-1.53740001	154	240	0
0.929669976	-0.502590001	-1.53939998	154	240	0
0.919089973	-0.49654001	-1.54260004	154	240	0
0.919089973	-0.499740005	-1.54159999	154	240	0
0.915939987	-0.500029981	-1.54250002	154	240	0
0.917069972	-0.4991	-1.54449999	154	240	0
0.915380001	-0.496580005	-1.54279995	154	240	0
0.920790017	-0.499069989	-1.54439998	154	240	0
0.917389989	-0.500509977	-1.5388	154	240	0
0.91681999	-0.501950026	-1.53740001	154	240	0
0.922529995	-0.504050016	-1.53390002	154	240	0
0.920830011	-0.504970014	-1.53100002	154	240	0
0.920260012	-0.506079972	-1.52970004	154	240	0
0.919120014	-0.507070005	-1.52769995	154	240	0
0.918550014	-0.508480012	-1.52629995	154	240	0
0.917410016	-0.509329975	-1.52429998	154	240	0
0.919969976	-0.508769989	-1.52260005	154	240	0
0.921679974	-0.508180022	-1.52540004	154	240	0
0.921679974	-0.506519973	-1.52600002	154	240	0
0.915419996	-0.508780003	-1.52719998	154	240	0
0.915989995	-0.507369995	-1.52859998	154	240	0
0.915989995	-0.505859971	-1.52909994	154	240	0
0.91711998	-0.505010009	-1.53110003	154	240	0
0.913420022	-0.505050004	-1.53120005	154	240	0
0.911719978	-0.50563997	-1.52839994	154	240	0
0.908599973	-0.50594002	-1.52929997	154	240	0
0.908599973	-0.509109974	-1.52820003	154	240	0
0.911719978	-0.508819997	-1.5273	154	240	0
0.910030007	-0.506370008	-1.52559996	154	240	0
0.906899989	-0.506659985	-1.52639997	154	240	0
0.92395997	-0.506039977	-1.52960002	154	240	0
0.92395997	-0.504670024	-1.53009999	154	240	0
0.926240027	-0.504010022	-1.53369999	154	240	0
0.893840015	-0.506049991	-1.52960002	154	240	0
0.896409988	-0.505500019	-1.528	154	240	0
0.890380025	-0.495480001	-1.53929996	154	240	0
0.88854003	-0.493629992	-1.54879999	154	240	0
0.889100015	-0.495370001	-1.54910004	154	240	0
0.87105	-0.500020027	-1.54250002	154	240	0
0.871590018	-0.498849988	-1.54369998	154	240	0
0.87213999	-0.497339994	-1.54509997	154	240	0
0.874180019	-0.496560007	-1.54270005	154	240	0
0.874180019	-0.498320013	-1.54209995	154	240	0
0.873629987	-0.499500006	-1.54089999	154	240	0
0.904640019	-0.508650005	-1.5223	154	240	0
0.904640019	-0.510179996	-1.52180004	154	240	0
0.904640019	-0.511699975	-1.52129996	154	240	0
0.904079974	-0.512960017	-1.51999998	154	240	0
0.907760024	-0.512920022	-1.51989996	154	240	0
0.907760024	-0.511399984	-1.52040005	154	240	0
0.907760024	-0.509880006	-1.52090001	154	240	0
0.907190025	-0.508099973	-1.52059996	154	240	0
0.91030997	-0.507799983	-1.51979995	154	240	0
0.91030997	-0.509320021	-1.51919997	154	240	0
0.910880029	-0.511099994	-1.51950002	154	240	0
0.912010014	-0.513149977	-1.52059996	154	240	0
0.914569974	-0.512589991	-1.51890004	154	240	0
0.913999975	-0.510800004	-1.51859999	154	240	0
0.913429976	-0.509019971	-1.51839995	154	240	0
0.915970027	-0.508459985	-1.51670003	154	240	0
0.917680025	-0.510760009	-1.51849997	154	240	0
0.918250024	-0.512549996	-1.51880002	154	240	0
0.89842999	-0.514890015	-1.51059997	154	240	0
0.877629995	-0.522530019	-1.49860001	154	240	0
0.88015002	-0.521969974	-1.49699998	154	240	0
0.88015002	-0.523469985	-1.49650002	154	240	0
0.879589975	-0.524680018	-1.49520004	154	240	0
0.88211	-0.524110019	-1.49360001	154	240	0
0.882669985	-0.521409988	-1.49539995	154	240	0
0.885749996	-0.524089992	-1.49349999	154	240	0
0.888819993	-0.523800015	-1.49269998	154	240	0
0.888819993	-0.526650012	-1.49170005	154	240	0
0.887130022	-0.527369976	-1.48880005	154	240	0
0.889639974	-0.526799977	-1.48720002	154	240	0
0.888499975	-0.527769983	-1.48510003	154	240	0
0.890770018	-0.524370015	-1.48979998	154	240	0
0.884620011	-0.527949989	-1.49039996	154	240	0
0.885179996	-0.526669979	-1.49170005	154	240	0
0.883490026	-0.524420023	-1.48989999	154	240	0
0.886560023	-0.524119973	-1.48909998	154	240	0
0.880980015	-0.526419997	-1.49100006	154	240	0
0.880980015	-0.527960002	-1.49049997	154	240	0
0.878470004	-0.528530002	-1.4921	154	240	0
0.877910018	-0.526709974	-1.49179995	154	240	0
0.877910018	-0.525269985	-1.49240005	154	240	0
0.879859984	-0.524429977	-1.49000001	154	240	0
0.892780006	-0.521160007	-1.49969995	154	240	0
0.892780006	-0.522729993	-1.49919999	154	240	0
0.891650021	-0.523679972	-1.4971	154	240	0
0.888289988	-0.520990014	-1.5043	154	240	0
0.89270997	-0.530849993	-1.48479998	154	240	0
0.891569972	-0.531799972	-1.48269999	154	240	0
0.894640028	-0.531490028	-1.48179996	154	240	0
0.895210028	-0.53026998	-1.48319995	154	240	0
0.898280025	-0.529959977	-1.48230004	154	240	0
0.897140026	-0.530910015	-1.48020005	154	240	0
0.897710025	-0.534229994	-1.4799	154	240	0
0.896000028	-0.53490001	-1.477	154	240	0
0.896000028	-0.536300004	-1.47650003	154	240	0
0.896000028	-0.537729979	-1.47599995	154	240	0
0.894070029	-0.534259975	-1.48000002	154	240	0
0.891569972	-0.534839988	-1.48160005	154	240	0
0.893280029	-0.534139991	-1.48450005	154	240	0
0.890200019	-0.534449995	-1.48529994	154	240	0
0.896350026	-0.533829987	-1.48360002	154	240	0
0.899990022	-0.533800006	-1.4835	154	240	0
0.872020006	-0.521809995	-1.50160003	154	240	0
0.854740024	-0.526419997	-1.49559999	154	240	0
0.853389978	-0.531260014	-1.48590004	154	240	0
0.852840006	-0.52956003	-1.48570001	154	240	0
0.852840006	-0.528150022	-1.48619998	154	240	0
0.849780023	-0.528419971	-1.48689997	154	240	0
0.849229991	-0.52956003	-1.48559999	154	240	0
0.848129988	-0.530420005	-1.48360002	154	240	0
0.841480017	-0.532180011	-1.48380005	154	240	0
0.834290028	-0.53065002	-1.4842	154	240	0
0.834290028	-0.532149971	-1.48370004	154	240	0
0.834290028	-0.533659995	-1.48310006	154	240	0
0.831780016	-0.534210026	-1.48469996	154	240	0
0.837339997	-0.533389986	-1.48239994	154	240	0
0.835699975	-0.531040013	-1.4806	154	240	0
0.838739991	-0.532270014	-1.47930002	154	240	0
0.837100029	-0.532949984	-1.47640002	154	240	0
0.834609985	-0.533510029	-1.47790003	154	240	0
0.836000025	-0.535290003	-1.47370005	154	240	0
0.836549997	-0.537	-1.47399998	154	240	0
0.839039981	-0.536440015	-1.47249997	154	240	0
0.833509982	-0.53727001	-1.47479999	154	240	0
0.832970023	-0.535560012	-1.47449994	154	240	0
0.829930007	-0.535830021	-1.47520006	154	240	0
0.828840017	-0.536679983	-1.47309995	154	240	0
0.826900005	-0.53609997	-1.47590005	154	240	0
0.834909976	-0.53332001	-1.4727	154	240	0
0.824609995	-0.534160018	-1.48450005	154	240	0
0.824720025	-0.536369979	-1.47230005	154	240	0
0.822239995	-0.536920011	-1.47379994	154	240	0
0.816709995	-0.53490001	-1.477	154	240	0
0.816169977	-0.536019981	-1.47570002	154	240	0
0.815100014	-0.536859989	-1.47360003	154	240	0
0.817579985	-0.536310017	-1.47210002	154	240	0
0.812070012	-0.537119985	-1.47430003	154	240	0
0.812070012	-0.53569001	-1.47479999	154	240	0
0.812600017	-0.534579992	-1.47609997	154	240	0
0.814220011	-0.533930004	-1.47909999	154	240	0
0.814220011	-0.532389998	-1.47959995	154	240	0
0.814750016	-0.531180024	-1.48099995	154	240	0
0.814750016	-0.529680014	-1.48150003	154	240	0
0.812789977	-0.530499995	-1.48380005	154	240	0
0.812789977	-0.52907002	-1.48430002	154	240	0
0.812789977	-0.532000005	-1.48319995	154	240	0
0.809750021	-0.532249987	-1.48389995	154	240	0
0.808679998	-0.533179998	-1.48179996	154	240	0
0.808149993	-0.534430027	-1.48049998	154	240	0
0.811179996	-0.534179986	-1.47979999	154	240	0
0.810109973	-0.532069981	-1.47870004	154	240	0
0.80904001	-0.534539998	-1.47599995	154	240	0
0.80904001	-0.535950005	-1.47549999	154	240	0
0.809580028	-0.537660003	-1.47580004	154	240	0
0.806010008	-0.537620008	-1.47570002	154	240	0
0.804939985	-0.535619974	-1.47459996	154	240	0
0.804409981	-0.533930004	-1.47440004	154	240	0
0.802980006	-0.533529997	-1.47800004	154	240	0
0.804050028	-0.532570004	-1.48010004	154	240	0
0.805649996	-0.531920016	-1.48300004	154	240	0
0.803680003	-0.531239986	-1.48590004	154	240	0
0.802079976	-0.52895999	-1.48399997	154	240	0
0.799049973	-0.529200017	-1.48459995	154	240	0
0.797990024	-0.527220011	-1.48360002	154	240	0
0.795490026	-0.527740002	-1.48500001	154	240	0
0.796019971	-0.52651	-1.48640001	154	240	0
0.796549976	-0.529730022	-1.48609996	154	240	0
0.796549976	-0.531149983	-1.48559999	154	240	0
0.800109982	-0.531189978	-1.48570001	154	240	0
0.802079976	-0.531880021	-1.48290002	154	240	0
0.800490022	-0.53253001	-1.48000002	154	240	0
0.79746002	-0.531270027	-1.48119998	154	240	0
0.794430017	-0.531509995	-1.48189998	154	240	0
0.793370008	-0.532440007	-1.47969997	154	240	0
0.795870006	-0.531910002	-1.47829998	154	240	0
0.797829986	-0.532630026	-1.47549999	154	240	0
0.796769977	-0.533559978	-1.47329998	154	240	0
0.797829986	-0.535539985	-1.47440004	154	240	0
0.79835999	-0.537249982	-1.47469997	154	240	0
0.794809997	-0.535780013	-1.47510004	154	240	0
0.793749988	-0.536620021	-1.47300005	154	240	0
0.791260004	-0.537150025	-1.47440004	154	240	0
0.788240016	-0.537389994	-1.47510004	154	240	0
0.788240016	-0.535969973	-1.4756	154	240	0
0.79073	-0.534039974	-1.47459996	154	240	0
0.79073	-0.53253001	-1.47520006	154	240	0
0.793219984	-0.532000005	-1.47370005	154	240	0
0.792689979	-0.533219993	-1.47239995	154	240	0
0.78719002	-0.532480001	-1.47500002	154	240	0
0.786660016	-0.533699989	-1.47370005	154	240	0
0.789300025	-0.532100022	-1.47880006	154	240	0
0.793370008	-0.53688997	-1.47809994	154	240	0
0.799790025	-0.53470999	-1.47210002	154	240	0
0.800320029	-0.533599973	-1.4734	154	240	0
0.800490022	-0.52670002	-1.48210001	154	240	0
0.802980006	-0.53786999	-1.47640002	154	240	0
0.822969973	-0.518050015	-1.50520003	154	240	0
0.819369972	-0.518019974	-1.50510001	154	240	0
0.816839993	-0.517050028	-1.50709999	154	240	0
0.815370023	-0.516610026	-1.51069999	154	240	0
0.816959977	-0.515919983	-1.51359999	154	240	0
0.816959977	-0.514400005	-1.51419997	154	240	0
0.818019986	-0.513419986	-1.51629996	154	240	0
0.820039988	-0.512629986	-1.51400006	154	240	0
0.820569992	-0.514429986	-1.51419997	154	240	0
0.821099997	-0.516219974	-1.51450002	154	240	0
0.821099997	-0.517729998	-1.51400006	154	240	0
0.823109984	-0.516939998	-1.51170003	154	240	0
0.822040021	-0.51789999	-1.50960004	154	240	0
0.825110018	-0.517660022	-1.50890005	154	240	0
0.824580014	-0.515869975	-1.5086	154	240	0
0.827109993	-0.515349984	-1.50709999	154	240	0
0.828190029	-0.51740998	-1.50810003	154	240	0
0.827650011	-0.518630028	-1.50680006	154	240	0
0.830179989	-0.518100023	-1.50530005	154	240	0
0.830720007	-0.516879976	-1.50660002	154	240	0
0.831799984	-0.515919983	-1.50870001	154	240	0
0.834869981	-0.517180026	-1.50750005	154	240	0
0.824180007	-0.515980005	-1.51380002	154	240	0
0.824180007	-0.514460027	-1.51429999	154	240	0
0.826719999	-0.512419999	-1.51329994	154	240	0
0.827790022	-0.514490008	-1.51440001	154	240	0
0.827790022	-0.515999973	-1.51390004	154	240	0
0.822040021	-0.511849999	-1.51160002	154	240	0
0.81388998	-0.514639974	-1.51489997	154	240	0
0.81388998	-0.513109982	-1.51540005	154	240	0
0.812829971	-0.51560998	-1.51269996	154	240	0
0.810280025	-0.514609993	-1.51479995	154	240	0
0.80923003	-0.515569985	-1.51259995	154	240	0
0.808700025	-0.51226002	-1.51289999	154	240	0
0.836130023	-0.529079974	-1.49360001	154	240	0
0.844089985	-0.520770013	-1.50370002	154	240	0
0.843550026	-0.519050002	-1.50339997	154	240	0
0.841560006	-0.521309972	-1.50520003	154	240	0
0.823230028	-0.509679973	-1.52030003	154	240	0
0.813979983	-0.508880019	-1.523	154	240	0
0.817600012	-0.50891	-1.52310002	154	240	0
0.806590021	-0.515709996	-1.50810003	154	240	0
0.806060016	-0.516939998	-1.50680006	154	240	0
0.806590021	-0.518710017	-1.50709999	154	240	0
0.798969984	-0.511150002	-1.51460004	154	240	0
0.797399998	-0.511860013	-1.51170003	154	240	0
0.79993999	-0.51135999	-1.51020002	154	240	0
0.802999973	-0.511129975	-1.50950003	154	240	0
0.795379996	-0.511099994	-1.51450002	154	240	0
0.796429992	-0.513180017	-1.51559997	154	240	0
0.795379996	-0.514169991	-1.51349998	154	240	0
0.796429992	-0.516229987	-1.51460004	154	240	0
0.795379996	-0.51718998	-1.51240003	154	240	0
0.792320013	-0.515900016	-1.51359999	154	240	0
0.792320013	-0.514389992	-1.51409996	154	240	0
0.791800022	-0.512589991	-1.51380002	154	240	0
0.792840004	-0.511600018	-1.51600003	154	240	0
0.789770007	-0.511820018	-1.51660001	154	240	0
0.791279972	-0.516860008	-1.5115	154	240	0
0.812039971	-0.520510018	-1.49779999	154	240	0
0.812579989	-0.522350013	-1.49810004	154	240	0
0.814710021	-0.524959981	-1.50080001	154	240	0
0.806330025	-0.523890018	-1.49300003	154	240	0
0.803290009	-0.524129987	-1.49360001	154	240	0
0.80023998	-0.524370015	-1.49430001	154	240	0
0.79667002	-0.524320006	-1.49419999	154	240	0
0.789539993	-0.52421999	-1.49389994	154	240	0
0.788489997	-0.525080025	-1.49179995	154	240	0
0.790059984	-0.527360022	-1.49370003	154	240	0
0.780749977	-0.534619987	-1.48099995	154	240	0
0.781159997	-0.534449995	-1.47580004	154	240	0
0.779579997	-0.534979999	-1.47290003	154	240	0
0.778540015	-0.535820007	-1.47080004	154	240	0
0.776049972	-0.536339998	-1.47220004	154	240	0
0.777100027	-0.535510004	-1.47430003	154	240	0
0.776570022	-0.533810019	-1.47399998	154	240	0
0.774079978	-0.53433001	-1.47549999	154	240	0
0.774079978	-0.535730004	-1.47500002	154	240	0
0.773039997	-0.536570013	-1.47280002	154	240	0
0.771070004	-0.53737998	-1.47510004	154	240	0
0.771589994	-0.536249995	-1.47640002	154	240	0
0.768060029	-0.536189973	-1.47619998	154	240	0
0.767030001	-0.537020028	-1.47409999	154	240	0
0.763499975	-0.535529971	-1.47440004	154	240	0
0.762979984	-0.536660016	-1.47309995	154	240	0
0.761009991	-0.537460029	-1.47529995	154	240	0
0.759980023	-0.535459995	-1.47420001	154	240	0
0.759459972	-0.533760011	-1.47389996	154	240	0
0.756980002	-0.534269989	-1.47529995	154	240	0
0.757489979	-0.535969973	-1.4756	154	240	0
0.758520007	-0.53798002	-1.47669995	154	240	0
0.754999995	-0.537899971	-1.47650003	154	240	0
0.753970027	-0.535889983	-1.47539997	154	240	0
0.754480004	-0.534780025	-1.47669995	154	240	0
0.754999995	-0.533559978	-1.47800004	154	240	0
0.757489979	-0.533060014	-1.47660005	154	240	0
0.761009991	-0.53312999	-1.47689998	154	240	0
0.764020026	-0.532909989	-1.4763	154	240	0
0.765049994	-0.531960011	-1.47839999	154	240	0
0.762549996	-0.532469988	-1.47979999	154	240	0
0.762549996	-0.530960023	-1.48039997	154	240	0
0.766600013	-0.531319976	-1.48140001	154	240	0
0.768580019	-0.532029986	-1.47860003	154	240	0
0.768060029	-0.533270001	-1.47720003	154	240	0
0.770030022	-0.532469988	-1.47500002	154	240	0
0.768480003	-0.533100009	-1.47210002	154	240	0
0.751479983	-0.534990013	-1.47730005	154	240	0
0.750460029	-0.535809994	-1.47520006	154	240	0
