0.387349993	-0.460480005	-1.60430002	213	121	96
0.390619993	-0.460779995	-1.60529995	213	121	96
0.390619993	-0.45923999	-1.60580003	213	121	96
0.390619993	-0.462359995	-1.6049	213	121	96
0.388559997	-0.463120013	-1.60749996	213	121	96
0.392980009	-0.463459998	-1.6027	213	121	96
0.393900007	-0.462650001	-1.60590005	213	121	96
0.393900007	-0.461070001	-1.6063	213	121	96
0.394510001	-0.460049987	-1.60860002	213	121	96
0.397179991	-0.459809989	-1.60780001	213	121	96
0.397179991	-0.461349994	-1.60730004	213	121	96
0.397179991	-0.462940007	-1.60689998	213	121	96
0.400160015	-0.461380005	-1.60739994	213	121	96
0.400469989	-0.460099995	-1.60880005	213	121	96
0.400779992	-0.458829999	-1.61010003	213	121	96
0.403450012	-0.458590001	-1.60930002	213	121	96
0.403140008	-0.459859997	-1.60800004	213	121	96
0.402830005	-0.461140007	-1.60660005	213	121	96
0.403140008	-0.462989986	-1.60710001	213	121	96
0.400469989	-0.463230014	-1.60790002	213	121	96
0.399540007	-0.464040011	-1.60469997	213	121	96
0.399540007	-0.465730011	-1.60420001	213	121	96
0.396880001	-0.46597001	-1.60500002	213	121	96
0.396259993	-0.463750005	-1.60370004	213	121	96
0.394210011	-0.466210008	-1.60590005	213	121	96
0.402209997	-0.465490013	-1.60339999	213	121	96
0.402209997	-0.463800013	-1.60380006	213	121	96
0.405189991	-0.46382001	-1.60389996	213	121	96
0.405189991	-0.465510011	-1.60339999	213	121	96
0.407849997	-0.465259999	-1.60259998	213	121	96
0.407849997	-0.463580012	-1.60309994	213	121	96
0.408479989	-0.462500006	-1.60539997	213	121	96
0.408789992	-0.461180001	-1.60669994	213	121	96
0.408479989	-0.459380001	-1.6063	213	121	96
0.405809999	-0.459619999	-1.60710001	213	121	96
0.405189991	-0.46063	-1.60479999	213	121	96
0.405809999	-0.462740004	-1.60619998	213	121	96
0.40643999	-0.458609998	-1.60940003	213	121	96
0.409420013	-0.458629996	-1.60940003	213	121	96
0.411460012	-0.459390014	-1.6063	213	121	96
0.411460012	-0.46092999	-1.60590005	213	121	96
0.411150008	-0.462260008	-1.60450006	213	121	96
0.411150008	-0.463860005	-1.60409999	213	121	96
0.413810015	-0.463609993	-1.60319996	213	121	96
0.413500011	-0.461750001	-1.60280001	213	121	96
0.414130002	-0.460689992	-1.60500002	213	121	96
0.414770007	-0.459670007	-1.60730004	213	121	96
0.418069988	-0.45995	-1.60829997	213	121	96
0.418390006	-0.45866999	-1.60959995	213	121	96
0.41602999	-0.459179997	-1.61140001	213	121	96
0.416350007	-0.45776999	-1.6128	213	121	96
0.416669995	-0.456310004	-1.6142	213	121	96
0.413989991	-0.456559986	-1.61500001	213	121	96
0.414299995	-0.455179989	-1.6164	213	121	96
0.414620012	-0.45381999	-1.6178	213	121	96
0.417620003	-0.455449998	-1.61740005	213	121	96
0.420300007	-0.45521	-1.61650002	213	121	96
0.419349998	-0.456070006	-1.61329997	213	121	96
0.419349998	-0.457789987	-1.6128	213	121	96
0.422030002	-0.455819994	-1.61240005	213	121	96
0.422670007	-0.458059996	-1.61380005	213	121	96
0.425989985	-0.458330005	-1.61469996	213	121	96
0.426310003	-0.456860006	-1.61609995	213	121	96
0.426310003	-0.455229998	-1.61660004	213	121	96
0.426959991	-0.45412001	-1.61880004	213	121	96
0.429639995	-0.453869998	-1.61800003	213	121	96
0.429320008	-0.455240011	-1.61660004	213	121	96
0.428669989	-0.456360012	-1.61430001	213	121	96
0.428669989	-0.458079994	-1.61380005	213	121	96
0.431019992	-0.457569987	-1.61199999	213	121	96
0.430049986	-0.45844999	-1.60880005	213	121	96
0.429720014	-0.459729999	-1.60749996	213	121	96
0.429399997	-0.461010009	-1.60609996	213	121	96
0.429720014	-0.462850004	-1.60660005	213	121	96
0.427049994	-0.46311	-1.60749996	213	121	96
0.427049994	-0.461519986	-1.60790002	213	121	96
0.427379996	-0.460240006	-1.60930002	213	121	96
0.427379996	-0.458710015	-1.60969996	213	121	96
0.424059987	-0.459969997	-1.60829997	213	121	96
0.423729986	-0.45818001	-1.60790002	213	121	96
0.420740008	-0.459699988	-1.60739994	213	121	96
0.420740008	-0.462819993	-1.60650003	213	121	96
0.418390006	-0.461750001	-1.60870004	213	121	96
0.421700001	-0.46202001	-1.60969996	213	121	96
0.421700001	-0.458939999	-1.61059999	213	121	96
0.424059987	-0.463099986	-1.60739994	213	121	96
0.426400006	-0.464190006	-1.60520005	213	121	96
0.426079988	-0.465609998	-1.60380006	213	121	96
0.423090011	-0.465600014	-1.60380006	213	121	96
0.423090011	-0.463910013	-1.60420001	213	121	96
0.419779986	-0.463640004	-1.60329998	213	121	96
0.419140011	-0.4648	-1.60099995	213	121	96
0.41584	-0.464520007	-1.60000002	213	121	96
0.412860006	-0.464509994	-1.60000002	213	121	96
0.4102	-0.464749992	-1.60080004	213	121	96
0.409249991	-0.46559	-1.59759998	213	121	96
0.408939987	-0.466850013	-1.59630001	213	121	96
0.408939987	-0.468380004	-1.59580004	213	121	96
0.411280006	-0.467869997	-1.5941	213	121	96
0.410959989	-0.466069996	-1.59360003	213	121	96
0.413929999	-0.46608001	-1.59370005	213	121	96
0.41455999	-0.46814999	-1.59500003	213	121	96
0.414880008	-0.47003001	-1.59549999	213	121	96
0.417860001	-0.470050007	-1.59549999	213	121	96
0.417219996	-0.467900008	-1.59420002	213	121	96
0.417219996	-0.466360003	-1.59459996	213	121	96
0.417540014	-0.465110004	-1.59599996	213	121	96
0.414880008	-0.465359986	-1.59679997	213	121	96
0.411909997	-0.465339988	-1.59679997	213	121	96
0.420190006	-0.46638	-1.59469998	213	121	96
0.420509994	-0.468180001	-1.59510005	213	121	96
0.423489988	-0.466650009	-1.59560001	213	121	96
0.423489988	-0.469810009	-1.59469998	213	121	96
0.42614001	-0.469550014	-1.59379995	213	121	96
0.426470011	-0.468199998	-1.59519994	213	121	96
0.426789999	-0.466930002	-1.59650004	213	121	96
0.427439988	-0.465939999	-1.59879994	213	121	96
0.429769993	-0.465420008	-1.597	213	121	96
0.429120004	-0.466410011	-1.5948	213	121	96
0.429120004	-0.467940003	-1.59430003	213	121	96
0.429120004	-0.469559997	-1.59379995	213	121	96
0.432099998	-0.469559997	-1.59389997	213	121	96
0.431769997	-0.467680007	-1.5934	213	121	96
0.432099998	-0.466410011	-1.5948	213	121	96
0.43276	-0.465420008	-1.597	213	121	96
0.435739994	-0.465429991	-1.59710002	213	121	96
0.438730001	-0.466949999	-1.59660006	213	121	96
0.439060003	-0.465689987	-1.59800005	213	121	96
0.441720009	-0.465429991	-1.59710002	213	121	96
0.441720009	-0.466949999	-1.59660006	213	121	96
0.440719992	-0.467689991	-1.59350002	213	121	96
0.440380007	-0.469040006	-1.59210002	213	121	96
0.440380007	-0.470660001	-1.59159994	213	121	96
0.440380007	-0.472290009	-1.59109998	213	121	96
0.440380007	-0.473879993	-1.59070003	213	121	96
0.442699999	-0.473349988	-1.58879995	213	121	96
0.44303	-0.47202	-1.59019995	213	121	96
0.44303	-0.470389992	-1.59070003	213	121	96
0.443370014	-0.469040006	-1.59210002	213	121	96
0.44404	-0.46796	-1.59440005	213	121	96
0.445039988	-0.467220008	-1.59749997	213	121	96
0.445380002	-0.465959996	-1.59889996	213	121	96
0.44837001	-0.465959996	-1.59889996	213	121	96
0.447699994	-0.466949999	-1.59660006	213	121	96
0.447360009	-0.468219995	-1.59529996	213	121	96
0.450019985	-0.46796	-1.59440005	213	121	96
0.450349987	-0.46667999	-1.59570003	213	121	96
0.451029986	-0.465689987	-1.59800005	213	121	96
0.453689992	-0.465420008	-1.597	213	121	96
0.453350008	-0.46667999	-1.59570003	213	121	96
0.452670008	-0.467689991	-1.5934	213	121	96
0.455320001	-0.469029993	-1.59200001	213	121	96
0.458310008	-0.469020009	-1.59200001	213	121	96
0.458990008	-0.467940003	-1.59430003	213	121	96
0.459340006	-0.466659993	-1.59560001	213	121	96
0.461989999	-0.466390014	-1.59469998	213	121	96
0.461989999	-0.467929989	-1.59430003	213	121	96
0.461989999	-0.46954	-1.59379995	213	121	96
0.46498999	-0.469529986	-1.59370005	213	121	96
0.46498999	-0.467920005	-1.59420002	213	121	96
0.46498999	-0.46638	-1.59469998	213	121	96
0.467290014	-0.467370003	-1.59239995	213	121	96
0.467640013	-0.469249994	-1.59280002	213	121	96
0.466939986	-0.470340014	-1.5905	213	121	96
0.466589987	-0.471700013	-1.5891	213	121	96
0.466250002	-0.474539995	-1.58729994	213	121	96
0.468890011	-0.474260002	-1.58640003	213	121	96
0.468890011	-0.472750008	-1.58679998	213	121	96
0.468540013	-0.470889986	-1.58640003	213	121	96
0.47152999	-0.46924001	-1.58679998	213	121	96
0.47152999	-0.467629999	-1.58729994	213	121	96
0.467640013	-0.474099994	-1.59140003	213	121	96
0.464639992	-0.474110007	-1.59140003	213	121	96
0.463250011	-0.469819993	-1.58879995	213	121	96
0.462909997	-0.471179992	-1.58739996	213	121	96
0.462559998	-0.474009991	-1.58560002	213	121	96
0.461870015	-0.475019991	-1.58329999	213	121	96
0.461169988	-0.476170003	-1.58099997	213	121	96
0.460830003	-0.477519989	-1.57959998	213	121	96
0.458189994	-0.477800012	-1.58050001	213	121	96
0.457850009	-0.475899994	-1.58010006	213	121	96
0.457850009	-0.474220008	-1.58060002	213	121	96
0.457850009	-0.472680002	-1.58109999	213	121	96
0.45521	-0.472959995	-1.58200002	213	121	96
0.454869986	-0.474229991	-1.58070004	213	121	96
0.454530001	-0.475639999	-1.57930005	213	121	96
0.451900005	-0.475919992	-1.58019996	213	121	96
0.451900005	-0.474229991	-1.58070004	213	121	96
0.452580005	-0.473230004	-1.58290005	213	121	96
0.449939996	-0.473509997	-1.58389997	213	121	96
0.446969986	-0.473509997	-1.58389997	213	121	96
0.447640002	-0.472539991	-1.58609998	213	121	96
0.448320001	-0.471480012	-1.58840001	213	121	96
0.448320001	-0.469850004	-1.58889997	213	121	96
0.449000001	-0.468769997	-1.59119999	213	121	96
0.451299995	-0.468239993	-1.58940005	213	121	96
0.451299995	-0.469850004	-1.58889997	213	121	96
0.45096001	-0.471210003	-1.58749998	213	121	96
0.451299995	-0.473069996	-1.58790004	213	121	96
0.453949988	-0.472799987	-1.58700001	213	121	96
0.454290003	-0.471469998	-1.58840001	213	121	96
0.454290003	-0.46983999	-1.58889997	213	121	96
0.456930012	-0.469570011	-1.58790004	213	121	96
0.456589997	-0.47093001	-1.58659995	213	121	96
0.456589997	-0.472519994	-1.58609998	213	121	96
0.459569991	-0.470919997	-1.58650005	213	121	96
0.459919989	-0.472779989	-1.5869	213	121	96
0.460610002	-0.470090002	-1.58969998	213	121	96
0.446009994	-0.468769997	-1.59119999	213	121	96
0.445679992	-0.470120013	-1.5898	213	121	96
0.445340008	-0.471480012	-1.58840001	213	121	96
0.444669992	-0.472539991	-1.58609998	213	121	96
0.443989992	-0.473509997	-1.58389997	213	121	96
0.443989992	-0.475050002	-1.58340001	213	121	96
0.443650007	-0.476469994	-1.58200002	213	121	96
0.446630001	-0.476469994	-1.58200002	213	121	96
0.446289986	-0.474510014	-1.58159995	213	121	96
0.448920012	-0.474240005	-1.58070004	213	121	96
0.449600011	-0.47646001	-1.58200002	213	121	96
0.45223999	-0.477809995	-1.58060002	213	121	96
0.455559999	-0.478080004	-1.58150005	213	121	96
0.448579997	-0.477270007	-1.57879996	213	121	96
0.445270002	-0.476999998	-1.57790005	213	121	96
0.444599986	-0.477939993	-1.57570004	213	121	96
0.443919986	-0.478899986	-1.57340002	213	121	96
0.441300005	-0.479169995	-1.57430005	213	121	96
0.438670009	-0.479440004	-1.57519996	213	121	96
0.439009994	-0.478210002	-1.57659996	213	121	96
0.439009994	-0.476729989	-1.57700002	213	121	96
0.441969991	-0.476729989	-1.57700002	213	121	96
0.442310005	-0.478489995	-1.57749999	213	121	96
0.436040014	-0.476729989	-1.57700002	213	121	96
0.435380012	-0.47766	-1.5747	213	121	96
0.435710013	-0.479440004	-1.57519996	213	121	96
0.433079988	-0.479710013	-1.57609999	213	121	96
0.430119991	-0.479699999	-1.57609999	213	121	96
0.42978999	-0.476449996	-1.57609999	213	121	96
0.429129988	-0.477380008	-1.57379997	213	121	96
0.43175	-0.477109998	-1.57290006	213	121	96
0.43175	-0.480199993	-1.57200003	213	121	96
0.43175	-0.48179999	-1.57149994	213	121	96
0.431419998	-0.483110011	-1.57009995	213	121	96
0.430759996	-0.484149992	-1.56780005	213	121	96
0.430429995	-0.485500008	-1.56640005	213	121	96
0.43009001	-0.48684001	-1.56500006	213	121	96
0.43009001	-0.488440007	-1.56449997	213	121	96
0.432370007	-0.486290008	-1.5632	213	121	96
0.431699991	-0.48732999	-1.56089997	213	121	96
0.434980005	-0.487610012	-1.5618	213	121	96
0.43531999	-0.489470005	-1.56219995	213	121	96
0.437920004	-0.487619996	-1.56190002	213	121	96
0.438259989	-0.486290008	-1.56330001	213	121	96
0.43531999	-0.486290008	-1.5632	213	121	96
0.436320007	-0.485509992	-1.56640005	213	121	96
0.436659992	-0.484160006	-1.56780005	213	121	96
0.435990006	-0.482010007	-1.56649995	213	121	96
0.433710009	-0.482560009	-1.56830001	213	121	96
0.433369994	-0.483880013	-1.56690001	213	121	96
0.433710009	-0.485780001	-1.56729996	213	121	96
0.434370011	-0.479930013	-1.5711	213	121	96
0.435039997	-0.482080013	-1.57239997	213	121	96
0.437660009	-0.48179999	-1.57149994	213	121	96
0.437660009	-0.480210006	-1.57200003	213	121	96
0.44027999	-0.479939997	-1.5711	213	121	96
0.44027999	-0.481530011	-1.57060003	213	121	96
0.442900002	-0.481249988	-1.5697	213	121	96
0.442900002	-0.479660004	-1.57019997	213	121	96
0.445520014	-0.479389995	-1.56930006	213	121	96
0.446200013	-0.478350013	-1.57159996	213	121	96
0.448819995	-0.478069991	-1.57070005	213	121	96
0.448819995	-0.479660004	-1.57019997	213	121	96
0.44916001	-0.481530011	-1.57060003	213	121	96
0.446539998	-0.48179999	-1.57149994	213	121	96
0.445520014	-0.482569993	-1.56830001	213	121	96
0.444840014	-0.483610004	-1.5661	213	121	96
0.445179999	-0.485509992	-1.56649995	213	121	96
0.444840014	-0.486849993	-1.56500006	213	121	96
0.444840014	-0.488460004	-1.56449997	213	121	96
0.447450012	-0.488180012	-1.56359994	213	121	96
0.447789997	-0.486849993	-1.56500006	213	121	96
0.448130012	-0.485509992	-1.56640005	213	121	96
0.450749993	-0.485229999	-1.56550002	213	121	96
0.450399995	-0.483319998	-1.56509995	213	121	96
0.451090008	-0.482279986	-1.56739998	213	121	96
0.454050004	-0.482279986	-1.56739998	213	121	96
0.454050004	-0.48387	-1.56690001	213	121	96
0.456660002	-0.483590007	-1.56599998	213	121	96
0.457010001	-0.482270002	-1.56739998	213	121	96
0.457359999	-0.480960011	-1.56879997	213	121	96
0.454400003	-0.480960011	-1.56879997	213	121	96
0.455089986	-0.47992	-1.5711	213	121	96
0.452120006	-0.479930013	-1.5711	213	121	96
0.452120006	-0.481519997	-1.57060003	213	121	96
0.452120006	-0.47834	-1.57159996	213	121	96
0.449499995	-0.477120012	-1.57290006	213	121	96
0.447219998	-0.477670014	-1.57480001	213	121	96
0.458400011	-0.480190009	-1.57190001	213	121	96
0.459089994	-0.479140013	-1.57420003	213	121	96
0.459439993	-0.477910012	-1.57560003	213	121	96
0.456809998	-0.478190005	-1.57650006	213	121	96
0.456470013	-0.47942999	-1.57509995	213	121	96
0.453500003	-0.477930009	-1.57560003	213	121	96
0.462060004	-0.476150006	-1.57509995	213	121	96
0.46469	-0.474249989	-1.57459998	213	121	96
0.463990003	-0.475329995	-1.57239997	213	121	96
0.460669994	-0.476539999	-1.5711	213	121	96
0.460669994	-0.47804001	-1.57060003	213	121	96
0.461369991	-0.480179995	-1.57190001	213	121	96
0.465389997	-0.47310999	-1.57690001	213	121	96
0.467310011	-0.470750004	-1.5747	213	121	96
0.447789997	-0.482010007	-1.56649995	213	121	96
0.447109997	-0.483049989	-1.56429994	213	121	96
0.452670008	-0.484389991	-1.56280005	213	121	96
0.452320009	-0.485729992	-1.56140006	213	121	96
0.452320009	-0.48732999	-1.56089997	213	121	96
0.449719995	-0.487610012	-1.5618	213	121	96
0.45006001	-0.486290008	-1.5632	213	121	96
0.448689997	-0.488350004	-1.55869997	213	121	96
0.448000014	-0.489149988	-1.55639994	213	121	96
0.447310001	-0.490269989	-1.55410004	213	121	96
0.448000014	-0.492410004	-1.55540001	213	121	96
0.444709986	-0.492130011	-1.55449998	213	121	96
0.444370002	-0.490269989	-1.55410004	213	121	96
0.445060015	-0.489160001	-1.55639994	213	121	96
0.4454	-0.488070011	-1.55780005	213	121	96
0.442119986	-0.487789989	-1.55690002	213	121	96
0.441430002	-0.488590002	-1.55470002	213	121	96
0.441430002	-0.490280002	-1.55410004	213	121	96
0.441430002	-0.491849989	-1.55359995	213	121	96
0.438840002	-0.492130011	-1.55449998	213	121	96
0.438840002	-0.490559995	-1.55499995	213	121	96
0.438499987	-0.488590002	-1.5546	213	121	96
0.435559988	-0.488590002	-1.5546	213	121	96
0.435559988	-0.490269989	-1.55410004	213	121	96
0.435559988	-0.491840005	-1.55359995	213	121	96
0.435229987	-0.492949992	-1.55229998	213	121	96
0.438160002	-0.492960006	-1.55229998	213	121	96
0.437480003	-0.494010001	-1.54999995	213	121	96
0.439729989	-0.493440002	-1.54820001	213	121	96
0.439390004	-0.494639993	-1.54680002	213	121	96
0.438710004	-0.495460004	-1.54460001	213	121	96
0.440950006	-0.494890004	-1.54279995	213	121	96
0.440609992	-0.496149987	-1.54139996	213	121	96
0.439929992	-0.49733001	-1.53900003	213	121	96
0.43700999	-0.498750001	-1.53859997	213	121	96
0.434430003	-0.499040008	-1.5395	213	121	96
0.43186	-0.499330014	-1.54030001	213	121	96
0.432529986	-0.498479992	-1.54260004	213	121	96
0.435790002	-0.498769999	-1.54349995	213	121	96
0.435449988	-0.496719986	-1.54320002	213	121	96
0.435110003	-0.494879991	-1.54279995	213	121	96
0.432529986	-0.495160013	-1.54369998	213	121	96
0.432529986	-0.493779987	-1.54410005	213	121	96
0.429949999	-0.49406001	-1.54499996	213	121	96
0.429610014	-0.495160013	-1.54359996	213	121	96
0.429610014	-0.496710002	-1.5431	213	121	96
0.427029997	-0.496989995	-1.54400003	213	121	96
0.426699996	-0.498459995	-1.54260004	213	121	96
0.42603001	-0.499309987	-1.54030001	213	121	96
0.425700009	-0.500559986	-1.53890002	213	121	96
0.428270012	-0.500280023	-1.53799999	213	121	96
0.428939998	-0.49932	-1.54030001	213	121	96
0.428609997	-0.497599989	-1.53989995	213	121	96
0.423119992	-0.500840008	-1.53980005	213	121	96
0.422789991	-0.502250016	-1.53830004	213	121	96
0.422450006	-0.503350019	-1.53699994	213	121	96
0.421790004	-0.504320025	-1.53470004	213	121	96
0.424360007	-0.504029989	-1.53380001	213	121	96
0.425029993	-0.503069997	-1.53610003	213	121	96
0.424030006	-0.50079	-1.53390002	213	121	96
0.42693001	-0.500800014	-1.53390002	213	121	96
0.42693001	-0.502200007	-1.53340006	213	121	96
0.426259995	-0.50316	-1.53110003	213	121	96
0.425590008	-0.50424999	-1.52880001	213	121	96
0.425590008	-0.505620003	-1.52830005	213	121	96
0.428149998	-0.50533998	-1.52750003	213	121	96
0.428149998	-0.503970027	-1.52789998	213	121	96
0.428149998	-0.50229001	-1.52849996	213	121	96
0.428820014	-0.501330018	-1.53079998	213	121	96
0.429500014	-0.500519991	-1.53299999	213	121	96
0.429159999	-0.49853	-1.53269994	213	121	96
0.432399988	-0.500519991	-1.53299999	213	121	96
0.432399988	-0.501919985	-1.53260005	213	121	96
0.434630007	-0.499940008	-1.53129995	213	121	96
0.433950007	-0.500750005	-1.52900004	213	121	96
0.433950007	-0.502300024	-1.52849996	213	121	96
0.433950007	-0.503979981	-1.528	213	121	96
0.431050003	-0.503970027	-1.528	213	121	96
0.431050003	-0.50229001	-1.52849996	213	121	96
0.430029988	-0.504459977	-1.52479994	213	121	96
0.429690003	-0.505670011	-1.52339995	213	121	96
0.431899995	-0.505079985	-1.52170002	213	121	96
0.431899995	-0.503579974	-1.52219999	213	121	96
0.428680003	-0.50642997	-1.52020001	213	121	96
0.427659988	-0.506910026	-1.51709998	213	121	96
0.428000003	-0.508719981	-1.51740003	213	121	96
0.425790012	-0.509310007	-1.51919997	213	121	96
0.422910005	-0.509299994	-1.51919997	213	121	96
0.422230005	-0.510219991	-1.51689994	213	121	96
0.42256999	-0.512040019	-1.51730001	213	121	96
0.420020014	-0.512329996	-1.51810002	213	121	96
0.419349998	-0.510209978	-1.51680005	213	121	96
0.419690013	-0.50898999	-1.51820004	213	121	96
0.417140007	-0.51078999	-1.51859999	213	121	96
0.416480005	-0.511709988	-1.51629996	213	121	96
0.413599998	-0.511699975	-1.51619995	213	121	96
0.412939996	-0.512629986	-1.51390004	213	121	96
0.412279993	-0.513549984	-1.51160002	213	121	96
0.411619991	-0.514450014	-1.50929999	213	121	96
0.410959989	-0.515349984	-1.50699997	213	121	96
0.410959989	-0.516849995	-1.50650001	213	121	96
0.408419997	-0.517139971	-1.50730002	213	121	96
0.408089995	-0.515330017	-1.50699997	213	121	96
0.408749998	-0.514429986	-1.50929999	213	121	96
0.406870008	-0.515320003	-1.51189995	213	121	96
0.40753001	-0.514419973	-1.51419997	213	121	96
0.40753001	-0.512889981	-1.51470006	213	121	96
0.40753001	-0.51135999	-1.51520002	213	121	96
0.410400003	-0.511380017	-1.51530004	213	121	96
0.410070002	-0.512610018	-1.51390004	213	121	96
0.409740001	-0.513830006	-1.51250005	213	121	96
0.404980004	-0.513170004	-1.51559997	213	121	96
0.405629992	-0.512239993	-1.51789999	213	121	96
0.404980004	-0.510119975	-1.51660001	213	121	96
0.402440012	-0.510399997	-1.51740003	213	121	96
0.402759999	-0.512220025	-1.51779997	213	121	96
0.402440012	-0.513450027	-1.51639998	213	121	96
0.399569988	-0.513429999	-1.51629996	213	121	96
0.399569988	-0.511889994	-1.51680005	213	121	96
0.399569988	-0.510370016	-1.51730001	213	121	96
0.400209993	-0.509459972	-1.51960003	213	121	96
0.400209993	-0.507939994	-1.5201	213	121	96
0.399890006	-0.506269991	-1.51970005	213	121	96
0.39734	-0.50654	-1.52049994	213	121	96
0.397980005	-0.508509994	-1.52190006	213	121	96
0.397659987	-0.509729981	-1.52049994	213	121	96
0.395110011	-0.508480012	-1.52180004	213	121	96
0.395110011	-0.507120013	-1.52219999	213	121	96
0.395749986	-0.506049991	-1.52460003	213	121	96
0.393189996	-0.50632	-1.52540004	213	121	96
0.392560005	-0.507390022	-1.52310002	213	121	96
0.392560005	-0.508759975	-1.52260005	213	121	96
0.39192	-0.509670019	-1.52030003	213	121	96
0.391600013	-0.510890007	-1.51890004	213	121	96
0.389369994	-0.51147002	-1.52059996	213	121	96
0.389050007	-0.509639978	-1.52020001	213	121	96
0.389690012	-0.508729994	-1.52250004	213	121	96
0.389690012	-0.507359982	-1.523	213	121	96
0.389690012	-0.505699992	-1.52349997	213	121	96
0.386500001	-0.505360007	-1.52250004	213	121	96
0.386189997	-0.506720006	-1.52110004	213	121	96
0.385879993	-0.507790029	-1.51970005	213	121	96
0.385560006	-0.509010017	-1.51830006	213	121	96
0.38301	-0.509270012	-1.51909995	213	121	96
0.38301	-0.51078999	-1.51859999	213	121	96
0.382699996	-0.512009978	-1.51719999	213	121	96
0.382389992	-0.51323998	-1.5158	213	121	96
0.379839987	-0.513509989	-1.5165	213	121	96
0.379220009	-0.511370003	-1.51530004	213	121	96
0.379530013	-0.510150015	-1.51670003	213	121	96
0.379839987	-0.508939981	-1.51810002	213	121	96
0.377299994	-0.509199977	-1.51890004	213	121	96
0.37698999	-0.510410011	-1.51750004	213	121	96
0.376370013	-0.511330009	-1.5151	213	121	96
0.376370013	-0.51286	-1.51460004	213	121	96
0.376679987	-0.514699996	-1.51499999	213	121	96
0.378910005	-0.514119983	-1.51329994	213	121	96
0.378910005	-0.51564002	-1.51279998	213	121	96
0.381139994	-0.515060008	-1.51110005	213	121	96
0.381449997	-0.513849974	-1.51250005	213	121	96
0.38398999	-0.512059987	-1.51230001	213	121	96
0.383359998	-0.512969971	-1.50989997	213	121	96
0.383679986	-0.514789999	-1.51030004	213	121	96
0.385899991	-0.51572001	-1.50810003	213	121	96
0.385899991	-0.517229974	-1.50759995	213	121	96
0.388110012	-0.516650021	-1.50590003	213	121	96
0.388110012	-0.515139997	-1.50639999	213	121	96
0.390639991	-0.516369998	-1.50510001	213	121	96
0.390009999	-0.517239988	-1.50279999	213	121	96
0.389369994	-0.518060029	-1.50049996	213	121	96
0.389369994	-0.519500017	-1.5	213	121	96
0.389690012	-0.521390021	-1.50039995	213	121	96
0.386849999	-0.51977998	-1.50080001	213	121	96
0.386849999	-0.518329978	-1.50129998	213	121	96
0.384319991	-0.518610001	-1.50209999	213	121	96
0.38369	-0.519429982	-1.49979997	213	121	96
0.383060008	-0.520389974	-1.49749994	213	121	96
0.382429987	-0.521319985	-1.49510002	213	121	96
0.381799996	-0.522189975	-1.4928	213	121	96
0.382429987	-0.524290025	-1.49409997	213	121	96
0.381799996	-0.525089979	-1.49179995	213	121	96
0.381159991	-0.525889993	-1.48950005	213	121	96
0.38053	-0.526799977	-1.48720002	213	121	96
0.379900008	-0.52767998	-1.4849	213	121	96
0.379900008	-0.529100001	-1.48440003	213	121	96
0.379269987	-0.529879987	-1.48210001	213	121	96
0.377079993	-0.529060006	-1.4842	213	121	96
0.377400011	-0.527960002	-1.48559999	213	121	96
0.378030002	-0.527079999	-1.48800004	213	121	96
0.378340006	-0.525849998	-1.48940003	213	121	96
0.375519991	-0.525810003	-1.48930001	213	121	96
0.375209987	-0.527040005	-1.48790002	213	121	96
0.372390002	-0.526989996	-1.48769999	213	121	96
0.372390002	-0.525449991	-1.48829997	213	121	96
0.37301001	-0.524649978	-1.49059999	213	121	96
0.373320013	-0.52354002	-1.49199998	213	121	96
0.373939991	-0.522700012	-1.49430001	213	121	96
0.373939991	-0.521200001	-1.49479997	213	121	96
0.374249995	-0.519959986	-1.49619997	213	121	96
0.37173	-0.520229995	-1.49699998	213	121	96
0.37173	-0.521780014	-1.49650002	213	121	96
0.37143001	-0.522970021	-1.49510002	213	121	96
0.369219989	-0.523549974	-1.49670005	213	121	96
0.369219989	-0.522050023	-1.49720001	213	121	96
0.369520009	-0.520810008	-1.49870002	213	121	96
0.369520009	-0.519230008	-1.49919999	213	121	96
0.37173	-0.518649995	-1.49759996	213	121	96
0.367309988	-0.521380007	-1.50039995	213	121	96
0.364479989	-0.521340013	-1.50020003	213	121	96
0.363570005	-0.52196002	-1.49699998	213	121	96
0.363570005	-0.523450017	-1.49650002	213	121	96
0.363260001	-0.524619997	-1.495	213	121	96
0.360439986	-0.524569988	-1.49489999	213	121	96
0.36105001	-0.523720026	-1.49720001	213	121	96
0.36105001	-0.522220016	-1.49769998	213	121	96
0.36105001	-0.520659983	-1.49829996	213	121	96
0.358520001	-0.520919979	-1.49899995	213	121	96
0.358220011	-0.519029975	-1.49870002	213	121	96
0.355699986	-0.51928997	-1.49940002	213	121	96
0.355699986	-0.517849982	-1.49989998	213	121	96
0.353179991	-0.519550025	-1.50020003	213	121	96
0.353780001	-0.518729985	-1.50250006	213	121	96
0.350950003	-0.518679976	-1.50230002	213	121	96
0.350659996	-0.519810021	-1.50090003	213	121	96
0.347840011	-0.519749999	-1.5007	213	121	96
0.348129988	-0.518620014	-1.50209999	213	121	96
0.345609993	-0.518869996	-1.5029	213	121	96
0.345899999	-0.517750025	-1.5043	213	121	96
0.349009991	-0.518119991	-1.50539994	213	121	96
0.349599987	-0.517250001	-1.50769997	213	121	96
0.349900007	-0.516049981	-1.50909996	213	121	96
0.349599987	-0.514230013	-1.50870001	213	121	96
0.349310011	-0.512419999	-1.50829995	213	121	96
0.349900007	-0.511510015	-1.51059997	213	121	96
0.352429986	-0.511259973	-1.50989997	213	121	96
0.352429986	-0.512780011	-1.50940001	213	121	96
0.353020012	-0.514909983	-1.51069999	213	121	96
0.352730006	-0.516110003	-1.50929999	213	121	96
0.353020012	-0.517929971	-1.50960004	213	121	96
0.355260015	-0.517359972	-1.50800002	213	121	96
0.354970008	-0.518540025	-1.50660002	213	121	96
0.357199997	-0.51797998	-1.50489998	213	121	96
0.357499987	-0.516789973	-1.50629997	213	121	96
0.356900007	-0.514670014	-1.50510001	213	121	96
0.359730005	-0.514720023	-1.50520003	213	121	96
0.359429985	-0.515919983	-1.50380003	213	121	96
0.362260014	-0.515969992	-1.50390005	213	121	96
0.362260014	-0.517459989	-1.50339997	213	121	96
0.362260014	-0.518890023	-1.5029	213	121	96
0.362859994	-0.520959973	-1.50419998	213	121	96
0.365689993	-0.521009982	-1.50440001	213	121	96
0.365689993	-0.519559979	-1.50489998	213	121	96
0.365689993	-0.518130004	-1.50539994	213	121	96
0.365390003	-0.516330004	-1.505	213	121	96
0.368220001	-0.517859995	-1.50460005	213	121	96
0.367920011	-0.518980026	-1.50320005	213	121	96
0.368220001	-0.520739973	-1.5036	213	121	96
0.371060014	-0.519339979	-1.50419998	213	121	96
0.371670008	-0.518530011	-1.50650001	213	121	96
0.371369988	-0.516719997	-1.50610006	213	121	96
0.371980011	-0.51582998	-1.50849998	213	121	96
0.372599989	-0.514940023	-1.5108	213	121	96
0.370059997	-0.515200019	-1.5115	213	121	96
0.370359987	-0.513999999	-1.51300001	213	121	96
0.369749993	-0.511860013	-1.51170003	213	121	96
0.367210001	-0.512120008	-1.51240003	213	121	96
0.367210001	-0.51365	-1.51189995	213	121	96
0.366910011	-0.51485002	-1.51049995	213	121	96
0.367210001	-0.516669989	-1.51090002	213	121	96
0.369450003	-0.516099989	-1.50919998	213	121	96
0.368840009	-0.516990006	-1.50689995	213	121	96
0.363770008	-0.516009986	-1.50899994	213	121	96
0.363770008	-0.514500022	-1.50950003	213	121	96
0.364369988	-0.513599992	-1.51180005	213	121	96
0.364980012	-0.512690008	-1.51409996	213	121	96
0.365280002	-0.511460006	-1.51549995	213	121	96
0.362430006	-0.511409998	-1.51540005	213	121	96
0.362729996	-0.513249993	-1.5158	213	121	96
0.359589994	-0.512889981	-1.51470006	213	121	96
0.359589994	-0.514419973	-1.51419997	213	121	96
0.361829996	-0.513859987	-1.51259995	213	121	96
0.360929996	-0.514450014	-1.50929999	213	121	96
0.358689994	-0.515009999	-1.51100004	213	121	96
0.356150001	-0.515269995	-1.51170003	213	121	96
0.355560005	-0.513140023	-1.51040006	213	121	96
0.356150001	-0.512229979	-1.51279998	213	121	96
0.356150001	-0.510699987	-1.51329994	213	121	96
0.353320003	-0.510640025	-1.51310003	213	121	96
0.35078001	-0.510900021	-1.51390004	213	121	96
0.348239988	-0.511139989	-1.51460004	213	121	96
0.348820001	-0.510240018	-1.51689994	213	121	96
0.346569985	-0.51078999	-1.51859999	213	121	96
0.346280009	-0.512000024	-1.51719999	213	121	96
0.343439996	-0.511950016	-1.51699996	213	121	96
0.343439996	-0.510420024	-1.51750004	213	121	96
0.341179997	-0.509459972	-1.51960003	213	121	96
0.341179997	-0.507939994	-1.5201	213	121	96
0.341749996	-0.507170022	-1.52240002	213	121	96
0.342040002	-0.505819976	-1.52390003	213	121	96
0.339489996	-0.506060004	-1.52460003	213	121	96
0.338919997	-0.50711	-1.52219999	213	121	96
0.338629991	-0.508180022	-1.52090001	213	121	96
0.338059992	-0.509090006	-1.51849997	213	121	96
0.335509986	-0.509329975	-1.51929998	213	121	96
0.336080015	-0.508419991	-1.52160001	213	121	96
0.336360008	-0.507350028	-1.523	213	121	96
0.333530009	-0.507290006	-1.52279997	213	121	96
0.333810002	-0.508960009	-1.52320004	213	121	96
0.33721	-0.506600022	-1.52620006	213	121	96
0.33721	-0.505089998	-1.52670002	213	121	96
0.337500006	-0.504019976	-1.52810001	213	121	96
0.337500006	-0.502340019	-1.52869999	213	121	96
0.334939986	-0.501030028	-1.52989995	213	121	96
0.334369987	-0.501980007	-1.52750003	213	121	96
0.334939986	-0.504260004	-1.52880001	213	121	96
0.334659994	-0.505330026	-1.52750003	213	121	96
0.334659994	-0.506839991	-1.52699995	213	121	96
0.340629995	-0.502699971	-1.52980006	213	121	96
0.340629995	-0.504390001	-1.52919996	213	121	96
0.340339988	-0.505460024	-1.52779996	213	121	96
0.342900008	-0.505219996	-1.52709997	213	121	96
0.343190014	-0.504149973	-1.52849996	213	121	96
0.342900008	-0.502170026	-1.52810001	213	121	96
0.345750004	-0.502219975	-1.52830005	213	121	96
0.345750004	-0.503899992	-1.52769995	213	121	96
0.345459998	-0.504970014	-1.52639997	213	121	96
0.344880015	-0.505879998	-1.52409995	213	121	96
0.344880015	-0.507539988	-1.52349997	213	121	96
0.344599992	-0.508599997	-1.52209997	213	121	96
0.344309986	-0.509819984	-1.52069998	213	121	96
0.347440004	-0.510179996	-1.52180004	213	121	96
0.347440004	-0.508660018	-1.5223	213	121	96
0.347440004	-0.507290006	-1.52279997	213	121	96
0.347149998	-0.505330026	-1.52240002	213	121	96
0.348019987	-0.504729986	-1.52559996	213	121	96
0.3486	-0.503960013	-1.52789998	213	121	96
0.348890007	-0.502579987	-1.52939999	213	121	96
0.34946999	-0.501630008	-1.53170002	213	121	96
0.352039993	-0.50138998	-1.53100002	213	121	96
0.352329999	-0.503229976	-1.53139997	213	121	96
0.352329999	-0.504909992	-1.53079998	213	121	96
0.355190009	-0.504970014	-1.53100002	213	121	96
0.355780005	-0.503880024	-1.53330004	213	121	96
0.358350009	-0.503629982	-1.53260005	213	121	96
0.358049989	-0.501789987	-1.53219998	213	121	96
0.358049989	-0.500389993	-1.53260005	213	121	96
0.358350009	-0.499000013	-1.53410006	213	121	96
0.358940005	-0.498050004	-1.53639996	213	121	96
0.359230012	-0.49691999	-1.53779995	213	121	96
0.356660008	-0.497170001	-1.53849995	213	121	96
0.356660008	-0.498589993	-1.5381	213	121	96
0.356359988	-0.499830008	-1.53670001	213	121	96
0.353789985	-0.500079989	-1.53740001	213	121	96
0.354079992	-0.498829991	-1.5388	213	121	96
0.351509988	-0.499080002	-1.53960001	213	121	96
0.351220012	-0.500320017	-1.53820002	213	121	96
0.348349988	-0.498730004	-1.53849995	213	121	96
0.347770005	-0.499669999	-1.53620005	213	121	96
0.347770005	-0.501370013	-1.53559995	213	121	96
0.347200006	-0.502170026	-1.53330004	213	121	96
0.344920009	-0.502709985	-1.53499997	213	121	96
0.345200002	-0.501609981	-1.53639996	213	121	96
0.344920009	-0.499619991	-1.53600001	213	121	96
0.345490009	-0.498670012	-1.53830004	213	121	96
0.345779985	-0.497539997	-1.53970003	213	121	96
0.346060008	-0.496069998	-1.54120004	213	121	96
0.346639991	-0.495110005	-1.54349995	213	121	96
0.34720999	-0.494309992	-1.54579997	213	121	96
0.347499996	-0.493110001	-1.54719996	213	121	96
0.348080009	-0.492069989	-1.54949999	213	121	96
0.345770001	-0.49259001	-1.55110002	213	121	96
0.346060008	-0.491490006	-1.55250001	213	121	96
0.346630007	-0.490500003	-1.55480003	213	121	96
0.34691	-0.489100009	-1.55630004	213	121	96
0.34691	-0.487729996	-1.55669999	213	121	96
0.34375	-0.488759995	-1.55519998	213	121	96
0.343459994	-0.487109989	-1.55470002	213	121	96
0.340579987	-0.487049997	-1.55449998	213	121	96
0.341149986	-0.488990009	-1.55589998	213	121	96
0.340579987	-0.490090013	-1.55350006	213	121	96
0.340020001	-0.49109	-1.55120003	213	121	96
0.342889994	-0.491140008	-1.55139995	213	121	96
0.343459994	-0.490150005	-1.55369997	213	121	96
0.342040002	-0.491670012	-1.54820001	213	121	96
0.34176001	-0.493000001	-1.54680002	213	121	96
0.34176001	-0.494480014	-1.54630005	213	121	96
0.344630003	-0.494540006	-1.54649997	213	121	96
0.344909996	-0.493339986	-1.54789996	213	121	96
0.343769997	-0.495050013	-1.54330003	213	121	96
0.343199998	-0.496019989	-1.54100001	213	121	96
0.343490005	-0.498070002	-1.54130006	213	121	96
0.340909988	-0.49831	-1.54209995	213	121	96
0.340620011	-0.496250004	-1.54170001	213	121	96
0.340620011	-0.494700015	-1.54219997	213	121	96
0.338330001	-0.496780008	-1.54340005	213	121	96
0.338039994	-0.498250008	-1.54190004	213	121	96
0.335180014	-0.498180002	-1.54170001	213	121	96
0.335180014	-0.499610007	-1.54120004	213	121	96
0.332599998	-0.499839991	-1.54190004	213	121	96
0.332040012	-0.49781999	-1.54059994	213	121	96
0.332599998	-0.49665001	-1.54299998	213	121	96
0.33287999	-0.495400012	-1.54439998	213	121	96
0.33002001	-0.495330006	-1.54419994	213	121	96
0.330850005	-0.494819999	-1.5474	213	121	96
0.330850005	-0.493330002	-1.54779994	213	121	96
0.333440006	-0.493099988	-1.54709995	213	121	96
0.336019993	-0.492879987	-1.54639995	213	121	96
0.336580008	-0.494949996	-1.54779994	213	121	96
0.336299986	-0.49605	-1.54639995	213	121	96
0.336019993	-0.497299999	-1.54499996	213	121	96
0.338889986	-0.495810002	-1.54569995	213	121	96
0.338889986	-0.494419992	-1.54610002	213	121	96
0.338889986	-0.492940009	-1.54659998	213	121	96
0.339170009	-0.491609991	-1.54799998	213	121	96
0.336580008	-0.491840005	-1.54879999	213	121	96
0.33427	-0.495469987	-1.54939997	213	121	96
0.337199986	-0.498789996	-1.53869998	213	121	96
0.336629987	-0.499729991	-1.53639996	213	121	96
0.336349994	-0.501129985	-1.53489995	213	121	96
0.33919999	-0.501190007	-1.53509998	213	121	96
0.33919999	-0.499500006	-1.53559995	213	121	96
0.339769989	-0.498549998	-1.53799999	213	121	96
0.34206	-0.498019993	-1.53629994	213	121	96
0.34206	-0.499559999	-1.53579998	213	121	96
0.342629999	-0.501850009	-1.53709996	213	121	96
0.34206	-0.502650023	-1.53480005	213	121	96
0.338919997	-0.50229001	-1.53369999	213	121	96
0.333220005	-0.500769973	-1.53380001	213	121	96
0.334060013	-0.499960005	-1.53709996	213	121	96
0.337709993	-0.491600007	-1.55289996	213	121	96
0.337709993	-0.490029991	-1.55340004	213	121	96
0.33743	-0.488070011	-1.55299997	213	121	96
0.337989986	-0.487280011	-1.55519998	213	121	96
0.350380003	-0.491540015	-1.54779994	213	121	96
0.350089997	-0.492870003	-1.54639995	213	121	96
0.349799991	-0.494069993	-1.54499996	213	121	96
0.349220008	-0.494870007	-1.54279995	213	121	96
0.349510014	-0.496719986	-1.54320002	213	121	96
0.349220008	-0.498180002	-1.54170001	213	121	96
0.352090001	-0.498239994	-1.54190004	213	121	96
0.352090001	-0.496479988	-1.5424	213	121	96
0.352090001	-0.494929999	-1.54289997	213	121	96
0.352670014	-0.494120002	-1.54519999	213	121	96
0.352380008	-0.492350012	-1.54480004	213	121	96
0.352959991	-0.49131	-1.54709995	213	121	96
0.355839998	-0.491360009	-1.54729998	213	121	96
0.358420014	-0.491120011	-1.54649997	213	121	96
0.358130008	-0.492449999	-1.54509997	213	121	96
0.359010011	-0.494809985	-1.54729998	213	121	96
0.358720005	-0.495909989	-1.546	213	121	96
0.361600012	-0.495950013	-1.54610002	213	121	96
0.361889988	-0.49485001	-1.54750001	213	121	96
0.361889988	-0.493369997	-1.54799998	213	121	96
0.361889988	-0.491739988	-1.54849994	213	121	96
0.365079999	-0.492080003	-1.54949999	213	121	96
0.365079999	-0.493699998	-1.54900002	213	121	96
0.364479989	-0.494610012	-1.5467	213	121	96
0.364179999	-0.495709985	-1.54540002	213	121	96
0.366769999	-0.495460004	-1.54460001	213	121	96
0.367069989	-0.49436	-1.54589999	213	121	96
0.367659986	-0.49346	-1.54820001	213	121	96
0.367659986	-0.491829991	-1.54879999	213	121	96
0.369650006	-0.492630005	-1.54560006	213	121	96
0.369949996	-0.494410008	-1.54610002	213	121	96
0.372839987	-0.495840013	-1.54579997	213	121	96
0.373439997	-0.495029986	-1.54799998	213	121	96
0.375730008	-0.494489998	-1.54630005	213	121	96
0.376029998	-0.496170014	-1.54680002	213	121	96
0.378010005	-0.49533999	-1.54419994	213	121	96
0.378010005	-0.493950009	-1.54460001	213	121	96
0.378010005	-0.492460012	-1.54509997	213	121	96
0.378619999	-0.491420001	-1.5474	213	121	96
0.381199986	-0.491169989	-1.54659998	213	121	96
0.380589992	-0.492210001	-1.54429996	213	121	96
0.380589992	-0.493690014	-1.5438	213	121	96
0.380589992	-0.495079994	-1.54340005	213	121	96
0.380279988	-0.496340007	-1.54200006	213	121	96
0.379970014	-0.497810006	-1.54050004	213	121	96
0.380279988	-0.499529988	-1.54100001	213	121	96
0.377700001	-0.499779999	-1.54180002	213	121	96
0.377090007	-0.497770011	-1.54040003	213	121	96
0.377389997	-0.496300012	-1.54190004	213	121	96
0.375120014	-0.496850014	-1.54359996	213	121	96
0.37450999	-0.498019993	-1.54120004	213	121	96
0.375120014	-0.500039995	-1.54250002	213	121	96
0.37421	-0.500699997	-1.53929996	213	121	96
0.377090007	-0.500739992	-1.53939998	213	121	96
0.371630013	-0.499410003	-1.54059994	213	121	96
0.371019989	-0.497399986	-1.53929996	213	121	96
0.368149996	-0.497350007	-1.53910005	213	121	96
0.367850006	-0.498490006	-1.53779995	213	121	96
0.367549986	-0.499729991	-1.53629994	213	121	96
0.367549986	-0.501420021	-1.53579998	213	121	96
0.366939992	-0.502229989	-1.53349996	213	121	96
0.364080012	-0.50217998	-1.53340006	213	121	96
0.364080012	-0.500779986	-1.53380001	213	121	96
0.364670008	-0.499680012	-1.53620005	213	121	96
0.361510009	-0.499339998	-1.5352	213	121	96
0.361510009	-0.497810006	-1.53569996	213	121	96
0.363779992	-0.497260004	-1.53400004	213	121	96
0.360610008	-0.500140011	-1.53190005	213	121	96
0.360909998	-0.501839995	-1.5323	213	121	96
0.360909998	-0.503380001	-1.53180003	213	121	96
0.363180012	-0.502839983	-1.5302	213	121	96
0.365740001	-0.502590001	-1.52939999	213	121	96
0.365139991	-0.503669977	-1.52699995	213	121	96
0.365440011	-0.50533998	-1.52750003	213	121	96
0.365740001	-0.507149994	-1.52789998	213	121	96
0.368600011	-0.505680025	-1.52849996	213	121	96
0.368600011	-0.504310012	-1.52900004	213	121	96
0.368600011	-0.502629995	-1.52950001	213	121	96
0.369210005	-0.501680017	-1.53180003	213	121	96
0.369809985	-0.500869989	-1.53410006	213	121	96
0.372990012	-0.501209974	-1.5352	213	121	96
0.375869989	-0.501250029	-1.53530002	213	121	96
0.378129989	-0.500699997	-1.53359997	213	121	96
0.378129989	-0.502099991	-1.53310001	213	121	96
0.377819985	-0.503350019	-1.53170002	213	121	96
0.380699992	-0.503390014	-1.53180003	213	121	96
0.380699992	-0.501839995	-1.5323	213	121	96
0.381309986	-0.501030028	-1.53460002	213	121	96
0.38161999	-0.499630004	-1.53610003	213	121	96
0.384189993	-0.499370009	-1.53530002	213	121	96
0.383879989	-0.500769973	-1.53380001	213	121	96
0.383879989	-0.502170026	-1.53330004	213	121	96
0.383260012	-0.503120005	-1.53100002	213	121	96
0.385820001	-0.50286001	-1.5302	213	121	96
0.385509998	-0.50424999	-1.52880001	213	121	96
0.387760013	-0.503679991	-1.52709997	213	121	96
0.387760013	-0.505050004	-1.5266	213	121	96
0.390320003	-0.503419995	-1.52629995	213	121	96
0.390630007	-0.502040029	-1.52769995	213	121	96
0.388390005	-0.502600014	-1.52939999	213	121	96
0.392870009	-0.501470029	-1.52600002	213	121	96
0.392870009	-0.503149986	-1.52550006	213	121	96
0.390949994	-0.505379975	-1.52760005	213	121	96
0.396070004	-0.501800001	-1.52699995	213	121	96
0.396699995	-0.504069984	-1.52820003	213	121	96
0.396699995	-0.505439997	-1.52779996	213	121	96
0.394459993	-0.506009996	-1.52950001	213	121	96
0.399580002	-0.505469978	-1.52789998	213	121	96
0.40022999	-0.504689991	-1.53009999	213	121	96
0.40022999	-0.503009975	-1.53069997	213	121	96
0.400550008	-0.501760006	-1.53209996	213	121	96
0.397659987	-0.501730025	-1.53199995	213	121	96
0.398620009	-0.501219988	-1.5352	213	121	96
0.399260014	-0.500109971	-1.53750002	213	121	96
0.399890006	-0.499159992	-1.53980005	213	121	96
0.40053001	-0.49831	-1.54209995	213	121	96
0.40053001	-0.496549994	-1.54270005	213	121	96
0.400849998	-0.495290011	-1.54410005	213	121	96
0.400849998	-0.493900001	-1.54449999	213	121	96
0.401169986	-0.492700011	-1.54589999	213	121	96
0.40406999	-0.494210005	-1.54550004	213	121	96
0.403750002	-0.495310009	-1.54410005	213	121	96
0.403109998	-0.496280015	-1.54180002	213	121	96
0.403109998	-0.498050004	-1.54130006	213	121	96
0.403109998	-0.499469995	-1.54079998	213	121	96
0.405369997	-0.49891001	-1.53910005	213	121	96
0.405690014	-0.497779995	-1.54040003	213	121	96
0.408270001	-0.497509986	-1.53960001	213	121	96
0.408910006	-0.496329993	-1.54200006	213	121	96
0.406329989	-0.496600002	-1.54279995	213	121	96
0.406329989	-0.495050013	-1.54330003	213	121	96
0.406980008	-0.494230002	-1.54550004	213	121	96
0.405030012	-0.493589997	-1.54869998	213	121	96
0.405999988	-0.492830008	-1.55190003	213	121	96
0.406320006	-0.491719991	-1.55320001	213	121	96
0.406639993	-0.490429997	-1.5546	213	121	96
0.409229994	-0.490170002	-1.55379999	213	121	96
0.409229994	-0.491739988	-1.55330002	213	121	96
0.408589989	-0.492559999	-1.551	213	121	96
0.409229994	-0.494760007	-1.55229998	213	121	96
0.411830008	-0.494489998	-1.55149996	213	121	96
0.411500007	-0.492579997	-1.55110002	213	121	96
0.414420009	-0.494219989	-1.55060005	213	121	96
0.41376999	-0.495139986	-1.54840004	213	121	96
0.413120002	-0.495950013	-1.54610002	213	121	96
0.410530001	-0.496219993	-1.54700005	213	121	96
0.410860002	-0.495119989	-1.54830003	213	121	96
0.41602999	-0.495970011	-1.54620004	213	121	96
0.416689992	-0.49515	-1.54840004	213	121	96
0.416359991	-0.49338001	-1.54799998	213	121	96
0.419279993	-0.493389994	-1.54799998	213	121	96
0.419279993	-0.494879991	-1.54760003	213	121	96
0.421530008	-0.494320005	-1.54579997	213	121	96
0.421530008	-0.492830008	-1.54630005	213	121	96
0.424120009	-0.494040012	-1.54489994	213	121	96
0.423449993	-0.49485001	-1.54270005	213	121	96
0.420870006	-0.495130002	-1.54359996	213	121	96
0.418289989	-0.495409995	-1.54439998	213	121	96
0.417299986	-0.496089995	-1.54120004	213	121	96
0.417629987	-0.498140007	-1.54149997	213	121	96
0.417299986	-0.499280006	-1.5402	213	121	96
0.416970015	-0.500519991	-1.5388	213	121	96
0.416970015	-0.502219975	-1.53820002	213	121	96
0.419550002	-0.501940012	-1.53740001	213	121	96
0.419220001	-0.499949992	-1.53699994	213	121	96
0.419220001	-0.49842	-1.53750002	213	121	96
0.422450006	-0.49871999	-1.53849995	213	121	96
0.423119992	-0.497869998	-1.54069996	213	121	96
0.420870006	-0.498439997	-1.54250002	213	121	96
0.422120005	-0.495249987	-1.53859997	213	121	96
0.419550002	-0.495519996	-1.5395	213	121	96
0.418889999	-0.502749979	-1.53509998	213	121	96
0.413740009	-0.501909971	-1.53729999	213	121	96
0.413740009	-0.500209987	-1.53779995	213	121	96
0.411170006	-0.50049001	-1.53869998	213	121	96
0.410840005	-0.501890004	-1.53719997	213	121	96
0.409859985	-0.502409995	-1.53410006	213	121	96
0.407290012	-0.502690017	-1.53489995	213	121	96
0.407620013	-0.50158	-1.53629994	213	121	96
0.406969994	-0.499300003	-1.53499997	213	121	96
0.406969994	-0.497770011	-1.53550005	213	121	96
0.409859985	-0.497779995	-1.53559995	213	121	96
0.404399991	-0.499570012	-1.5359	213	121	96
0.404720008	-0.501559973	-1.53620005	213	121	96
0.404080003	-0.50237	-1.53400004	213	121	96
0.403430015	-0.503329992	-1.53170002	213	121	96
0.403430015	-0.505010009	-1.53110003	213	121	96
0.406320006	-0.505029976	-1.53120005	213	121	96
0.406320006	-0.503350019	-1.53170002	213	121	96
0.408890009	-0.503069997	-1.5309	213	121	96
0.408890009	-0.504760027	-1.53030002	213	121	96
0.411449999	-0.504480004	-1.52950001	213	121	96
0.411119998	-0.505559981	-1.52810001	213	121	96
0.413679987	-0.505280018	-1.5273	213	121	96
0.414009988	-0.504199982	-1.52859998	213	121	96
0.414339989	-0.502820015	-1.53009999	213	121	96
0.41178	-0.503090024	-1.5309	213	121	96
0.412429988	-0.502139986	-1.53320003	213	121	96
0.415329993	-0.502149999	-1.53330004	213	121	96
0.417239994	-0.502830029	-1.53009999	213	121	96
0.416900009	-0.504220009	-1.52869999	213	121	96
0.416900009	-0.505590022	-1.52820003	213	121	96
0.416570008	-0.506799996	-1.52680004	213	121	96
0.418799996	-0.506219983	-1.52509999	213	121	96
0.418799996	-0.507879972	-1.52450001	213	121	96
0.419129997	-0.509549975	-1.52499998	213	121	96
0.421689987	-0.509259999	-1.52409995	213	121	96
0.421359986	-0.507589996	-1.5237	213	121	96
0.421020001	-0.50563997	-1.52330005	213	121	96
0.423909992	-0.505649984	-1.52339995	213	121	96
0.424250007	-0.508979976	-1.52330005	213	121	96
0.424919993	-0.50819999	-1.52550006	213	121	96
0.427810013	-0.508210003	-1.52550006	213	121	96
0.427480012	-0.506250024	-1.52520001	213	121	96
0.426800013	-0.50869	-1.52240002	213	121	96
0.419470012	-0.505309999	-1.52740002	213	121	96
0.419800013	-0.504230022	-1.52869999	213	121	96
0.422360003	-0.505320013	-1.52740002	213	121	96
0.42335999	-0.504830003	-1.53059995	213	121	96
0.412699997	-0.505890012	-1.52409995	213	121	96
0.412369996	-0.507250011	-1.52269995	213	121	96
0.412369996	-0.508620024	-1.52219999	213	121	96
0.412369996	-0.510140002	-1.52170002	213	121	96
0.412039995	-0.51135999	-1.52030003	213	121	96
0.414920002	-0.511380017	-1.52030003	213	121	96
0.415250003	-0.510160029	-1.52170002	213	121	96
0.414920002	-0.508340001	-1.52139997	213	121	96
0.415250003	-0.507269979	-1.52269995	213	121	96
0.417800009	-0.509869993	-1.52090001	213	121	96
0.409489989	-0.510119975	-1.52160001	213	121	96
0.409489989	-0.508599997	-1.52209997	213	121	96
0.409159988	-0.506940007	-1.52170002	213	121	96
0.406610012	-0.507210016	-1.52250004	213	121	96
0.407260001	-0.509180009	-1.52390003	213	121	96
0.407260001	-0.506150007	-1.52489996	213	121	96
0.407909989	-0.505240023	-1.52719998	213	121	96
0.405030012	-0.505219996	-1.52709997	213	121	96
0.404379994	-0.50612998	-1.52479994	213	121	96
0.403730005	-0.507189989	-1.52250004	213	121	96
0.403409988	-0.508260012	-1.52110004	213	121	96
0.403079987	-0.50948	-1.51970005	213	121	96
0.406280011	-0.509800017	-1.52069998	213	121	96
0.408829987	-0.511039972	-1.51929998	213	121	96
0.40053001	-0.505209982	-1.52209997	213	121	96
0.398620009	-0.506079972	-1.52470005	213	121	96
0.402469993	-0.505490005	-1.52789998	213	121	96
0.410140008	-0.506169975	-1.52489996	213	121	96
0.40151	-0.501240015	-1.5352	213	121	96
0.40151	-0.499550015	-1.53579998	213	121	96
0.411819994	-0.498109996	-1.54139996	213	121	96
0.412140012	-0.496630013	-1.54289997	213	121	96
0.41505	-0.49665001	-1.54299998	213	121	96
0.41505	-0.498409986	-1.5424	213	121	96
0.41505	-0.499839991	-1.54190004	213	121	96
0.426360011	-0.494859993	-1.54270005	213	121	96
0.426699996	-0.49375999	-1.54410005	213	121	96
0.427029997	-0.492559999	-1.54540002	213	121	96
0.427700013	-0.491510004	-1.54770005	213	121	96
0.425110012	-0.493409991	-1.54809999	213	121	96
0.425779998	-0.492359996	-1.55040002	213	121	96
0.423180014	-0.492639989	-1.55130005	213	121	96
0.420920014	-0.493200004	-1.55299997	213	121	96
0.417670012	-0.492900014	-1.55209994	213	121	96
0.415069997	-0.493169993	-1.55299997	213	121	96
0.412800014	-0.492330015	-1.55519998	213	121	96
0.412479997	-0.490469992	-1.55470002	213	121	96
0.413120002	-0.489360005	-1.55710006	213	121	96
0.4102	-0.489340007	-1.55700004	213	121	96
0.410519987	-0.488249987	-1.55840003	213	121	96
0.410840005	-0.486959994	-1.55980003	213	121	96
0.407920003	-0.486939996	-1.55970001	213	121	96
0.407920003	-0.488519996	-1.55920005	213	121	96
0.407599986	-0.489609987	-1.55789995	213	121	96
0.405000001	-0.488499999	-1.55910003	213	121	96
