0.200990006	-0.395000011	-1.72119999	126	12	132
0.200629994	-0.39625001	-1.71889997	126	12	132
0.200629994	-0.397960007	-1.71850002	126	12	132
0.203459993	-0.397850007	-1.71800005	126	12	132
0.203639999	-0.39636001	-1.71940005	126	12	132
0.206650004	-0.396459997	-1.7198	126	12	132
0.206469998	-0.397949994	-1.7184	126	12	132
0.197620004	-0.396149993	-1.71850002	126	12	132
0.197439998	-0.394230008	-1.71790004	126	12	132
0.19461	-0.394349992	-1.7184	126	12	132
0.194790006	-0.396259993	-1.71889997	126	12	132
0.191780001	-0.396160007	-1.71850002	126	12	132
0.191599995	-0.39763999	-1.71710002	126	12	132
0.188779995	-0.397760004	-1.71759999	126	12	132
0.185949996	-0.397870004	-1.71809995	126	12	132
0.189300001	-0.396710008	-1.72090006	126	12	132
0.188250005	-0.398829997	-1.71430004	126	12	132
0.187910005	-0.400110006	-1.71200001	126	12	132
0.187729999	-0.40158999	-1.71070004	126	12	132
0.190549999	-0.401479989	-1.71019995	126	12	132
0.190549999	-0.399769992	-1.71060002	126	12	132
0.190899998	-0.398490012	-1.71290004	126	12	132
0.19337	-0.399650007	-1.71010005	126	12	132
0.193189994	-0.401140004	-1.70869994	126	12	132
0.196009994	-0.40101999	-1.70819998	126	12	132
0.196009994	-0.399309993	-1.70860004	126	12	132
0.199180007	-0.401349992	-1.70959997	126	12	132
0.199359998	-0.40327999	-1.71019995	126	12	132
0.196539998	-0.403400004	-1.71070004	126	12	132
0.193719998	-0.403519988	-1.7112	126	12	132
0.196009994	-0.404410005	-1.70739996	126	12	132
0.198819995	-0.404289991	-1.7069	126	12	132
0.193020001	-0.404300004	-1.70700002	126	12	132
0.199540004	-0.400090009	-1.71200001	126	12	132
0.199719995	-0.398589998	-1.71329999	126	12	132
0.196899995	-0.398710012	-1.71379995	126	12	132
0.197260007	-0.397410005	-1.71609998	126	12	132
0.194250003	-0.397309989	-1.71570003	126	12	132
0.194250003	-0.399040014	-1.71529996	126	12	132
0.184909999	-0.400000006	-1.71150005	126	12	132
0.18457	-0.401259989	-1.70920002	126	12	132
0.181920007	-0.40158999	-1.71070004	126	12	132
0.182089999	-0.400110006	-1.71200001	126	12	132
0.182429999	-0.398829997	-1.71430004	126	12	132
0.185259998	-0.398719996	-1.71389997	126	12	132
0.179440007	-0.400440007	-1.71340001	126	12	132
0.179100007	-0.40169999	-1.71109998	126	12	132
0.176280007	-0.400099993	-1.71200001	126	12	132
0.175950006	-0.401360005	-1.70969999	126	12	132
0.175449997	-0.402390003	-1.70640004	126	12	132
0.178430006	-0.402500004	-1.7069	126	12	132
0.178259999	-0.40395999	-1.70550001	126	12	132
0.181240007	-0.40406999	-1.70599997	126	12	132
0.181580007	-0.402839988	-1.70829999	126	12	132
0.172470003	-0.402269989	-1.70589995	126	12	132
0.172639996	-0.400790006	-1.70729995	126	12	132
0.169660002	-0.402370006	-1.70640004	126	12	132
0.169499993	-0.403829992	-1.70500004	126	12	132
0.16934	-0.405279994	-1.70360005	126	12	132
0.16934	-0.406940013	-1.70319998	126	12	132
0.166360006	-0.406819999	-1.70270002	126	12	132
0.166529998	-0.405389994	-1.70410001	126	12	132
0.166690007	-0.403939992	-1.70539999	126	12	132
0.163719997	-0.403820008	-1.70490003	126	12	132
0.163719997	-0.405490011	-1.70449996	126	12	132
0.160909995	-0.405600011	-1.70500004	126	12	132
0.160589993	-0.406800002	-1.70270002	126	12	132
0.15794	-0.407139987	-1.704	126	12	132
0.154970005	-0.407009989	-1.70350003	126	12	132
0.166040003	-0.408030003	-1.70039999	126	12	132
0.168850005	-0.407929987	-1.70000005	126	12	132
0.168850005	-0.409649998	-1.69949996	126	12	132
0.168520004	-0.410899997	-1.69719994	126	12	132
0.171320006	-0.410789996	-1.69679999	126	12	132
0.171650007	-0.409539998	-1.69910002	126	12	132
0.171810001	-0.408050001	-1.70050001	126	12	132
0.174620003	-0.40794	-1.70000005	126	12	132
0.174280003	-0.409200013	-1.69770002	126	12	132
0.173950002	-0.410450011	-1.69529998	126	12	132
0.176579997	-0.410109997	-1.69389999	126	12	132
0.177080005	-0.409079999	-1.69719994	126	12	132
0.177249998	-0.407599986	-1.69860005	126	12	132
0.177589998	-0.406379998	-1.70089996	126	12	132
0.177420005	-0.404489994	-1.70029998	126	12	132
0.174620003	-0.404610008	-1.70079994	126	12	132
0.174950004	-0.40338999	-1.70309997	126	12	132
0.172140002	-0.403499991	-1.70360005	126	12	132
0.171979994	-0.404940009	-1.70220006	126	12	132
0.172470003	-0.407290012	-1.70469999	126	12	132
0.175280005	-0.407180011	-1.70420003	126	12	132
0.165560007	-0.409060001	-1.69710004	126	12	132
0.162919998	-0.406010002	-1.69930005	126	12	132
0.213249996	-0.392140001	-1.72469997	126	12	132
0.216279998	-0.392239988	-1.72520006	126	12	132
0.219500005	-0.392549992	-1.72650003	126	12	132
0.219689995	-0.391039997	-1.72790003	126	12	132
0.222540006	-0.390920013	-1.72730005	126	12	132
0.222540006	-0.392650008	-1.727	126	12	132
0.22518	-0.392309994	-1.72539997	126	12	132
0.22518	-0.390579998	-1.72580004	126	12	132
0.228019997	-0.392179996	-1.72490001	126	12	132
0.230859995	-0.392060012	-1.72430003	126	12	132
0.22744	-0.393269986	-1.72160006	126	12	132
0.227630004	-0.395220011	-1.72220004	126	12	132
0.230470002	-0.395090014	-1.72160006	126	12	132
0.230269998	-0.396569997	-1.72029996	126	12	132
0.230069995	-0.398059994	-1.71889997	126	12	132
0.229680002	-0.399360001	-1.71659994	126	12	132
0.229279995	-0.400640011	-1.71430004	126	12	132
0.226459995	-0.400770009	-1.71490002	126	12	132
0.226459995	-0.399040014	-1.71529996	126	12	132
0.22665	-0.397529989	-1.71659994	126	12	132
0.227050006	-0.396259993	-1.71889997	126	12	132
0.22383	-0.39594999	-1.71759999	126	12	132
0.224600002	-0.395130008	-1.72179997	126	12	132
0.224989995	-0.393839985	-1.72409999	126	12	132
0.221959993	-0.393739998	-1.72370005	126	12	132
0.221770003	-0.395249993	-1.72230005	126	12	132
0.226070002	-0.402040005	-1.71259999	126	12	132
0.228489995	-0.401459992	-1.71010005	126	12	132
0.231309995	-0.401329994	-1.70949996	126	12	132
0.231110007	-0.402810007	-1.70819998	126	12	132
0.234129995	-0.40290001	-1.70860004	126	12	132
0.234129995	-0.401199996	-1.70899999	126	12	132
0.23714	-0.401289999	-1.70940006	126	12	132
0.236739993	-0.402539998	-1.70710003	126	12	132
0.236540005	-0.404000014	-1.70570004	126	12	132
0.236540005	-0.405680001	-1.70529997	126	12	132
0.239350006	-0.405539989	-1.70469999	126	12	132
0.239350006	-0.407209992	-1.70430005	126	12	132
0.239140004	-0.408659995	-1.70299995	126	12	132
0.239140004	-0.410380006	-1.7026	126	12	132
0.241950005	-0.410239995	-1.70200002	126	12	132
0.241950005	-0.408520013	-1.70239997	126	12	132
0.242160007	-0.407070011	-1.70379996	126	12	132
0.242160007	-0.405409992	-1.70420003	126	12	132
0.242359996	-0.40395999	-1.70550001	126	12	132
0.239549994	-0.404089987	-1.70609999	126	12	132
0.240160003	-0.403079987	-1.70940006	126	12	132
0.243190005	-0.40316999	-1.70969999	126	12	132
0.243599996	-0.401919991	-1.71200001	126	12	132
0.243599996	-0.400200009	-1.71239996	126	12	132
0.246419996	-0.400070012	-1.7119	126	12	132
0.246419996	-0.401780009	-1.71150005	126	12	132
0.24966	-0.400379986	-1.71319997	126	12	132
0.250290006	-0.399309993	-1.71640003	126	12	132
0.250079989	-0.397350013	-1.71589994	126	12	132
0.247459993	-0.397709996	-1.71739995	126	12	132
0.247879997	-0.396439999	-1.71969998	126	12	132
0.248290002	-0.395179987	-1.722	126	12	132
0.251130015	-0.395049989	-1.72140002	126	12	132
0.250919998	-0.396530002	-1.72010005	126	12	132
0.253749996	-0.396389991	-1.71949995	126	12	132
0.253749996	-0.398099989	-1.7191	126	12	132
0.256579995	-0.397960007	-1.71850002	126	12	132
0.256370008	-0.396030009	-1.71790004	126	12	132
0.256579995	-0.394549996	-1.71930003	126	12	132
0.25722	-0.393480003	-1.72249997	126	12	132
0.254379988	-0.393620014	-1.72309995	126	12	132
0.254170001	-0.395130008	-1.72179997	126	12	132
0.251549989	-0.393750012	-1.72370005	126	12	132
0.251760006	-0.39221999	-1.72510004	126	12	132
0.249329999	-0.39278999	-1.72759998	126	12	132
0.249119997	-0.394320011	-1.72619998	126	12	132
0.245869994	-0.394019991	-1.72490001	126	12	132
0.245660007	-0.392060012	-1.72440004	126	12	132
0.243029997	-0.39241001	-1.72590005	126	12	132
0.243440002	-0.391110003	-1.72819996	126	12	132
0.24628	-0.390980005	-1.72759998	126	12	132
0.240789995	-0.391449988	-1.72969997	126	12	132
0.237949997	-0.391579986	-1.73029995	126	12	132
0.235300004	-0.391930014	-1.73179996	126	12	132
0.235300004	-0.390199989	-1.73220003	126	12	132
0.235499993	-0.388680011	-1.73360002	126	12	132
0.235890001	-0.38736999	-1.73590004	126	12	132
0.235689998	-0.385430008	-1.73529994	126	12	132
0.235890001	-0.383899987	-1.73660004	126	12	132
0.233429998	-0.384449989	-1.73909998	126	12	132
0.233239993	-0.38598001	-1.7378	126	12	132
0.233040005	-0.387499988	-1.73640001	126	12	132
0.233040005	-0.389239997	-1.73599994	126	12	132
0.230179995	-0.389360011	-1.73660004	126	12	132
0.230179995	-0.387620002	-1.73699999	126	12	132
0.230379999	-0.386099994	-1.73829997	126	12	132
0.230570003	-0.384579986	-1.73969996	126	12	132
0.227709994	-0.3847	-1.74020004	126	12	132
0.227320001	-0.386009991	-1.73790002	126	12	132
0.227320001	-0.38775	-1.73749995	126	12	132
0.224460006	-0.387870014	-1.73810005	126	12	132
0.224460006	-0.386130005	-1.7385	126	12	132
0.224460006	-0.38440001	-1.73889995	126	12	132
0.221410006	-0.386040002	-1.73810005	126	12	132
0.221410006	-0.387780011	-1.73769999	126	12	132
0.218549997	-0.387899995	-1.73819995	126	12	132
0.218170002	-0.389209986	-1.73590004	126	12	132
0.215310007	-0.38933	-1.73640001	126	12	132
0.220840007	-0.388870001	-1.73440003	126	12	132
0.223690003	-0.388749987	-1.73389995	126	12	132
0.223309994	-0.390049994	-1.73160005	126	12	132
0.225960001	-0.389710009	-1.73010004	126	12	132
0.226160005	-0.388200015	-1.73140001	126	12	132
0.229000002	-0.389800012	-1.73049998	126	12	132
0.228809997	-0.39131999	-1.72909999	126	12	132
0.231849998	-0.391409993	-1.72950006	126	12	132
0.232250005	-0.390109986	-1.73179996	126	12	132
0.234300002	-0.392580003	-1.72660005	126	12	132
0.237340003	-0.392670006	-1.727	126	12	132
0.239979997	-0.392320007	-1.72549999	126	12	132
0.239580005	-0.393629998	-1.72319996	126	12	132
0.23917	-0.394919991	-1.72090006	126	12	132
0.23917	-0.396620005	-1.72049999	126	12	132
0.23917	-0.398330003	-1.72010005	126	12	132
0.236340001	-0.398470014	-1.72070003	126	12	132
0.236139998	-0.396530002	-1.72010005	126	12	132
0.236340001	-0.395060003	-1.72150004	126	12	132
0.236139998	-0.393110007	-1.72090006	126	12	132
0.233099997	-0.393020004	-1.72049999	126	12	132
0.233500004	-0.395190001	-1.722	126	12	132
0.233500004	-0.396880001	-1.72160006	126	12	132
0.233500004	-0.398600012	-1.72119999	126	12	132
0.229880005	-0.39271	-1.71920002	126	12	132
0.241799995	-0.397980005	-1.71860003	126	12	132
0.241999999	-0.396490008	-1.71990001	126	12	132
0.241999999	-0.394789994	-1.72029996	126	12	132
0.242410004	-0.3935	-1.72259998	126	12	132
0.245250002	-0.395099998	-1.72169995	126	12	132
0.244839996	-0.39636001	-1.71940005	126	12	132
0.244629994	-0.397850007	-1.71800005	126	12	132
0.244420007	-0.399360001	-1.71659994	126	12	132
0.247040004	-0.399010003	-1.71510005	126	12	132
0.241190001	-0.399060011	-1.71529996	126	12	132
0.240979999	-0.400559992	-1.71399999	126	12	132
0.240779996	-0.402049989	-1.71259999	126	12	132
0.237550005	-0.400029987	-1.71169996	126	12	132
0.234730005	-0.400160015	-1.71220005	126	12	132
0.231910005	-0.400290012	-1.71280003	126	12	132
0.23251	-0.399230003	-1.71609998	126	12	132
0.235530004	-0.399320006	-1.71650004	126	12	132
0.238360003	-0.399190009	-1.71589994	126	12	132
0.239979997	-0.388859987	-1.7263	126	12	132
0.237340003	-0.389209986	-1.72780001	126	12	132
0.237949997	-0.388119996	-1.73109996	126	12	132
0.220269993	-0.389959991	-1.73109996	126	12	132
0.217230007	-0.389860004	-1.73070002	126	12	132
0.217419997	-0.39181	-1.7313	126	12	132
0.214190006	-0.391499996	-1.7299	126	12	132
0.214379996	-0.389979988	-1.7313	126	12	132
0.21153	-0.390100002	-1.73179996	126	12	132
0.211339995	-0.39162001	-1.73039997	126	12	132
0.208309993	-0.391519994	-1.73000002	126	12	132
0.208680004	-0.390219986	-1.73230004	126	12	132
0.205459997	-0.391629994	-1.73049998	126	12	132
0.239150003	-0.384200007	-1.73800004	126	12	132
0.239150003	-0.385939986	-1.73759997	126	12	132
0.238749996	-0.387250006	-1.73529994	126	12	132
0.241600007	-0.387120008	-1.73469996	126	12	132
0.241809994	-0.389070004	-1.73529994	126	12	132
0.244870007	-0.389149994	-1.73570001	126	12	132
0.244460002	-0.386990011	-1.73409998	126	12	132
0.247309998	-0.386860013	-1.7335	126	12	132
0.247720003	-0.389019996	-1.73510003	126	12	132
0.250369996	-0.388669997	-1.7335	126	12	132
0.250369996	-0.386940002	-1.73389995	126	12	132
0.253219992	-0.386810005	-1.73329997	126	12	132
0.253219992	-0.38854	-1.73290002	126	12	132
0.253010005	-0.390060008	-1.73160005	126	12	132
0.252590001	-0.391360015	-1.72930002	126	12	132
0.249750003	-0.391490012	-1.7299	126	12	132
0.250160009	-0.390190005	-1.73220003	126	12	132
0.247099996	-0.390109986	-1.73179996	126	12	132
0.244049996	-0.390020013	-1.73140001	126	12	132
0.25523001	-0.391009986	-1.7277	126	12	132
0.255439997	-0.392960012	-1.72829998	126	12	132
0.258280009	-0.392820001	-1.7277	126	12	132
0.258069992	-0.390870005	-1.72710001	126	12	132
0.258069992	-0.38914001	-1.72749996	126	12	132
0.260910004	-0.389010012	-1.72689998	126	12	132
0.260910004	-0.390729994	-1.72650003	126	12	132
0.260479987	-0.392030001	-1.72420001	126	12	132
0.263319999	-0.393640012	-1.72319996	126	12	132
0.263749987	-0.392320007	-1.72549999	126	12	132
0.267030001	-0.39436999	-1.72640002	126	12	132
0.26681	-0.395880014	-1.72510004	126	12	132
0.266380012	-0.39715001	-1.72280002	126	12	132
0.269210011	-0.397000015	-1.72220004	126	12	132
0.269650012	-0.395740002	-1.72440004	126	12	132
0.269870013	-0.394219995	-1.72580004	126	12	132
0.270090014	-0.392690003	-1.72710001	126	12	132
0.270310014	-0.391169995	-1.72850001	126	12	132
0.270529985	-0.389660001	-1.72979999	126	12	132
0.27294001	-0.389090002	-1.72730005	126	12	132
0.273160011	-0.391030014	-1.72790003	126	12	132
0.27294001	-0.392549992	-1.72650003	126	12	132
0.272709996	-0.394080013	-1.72520006	126	12	132
0.272489995	-0.395599991	-1.72379994	126	12	132
0.272049993	-0.396860003	-1.72150004	126	12	132
0.271609992	-0.39813	-1.71920002	126	12	132
0.27421999	-0.397769988	-1.7177	126	12	132
0.273770005	-0.399060011	-1.71539998	126	12	132
0.273770005	-0.400790006	-1.71490002	126	12	132
0.270940006	-0.399210006	-1.71599996	126	12	132
0.268110007	-0.399349988	-1.71659994	126	12	132
0.268330008	-0.397839993	-1.71800005	126	12	132
0.265069991	-0.397540003	-1.71669996	126	12	132
0.265069991	-0.399280012	-1.71630001	126	12	132
0.262019992	-0.399199992	-1.71589994	126	12	132
0.262239993	-0.397680014	-1.71730006	126	12	132
0.262459993	-0.396189988	-1.71860003	126	12	132
0.262459993	-0.394490004	-1.71899998	126	12	132
0.259840012	-0.394849986	-1.72060001	126	12	132
0.259840012	-0.393119991	-1.72099996	126	12	132
0.259200007	-0.395889997	-1.71730006	126	12	132
0.259409994	-0.397819996	-1.71790004	126	12	132
0.258769989	-0.398900002	-1.71459997	126	12	132
0.258340001	-0.400180012	-1.71229994	126	12	132
0.258340001	-0.40189001	-1.7119	126	12	132
0.255299985	-0.40180999	-1.71159995	126	12	132
0.255519986	-0.400319993	-1.71290004	126	12	132
0.255730003	-0.398820013	-1.71430004	126	12	132
0.252900004	-0.398950011	-1.71490002	126	12	132
0.252900004	-0.400680006	-1.71449995	126	12	132
0.257690012	-0.402920008	-1.70869994	126	12	132
0.260729998	-0.403010011	-1.70899999	126	12	132
0.263980001	-0.403310001	-1.71029997	126	12	132
0.264409989	-0.402049989	-1.71259999	126	12	132
0.264409989	-0.400339991	-1.71300006	126	12	132
0.261159986	-0.400040001	-1.71169996	126	12	132
0.261370003	-0.401969999	-1.71229994	126	12	132
0.267679989	-0.400640011	-1.71430004	126	12	132
0.270280004	-0.400269985	-1.71270001	126	12	132
0.269829988	-0.401540011	-1.71039999	126	12	132
0.269389987	-0.40279001	-1.70809996	126	12	132
0.269389987	-0.40448001	-1.70770001	126	12	132
0.268949986	-0.405710012	-1.70539999	126	12	132
0.268510014	-0.406919986	-1.70309997	126	12	132
0.268279999	-0.408369988	-1.70179999	126	12	132
0.27087	-0.407990009	-1.70019996	126	12	132
0.271310002	-0.406769991	-1.70249999	126	12	132
0.273889989	-0.406390011	-1.70089996	126	12	132
0.276930004	-0.406470001	-1.70130002	126	12	132
0.279500008	-0.406089991	-1.6997	126	12	132
0.279269993	-0.407539994	-1.6983	126	12	132
0.279269993	-0.409249991	-1.69790006	126	12	132
0.278820008	-0.410510004	-1.69560003	126	12	132
0.278360009	-0.411769986	-1.69330001	126	12	132
0.278360009	-0.41347	-1.69289994	126	12	132
0.275339991	-0.413390011	-1.69260001	126	12	132
0.272320002	-0.413320005	-1.69229996	126	12	132
0.273000002	-0.412310004	-1.69550002	126	12	132
0.273220003	-0.410820007	-1.69690001	126	12	132
0.273000002	-0.408870012	-1.69630003	126	12	132
0.273000002	-0.407160014	-1.69679999	126	12	132
0.27601999	-0.40722999	-1.69710004	126	12	132
0.27601999	-0.408950001	-1.69669998	126	12	132
0.276470006	-0.411130011	-1.69809997	126	12	132
0.276250005	-0.412609994	-1.69679999	126	12	132
0.270200014	-0.409020007	-1.69700003	126	12	132
0.270200014	-0.410739988	-1.69659996	126	12	132
0.270200014	-0.412459999	-1.6961	126	12	132
0.267179996	-0.41238001	-1.69579995	126	12	132
0.266950011	-0.410430014	-1.69529998	126	12	132
0.266950011	-0.408719987	-1.69570005	126	12	132
0.264380008	-0.410809994	-1.69679999	126	12	132
0.263720006	-0.411839992	-1.69360006	126	12	132
0.260710001	-0.411760002	-1.69319999	126	12	132
0.26027	-0.412990004	-1.69089997	126	12	132
0.26027	-0.414660007	-1.69050002	126	12	132
0.259829998	-0.415870011	-1.6882	126	12	132
0.259620011	-0.417349994	-1.6868	126	12	132
0.262400001	-0.417199999	-1.68620002	126	12	132
0.262180001	-0.415259987	-1.68570006	126	12	132
0.264959991	-0.415109992	-1.68509996	126	12	132
0.265399992	-0.417279989	-1.68659997	126	12	132
0.268189996	-0.417129993	-1.68599999	126	12	132
0.268189996	-0.415419996	-1.68640006	126	12	132
0.270969987	-0.416979998	-1.68529999	126	12	132
0.271420002	-0.415740013	-1.68760002	126	12	132
0.271649987	-0.414290011	-1.68900001	126	12	132
0.274430007	-0.414139986	-1.68840003	126	12	132
0.274210006	-0.415580004	-1.68700004	126	12	132
0.273750007	-0.41681999	-1.68470001	126	12	132
0.273530006	-0.418289989	-1.68330002	126	12	132
0.273070008	-0.419499993	-1.68099999	126	12	132
0.272619992	-0.42069	-1.67869997	126	12	132
0.272390008	-0.422069997	-1.67739999	126	12	132
0.269620001	-0.422219992	-1.67799997	126	12	132
0.269620001	-0.420599997	-1.67840004	126	12	132
0.270069987	-0.419420004	-1.68069994	126	12	132
0.270300001	-0.417970002	-1.68210006	126	12	132
0.267740011	-0.418359995	-1.68359995	126	12	132
0.266849995	-0.419099987	-1.67939997	126	12	132
0.266400009	-0.420289993	-1.67709994	126	12	132
0.266400009	-0.421900004	-1.6767	126	12	132
0.263850003	-0.422300011	-1.67830002	126	12	132
0.263630003	-0.420439988	-1.67770004	126	12	132
0.263850003	-0.419019997	-1.67910004	126	12	132
0.263630003	-0.417100012	-1.67859995	126	12	132
0.261299998	-0.41771999	-1.68110001	126	12	132
0.261519998	-0.419640005	-1.68159997	126	12	132
0.261079997	-0.420830011	-1.67929995	126	12	132
0.260859996	-0.422210008	-1.67789996	126	12	132
0.258089989	-0.422360003	-1.67859995	126	12	132
0.258520007	-0.421220005	-1.68089998	126	12	132
0.258520007	-0.419550002	-1.68130004	126	12	132
0.25830999	-0.417640001	-1.68069994	126	12	132
0.25553	-0.417789996	-1.68130004	126	12	132
0.25553	-0.419470012	-1.68089998	126	12	132
0.255100012	-0.420659989	-1.67859995	126	12	132
0.255100012	-0.42227	-1.67820001	126	12	132
0.254449993	-0.423200011	-1.67490005	126	12	132
0.256999999	-0.422809988	-1.67340004	126	12	132
0.259759992	-0.422659993	-1.67279994	126	12	132
0.259319991	-0.423920006	-1.67050004	126	12	132
0.25909999	-0.425379992	-1.66910005	126	12	132
0.256339997	-0.423830003	-1.67009997	126	12	132
0.255690008	-0.424809992	-1.66690004	126	12	132
0.252929986	-0.424959987	-1.66750002	126	12	132
0.253149986	-0.423500001	-1.6688	126	12	132
0.250609994	-0.423889995	-1.67040002	126	12	132
0.250389993	-0.42535001	-1.66900003	126	12	132
0.247419998	-0.425260007	-1.66859996	126	12	132
0.24763	-0.423799992	-1.66999996	126	12	132
0.247419998	-0.421820015	-1.66949999	126	12	132
0.247850001	-0.420670003	-1.67180002	126	12	132
0.245509997	-0.42129001	-1.67429996	126	12	132
0.242740005	-0.421429992	-1.67490005	126	12	132
0.240180001	-0.421820015	-1.67639995	126	12	132
0.240600005	-0.420670003	-1.67869997	126	12	132
0.240810007	-0.419250011	-1.67999995	126	12	132
0.240600005	-0.41734001	-1.67949998	126	12	132
0.237829998	-0.417479992	-1.68009996	126	12	132
0.235049993	-0.417620003	-1.68069994	126	12	132
0.235259995	-0.416159987	-1.68200004	126	12	132
0.232480004	-0.416299999	-1.68260002	126	12	132
0.232889995	-0.418460011	-1.68410003	126	12	132
0.232480004	-0.419669986	-1.68169999	126	12	132
0.229699999	-0.419809997	-1.68229997	126	12	132
0.229900002	-0.418370008	-1.68369997	126	12	132
0.230100006	-0.416900009	-1.68499994	126	12	132
0.227119997	-0.416810006	-1.6846	126	12	132
0.226919994	-0.418269992	-1.68330002	126	12	132
0.226530001	-0.419479996	-1.68089998	126	12	132
0.223749995	-0.417930007	-1.68190002	126	12	132
0.223949999	-0.416469991	-1.68330002	126	12	132
0.220970005	-0.416370004	-1.68289995	126	12	132
0.221169993	-0.414900005	-1.68420005	126	12	132
0.22078	-0.41782999	-1.68149996	126	12	132
0.243579999	-0.417430013	-1.67990005	126	12	132
0.246570006	-0.417519987	-1.6803	126	12	132
0.246989995	-0.419669986	-1.68169999	126	12	132
0.244210005	-0.419820011	-1.68229997	126	12	132
0.243579999	-0.420769989	-1.67910004	126	12	132
0.246140003	-0.42039001	-1.67750001	126	12	132
0.248699993	-0.419999987	-1.676	126	12	132
0.25147	-0.419849992	-1.67540002	126	12	132
0.251249999	-0.421229988	-1.67410004	126	12	132
0.251040012	-0.422630012	-1.67270005	126	12	132
0.249129996	-0.417140007	-1.67869997	126	12	132
0.24955	-0.419290006	-1.68019998	126	12	132
0.252330005	-0.419140011	-1.6796	126	12	132
0.25297001	-0.418170005	-1.68289995	126	12	132
0.253179997	-0.416709989	-1.68420005	126	12	132
0.25018999	-0.416619986	-1.6839	126	12	132
0.247409999	-0.416759998	-1.68449998	126	12	132
0.244839996	-0.417140007	-1.68599999	126	12	132
0.245049998	-0.415670007	-1.68739998	126	12	132
0.24526	-0.414220005	-1.68869996	126	12	132
0.245470002	-0.41279	-1.69009995	126	12	132
0.248260006	-0.412649989	-1.68949997	126	12	132
0.248469993	-0.414550006	-1.69009995	126	12	132
0.248260006	-0.415989995	-1.68869996	126	12	132
0.251040012	-0.415850013	-1.68809998	126	12	132
0.251260012	-0.414400011	-1.68949997	126	12	132
0.25147	-0.412970006	-1.69079995	126	12	132
0.254260004	-0.412820011	-1.69019997	126	12	132
0.254260004	-0.414490014	-1.68980002	126	12	132
0.254040003	-0.415939987	-1.68850005	126	12	132
0.257050008	-0.416020006	-1.68879998	126	12	132
0.257479995	-0.414810002	-1.6911	126	12	132
0.257050008	-0.41268	-1.68959999	126	12	132
0.2491	-0.411870003	-1.69369996	126	12	132
0.249520004	-0.410620004	-1.69599998	126	12	132
0.249730006	-0.409130007	-1.69739997	126	12	132
0.250160009	-0.407869995	-1.6997	126	12	132
0.250580013	-0.406650007	-1.70200002	126	12	132
0.250580013	-0.404989988	-1.70239997	126	12	132
0.250580013	-0.403320014	-1.70280004	126	12	132
0.250999987	-0.402079999	-1.70510006	126	12	132
0.251210004	-0.40061	-1.70650005	126	12	132
0.248610005	-0.400970012	-1.70799994	126	12	132
0.248190001	-0.402220011	-1.70570004	126	12	132
0.247769997	-0.403450012	-1.70340002	126	12	132
0.247769997	-0.405129999	-1.70299995	126	12	132
0.247559994	-0.406569988	-1.70169997	126	12	132
0.247140005	-0.407779992	-1.69939995	126	12	132
0.246930003	-0.409269989	-1.69799995	126	12	132
0.24673	-0.410759985	-1.69659996	126	12	132
0.246309996	-0.412019998	-1.69430006	126	12	132
0.243300006	-0.411929995	-1.69389999	126	12	132
0.243719995	-0.410670012	-1.69630003	126	12	132
0.24413	-0.40941	-1.69860005	126	12	132
0.244550005	-0.408149987	-1.70089996	126	12	132
0.244760007	-0.406709999	-1.70220006	126	12	132
0.245169997	-0.405499995	-1.70449996	126	12	132
0.245169997	-0.403820008	-1.70490003	126	12	132
0.245590001	-0.402590007	-1.70720005	126	12	132
0.240920007	-0.410809994	-1.69679999	126	12	132
0.240089998	-0.411599994	-1.69260001	126	12	132
0.239680007	-0.412840009	-1.69029999	126	12	132
0.239680007	-0.414510012	-1.68990004	126	12	132
0.239270002	-0.415719986	-1.68760002	126	12	132
0.242050007	-0.415580004	-1.68700004	126	12	132
0.242259994	-0.414130002	-1.68840003	126	12	132
0.242259994	-0.412470013	-1.68879998	126	12	132
0.241640002	-0.41681999	-1.68470001	126	12	132
0.238649994	-0.416720003	-1.68429995	126	12	132
0.236279994	-0.415619999	-1.68719995	126	12	132
0.233490005	-0.41576001	-1.68780005	126	12	132
0.254449993	-0.402619988	-1.70739996	126	12	132
0.253600001	-0.403400004	-1.70319998	126	12	132
0.253390014	-0.404850006	-1.70179999	126	12	132
0.253600001	-0.40674001	-1.70239997	126	12	132
0.252959996	-0.407730013	-1.69910002	126	12	132
0.252750009	-0.40922001	-1.69780004	126	12	132
0.252319992	-0.410479993	-1.69550002	126	12	132
0.252319992	-0.41218999	-1.69500005	126	12	132
0.255120009	-0.412050009	-1.69439995	126	12	132
0.255329996	-0.410560012	-1.69579995	126	12	132
0.255329996	-0.408850014	-1.69620001	126	12	132
0.255329996	-0.407130003	-1.69659996	126	12	132
0.258130014	-0.406989992	-1.69599998	126	12	132
0.258340001	-0.408930004	-1.69659996	126	12	132
0.258340001	-0.410650015	-1.69620001	126	12	132
0.258130014	-0.412129998	-1.69480002	126	12	132
0.261139989	-0.41049999	-1.69560003	126	12	132
0.26135999	-0.409009993	-1.69690001	126	12	132
0.261799991	-0.40775001	-1.69920003	126	12	132
0.26504001	-0.408060014	-1.70050001	126	12	132
0.26504001	-0.409779996	-1.70009995	126	12	132
0.265700012	-0.407070011	-1.70379996	126	12	132
0.262890011	-0.407209992	-1.70439994	126	12	132
0.263099998	-0.405770004	-1.70570004	126	12	132
0.263099998	-0.404100001	-1.70609999	126	12	132
0.259860009	-0.403789997	-1.70480001	126	12	132
0.259860009	-0.405470014	-1.70439994	126	12	132
0.259860009	-0.407130003	-1.704	126	12	132
0.257259995	-0.407499999	-1.70560002	126	12	132
0.257050008	-0.405609995	-1.70500004	126	12	132
0.25661999	-0.403479993	-1.70350003	126	12	132
0.266360015	-0.406080008	-1.70700002	126	12	132
0.266579986	-0.404630005	-1.70840001	126	12	132
0.266579986	-0.402940005	-1.70869994	126	12	132
0.267019987	-0.401679993	-1.71099997	126	12	132
0.256179988	-0.416799992	-1.6846	126	12	132
0.237210006	-0.421719998	-1.676	126	12	132
0.237000003	-0.419869989	-1.67550004	126	12	132
0.237000003	-0.41821	-1.67589998	126	12	132
0.234229997	-0.418350011	-1.67639995	126	12	132
0.234029993	-0.419770002	-1.67509997	126	12	132
0.234229997	-0.421620011	-1.67560005	126	12	132
0.234229997	-0.423260003	-1.67519999	126	12	132
0.231470004	-0.421759993	-1.67620003	126	12	132
0.231260002	-0.419910014	-1.67560005	126	12	132
0.228300005	-0.421429992	-1.67480004	126	12	132
0.22789	-0.422589988	-1.67250001	126	12	132
0.225130007	-0.421079993	-1.67349994	126	12	132
0.225329995	-0.41971001	-1.67480004	126	12	132
0.22789	-0.419330001	-1.67330003	126	12	132
0.222959995	-0.418660015	-1.67770004	126	12	132
0.231059998	-0.422930002	-1.67390001	126	12	132
0.227290004	-0.423599988	-1.66919994	126	12	132
0.226889998	-0.424820006	-1.66690004	126	12	132
0.229440004	-0.424439996	-1.66540003	126	12	132
0.229640007	-0.422980011	-1.66680002	126	12	132
0.232800007	-0.423319995	-1.6681	126	12	132
0.232800007	-0.425020009	-1.66770005	126	12	132
0.235970005	-0.425359994	-1.66900003	126	12	132
0.235970005	-0.42366001	-1.66949999	126	12	132
0.236379996	-0.422399998	-1.67180002	126	12	132
0.239140004	-0.423999995	-1.67079997	126	12	132
0.238729998	-0.425220013	-1.66849995	126	12	132
0.241280004	-0.42482999	-1.66690004	126	12	132
0.241490006	-0.423370004	-1.66830003	126	12	132
0.241899997	-0.422120005	-1.67069995	126	12	132
0.239559993	-0.422740012	-1.67309999	126	12	132
0.244240001	-0.421490014	-1.66820002	126	12	132
0.244240001	-0.423220009	-1.66770005	126	12	132
0.244029999	-0.424679995	-1.66639996	126	12	132
0.223729998	-0.424470007	-1.66550004	126	12	132
0.26275	-0.422740012	-1.67309999	126	12	132
0.26275	-0.424479991	-1.67270005	126	12	132
0.26275	-0.426189989	-1.67229998	126	12	132
0.265509993	-0.42603001	-1.6717	126	12	132
0.265729994	-0.424569994	-1.67299998	126	12	132
0.265729994	-0.422829986	-1.67349994	126	12	132
0.2685	-0.422670007	-1.67289996	126	12	132
0.2685	-0.424409986	-1.6724	126	12	132
0.268049985	-0.425630003	-1.67009997	126	12	132
0.270579994	-0.42524001	-1.66849995	126	12	132
0.273790002	-0.425559998	-1.66980004	126	12	132
0.273790002	-0.42385	-1.67019999	126	12	132
0.274019986	-0.422360003	-1.67159998	126	12	132
0.271259993	-0.422520012	-1.67219996	126	12	132
0.271490008	-0.424490005	-1.67270005	126	12	132
0.276549995	-0.423700005	-1.66960001	126	12	132
0.27632001	-0.425159991	-1.66820002	126	12	132
0.279309988	-0.42524001	-1.66849995	126	12	132
0.282299995	-0.425309986	-1.6688	126	12	132
0.282999992	-0.424329996	-1.67209995	126	12	132
0.283230007	-0.422829986	-1.67349994	126	12	132
0.283470005	-0.421429992	-1.67480004	126	12	132
0.283930004	-0.42028001	-1.67709994	126	12	132
0.280930012	-0.420210004	-1.67680001	126	12	132
0.280470014	-0.421350002	-1.67449999	126	12	132
0.280470014	-0.422989994	-1.67410004	126	12	132
0.280010015	-0.424250007	-1.67180002	126	12	132
0.277469993	-0.422910005	-1.67379999	126	12	132
0.277469993	-0.421270013	-1.67420006	126	12	132
0.277929991	-0.420130014	-1.67649996	126	12	132
0.275160015	-0.420289993	-1.67719996	126	12	132
0.27471	-0.421429992	-1.67490005	126	12	132
0.275620013	-0.419099987	-1.67949998	126	12	132
0.276080012	-0.417890012	-1.68180001	126	12	132
0.278849989	-0.417739987	-1.68110001	126	12	132
0.278620005	-0.419180006	-1.67980003	126	12	132
0.281630009	-0.419259995	-1.68009996	126	12	132
0.281630009	-0.417580009	-1.68050003	126	12	132
0.284399986	-0.41742	-1.67980003	126	12	132
0.284630001	-0.419330001	-1.68040001	126	12	132
0.287880003	-0.417959988	-1.68200004	126	12	132
0.288109988	-0.419880003	-1.68260002	126	12	132
0.290890008	-0.41971001	-1.68190002	126	12	132
0.290890008	-0.418029994	-1.68229997	126	12	132
0.291130006	-0.416570008	-1.68369997	126	12	132
0.291370004	-0.415100008	-1.68499994	126	12	132
0.28858	-0.415259987	-1.68570006	126	12	132
0.288349986	-0.416729987	-1.68429995	126	12	132
0.285569996	-0.416889995	-1.68499994	126	12	132
0.286029994	-0.41565001	-1.68729997	126	12	132
0.286269993	-0.414200008	-1.68869996	126	12	132
0.286269993	-0.412539989	-1.68910003	126	12	132
0.289290011	-0.412609994	-1.68939996	126	12	132
0.289050013	-0.414039999	-1.68799996	126	12	132
0.292079985	-0.414110005	-1.68830001	126	12	132
0.292549998	-0.412910014	-1.69060004	126	12	132
0.29302001	-0.411669999	-1.69289994	126	12	132
0.295819998	-0.413210005	-1.6918	126	12	132
0.29558	-0.414649993	-1.69050002	126	12	132
0.297890007	-0.415699989	-1.6875	126	12	132
0.297890007	-0.417409986	-1.68710005	126	12	132
0.300669998	-0.417239994	-1.68640006	126	12	132
0.300909996	-0.41576001	-1.68780005	126	12	132
0.303939998	-0.415829986	-1.68799996	126	12	132
0.304430008	-0.414609998	-1.69029999	126	12	132
0.301640004	-0.414779991	-1.69099998	126	12	132
0.299089998	-0.415179998	-1.69260001	126	12	132
0.299089998	-0.413509995	-1.69299996	126	12	132
0.299329996	-0.412030011	-1.69439995	126	12	132
0.29629001	-0.41196999	-1.69410002	126	12	132
0.30261001	-0.412330002	-1.69560003	126	12	132
0.302359998	-0.413800001	-1.69420004	126	12	132
0.305159986	-0.413639992	-1.69360006	126	12	132
0.305649996	-0.412389994	-1.69589996	126	12	132
0.306129992	-0.411130011	-1.69819999	126	12	132
0.306380004	-0.409640014	-1.69949996	126	12	132
0.306380004	-0.407920003	-1.69990003	126	12	132
0.306620002	-0.406470001	-1.70130002	126	12	132
0.30686	-0.405039996	-1.7026	126	12	132
0.30430001	-0.407090008	-1.70379996	126	12	132
0.303820014	-0.408309996	-1.70159996	126	12	132
0.303330004	-0.409579992	-1.69930005	126	12	132
0.303090006	-0.411069989	-1.69790006	126	12	132
0.300289989	-0.411229998	-1.69860005	126	12	132
0.300529987	-0.409740001	-1.69990003	126	12	132
0.297719985	-0.40990001	-1.70060003	126	12	132
0.297479987	-0.411390007	-1.69920003	126	12	132
0.294209987	-0.4111	-1.69799995	126	12	132
0.293969989	-0.409150004	-1.69749999	126	12	132
0.294440001	-0.407889992	-1.69980001	126	12	132
0.294440001	-0.406219989	-1.70019996	126	12	132
0.294919997	-0.405010015	-1.70249999	126	12	132
0.297960013	-0.405070007	-1.70280004	126	12	132
0.298200011	-0.406960011	-1.7033	126	12	132
0.298440009	-0.408859998	-1.70389998	126	12	132
0.301490009	-0.408930004	-1.70410001	126	12	132
0.301010013	-0.406800002	-1.7026	126	12	132
0.301250011	-0.405360013	-1.704	126	12	132
0.301970005	-0.404359996	-1.70720005	126	12	132
0.301970005	-0.402669996	-1.7076	126	12	132
0.302210003	-0.401190013	-1.70899999	126	12	132
0.299389988	-0.401349992	-1.70959997	126	12	132
0.29914999	-0.402830005	-1.70829999	126	12	132
0.298680007	-0.40406999	-1.70599997	126	12	132
0.295630008	-0.404000014	-1.70570004	126	12	132
0.296339989	-0.402990013	-1.70899999	126	12	132
0.296810001	-0.401730001	-1.7112	126	12	132
0.297289997	-0.400460005	-1.71350002	126	12	132
0.297520012	-0.398950011	-1.71490002	126	12	132
0.298000008	-0.397659987	-1.71720004	126	12	132
0.301059991	-0.397720009	-1.71749997	126	12	132
0.300590008	-0.399019986	-1.71519995	126	12	132
0.300110012	-0.40031001	-1.71290004	126	12	132
0.302929997	-0.400150001	-1.71220005	126	12	132
0.303409994	-0.398860008	-1.71449995	126	12	132
0.306719989	-0.39914	-1.71570003	126	12	132
0.309789985	-0.399199992	-1.71589994	126	12	132
0.309789985	-0.400929987	-1.7155	126	12	132
0.31261	-0.400770009	-1.7148	126	12	132
0.312370002	-0.398820013	-1.71430004	126	12	132
0.315690011	-0.399100006	-1.7155	126	12	132
0.315690011	-0.400830001	-1.71510005	126	12	132
0.318260014	-0.400440007	-1.71340001	126	12	132
0.318260014	-0.398710012	-1.71379995	126	12	132
0.321339995	-0.398770005	-1.7141	126	12	132
0.321339995	-0.4005	-1.71370006	126	12	132
0.320829988	-0.401769996	-1.71140003	126	12	132
0.318010002	-0.401930004	-1.71210003	126	12	132
0.314700007	-0.401650012	-1.71089995	126	12	132
0.311630011	-0.401600003	-1.71070004	126	12	132
0.311390013	-0.403079987	-1.70930004	126	12	132
0.311390013	-0.404760003	-1.70889997	126	12	132
0.313959986	-0.40437001	-1.70729995	126	12	132
0.313959986	-0.402689993	-1.70770001	126	12	132
0.317019999	-0.402749985	-1.70790005	126	12	132
0.316520005	-0.40399	-1.70560002	126	12	132
0.316020012	-0.405209988	-1.70340002	126	12	132
0.316269994	-0.407099992	-1.70389998	126	12	132
0.316269994	-0.408780009	-1.70350003	126	12	132
0.319079995	-0.408609986	-1.70280004	126	12	132
0.319579989	-0.407380015	-1.70510006	126	12	132
0.320080012	-0.406170011	-1.70739996	126	12	132
0.31983	-0.40426001	-1.70679998	126	12	132
0.319579989	-0.402359992	-1.70630002	126	12	132
0.322649986	-0.404100001	-1.70609999	126	12	132
0.322649986	-0.405770004	-1.70570004	126	12	132
0.322140008	-0.406989992	-1.70340002	126	12	132
0.321640015	-0.408210009	-1.70120001	126	12	132
0.324440002	-0.408039987	-1.70039999	126	12	132
0.32495001	-0.406819999	-1.70270002	126	12	132
0.328009993	-0.405209988	-1.7033	126	12	132
0.327250004	-0.406199992	-1.70009995	126	12	132
0.330049992	-0.407700002	-1.699	126	12	132
0.330559999	-0.406480014	-1.70130002	126	12	132
0.33337	-0.407970011	-1.70019996	126	12	132
0.333880007	-0.406749994	-1.70239997	126	12	132
0.334399998	-0.405530006	-1.70469999	126	12	132
0.331330001	-0.405479997	-1.70449996	126	12	132
0.329030007	-0.404430002	-1.70749998	126	12	132
0.32980001	-0.403409988	-1.71070004	126	12	132
0.330060005	-0.401919991	-1.71210003	126	12	132
0.330060005	-0.400209993	-1.71249998	126	12	132
0.33287999	-0.400040001	-1.71169996	126	12	132
0.333130002	-0.401969999	-1.71229994	126	12	132
0.335949987	-0.401800007	-1.71150005	126	12	132
0.339029998	-0.401849985	-1.71169996	126	12	132
0.342379987	-0.402119994	-1.71290004	126	12	132
0.345470011	-0.402159989	-1.71309996	126	12	132
0.345990002	-0.400889993	-1.71539998	126	12	132
0.346260011	-0.399379998	-1.71669996	126	12	132
0.343430012	-0.401279986	-1.71700001	126	12	132
0.340079993	-0.40101999	-1.71589994	126	12	132
0.337249994	-0.401190013	-1.71669996	126	12	132
0.338019997	-0.400110006	-1.71990001	126	12	132
0.338279992	-0.398589998	-1.72119999	126	12	132
0.338019997	-0.39666	-1.72070003	126	12	132
0.338539988	-0.395399988	-1.72290003	126	12	132
0.338800013	-0.39388001	-1.72430003	126	12	132
0.341899991	-0.395660013	-1.72409999	126	12	132
0.344740003	-0.395489991	-1.72329998	126	12	132
0.347840011	-0.395529985	-1.72350001	126	12	132
0.347310007	-0.396800011	-1.72130001	126	12	132
0.347579986	-0.398719996	-1.72179997	126	12	132
0.344740003	-0.398900002	-1.72259998	126	12	132
0.344480008	-0.40042001	-1.72119999	126	12	132
0.34138	-0.398640007	-1.72140002	126	12	132
0.340860009	-0.396490008	-1.71990001	126	12	132
0.343950003	-0.396539986	-1.72010005	126	12	132
0.340860009	-0.399940014	-1.7191	126	12	132
0.350149989	-0.398330003	-1.72010005	126	12	132
0.350149989	-0.396620005	-1.72049999	126	12	132
0.352710009	-0.396230012	-1.71879995	126	12	132
0.352450013	-0.397720009	-1.71749997	126	12	132
0.355540007	-0.397760004	-1.71759999	126	12	132
0.354999989	-0.399060011	-1.71539998	126	12	132
0.354470015	-0.400350004	-1.71309996	126	12	132
0.351639986	-0.398799986	-1.71420002	126	12	132
0.348820001	-0.400709987	-1.71459997	126	12	132
0.348019987	-0.401760012	-1.71140003	126	12	132
0.348019987	-0.40347001	-1.71099997	126	12	132
0.350840002	-0.403290004	-1.71019995	126	12	132
0.350840002	-0.401580006	-1.71060002	126	12	132
0.353390008	-0.401190013	-1.70889997	126	12	132
0.353390008	-0.402889997	-1.70850003	126	12	132
0.353659987	-0.404790014	-1.70910001	126	12	132
0.350569993	-0.40474999	-1.70889997	126	12	132
0.347229987	-0.404489994	-1.70780003	126	12	132
0.346689999	-0.405719995	-1.70550001	126	12	132
0.349510014	-0.405539989	-1.70469999	126	12	132
0.351779997	-0.404909998	-1.70210004	126	12	132
0.351240009	-0.406129986	-1.69980001	126	12	132
0.351509988	-0.408030003	-1.70039999	126	12	132
0.351240009	-0.40952	-1.699	126	12	132
0.35097	-0.411009997	-1.69770002	126	12	132
0.350430012	-0.412279993	-1.6954	126	12	132
0.349900007	-0.413520008	-1.69309998	126	12	132
0.349359989	-0.414730012	-1.69079995	126	12	132
0.346300006	-0.414689988	-1.69060004	126	12	132
0.346029997	-0.41279	-1.69009995	126	12	132
0.342979997	-0.412750006	-1.68990004	126	12	132
0.342709988	-0.414180011	-1.68859994	126	12	132
0.345499992	-0.415679991	-1.68739998	126	12	132
0.345230013	-0.417149991	-1.68610001	126	12	132
0.348280013	-0.417199999	-1.68620002	126	12	132
0.348549992	-0.415719986	-1.68760002	126	12	132
0.351339996	-0.41554001	-1.6868	126	12	132
0.351069987	-0.417010009	-1.68550003	126	12	132
0.350520015	-0.418249995	-1.6832	126	12	132
0.350250006	-0.419699997	-1.68180001	126	12	132
0.353029996	-0.41782999	-1.68149996	126	12	132
0.353570014	-0.419970006	-1.68289995	126	12	132
0.356350005	-0.419779986	-1.68219995	126	12	132
0.356079996	-0.417869985	-1.68169999	126	12	132
0.356350005	-0.416399986	-1.68299997	126	12	132
0.359129995	-0.416209996	-1.68219995	126	12	132
0.359409988	-0.418139994	-1.68280005	126	12	132
0.359679997	-0.420060009	-1.68330002	126	12	132
0.362459987	-0.418179989	-1.68289995	126	12	132
0.361909986	-0.419400007	-1.68060005	126	12	132
0.361079991	-0.420359999	-1.67739999	126	12	132
0.36135	-0.422210008	-1.67789996	126	12	132
0.360799998	-0.423379987	-1.67569995	126	12	132
0.357749999	-0.423339993	-1.67550004	126	12	132
0.357749999	-0.421700001	-1.67589998	126	12	132
0.3583	-0.420549989	-1.67820001	126	12	132
0.355529994	-0.420740008	-1.67900002	126	12	132
0.352759987	-0.420940012	-1.67970002	126	12	132
0.349440008	-0.420659989	-1.67859995	126	12	132
0.349169999	-0.422039986	-1.67729998	126	12	132
0.346399993	-0.420610011	-1.67840004	126	12	132
0.345860004	-0.421759993	-1.67620003	126	12	132
0.345319986	-0.422930002	-1.67390001	126	12	132
0.344790012	-0.424199998	-1.67159998	126	12	132
0.344520003	-0.425660014	-1.67019999	126	12	132
0.341219991	-0.425379992	-1.66910005	126	12	132
0.338730007	-0.425799996	-1.67079997	126	12	132
0.339260012	-0.424569994	-1.67309999	126	12	132
0.339529991	-0.423070014	-1.67439997	126	12	132
0.340059996	-0.421900004	-1.6767	126	12	132
0.340319991	-0.420520008	-1.67809999	126	12	132
0.340319991	-0.418859988	-1.67850006	126	12	132
0.337550014	-0.419039994	-1.67920005	126	12	132
0.337289989	-0.420469999	-1.67789996	126	12	132
0.33781001	-0.422560006	-1.67929995	126	12	132
0.33702001	-0.423489988	-1.67610002	126	12	132
0.333990008	-0.420179993	-1.6767	126	12	132
0.333469987	-0.421330005	-1.67439997	126	12	132
0.332940012	-0.422500014	-1.67219996	126	12	132
0.335700005	-0.424050003	-1.671	126	12	132
0.335970014	-0.425989985	-1.67149997	126	12	132
0.332940012	-0.425940007	-1.67130005	126	12	132
0.329919994	-0.424180001	-1.67149997	126	12	132
0.329400003	-0.425410002	-1.66919994	126	12	132
0.331889987	-0.423280001	-1.66799998	126	12	132
0.326119989	-0.423409998	-1.66849995	126	12	132
0.325599998	-0.42464	-1.66620004	126	12	132
0.323110014	-0.425060004	-1.66779995	126	12	132
0.323359996	-0.423590004	-1.66919994	126	12	132
0.320609987	-0.42377001	-1.66989994	126	12	132
0.320089996	-0.425000012	-1.66760004	126	12	132
0.317849994	-0.425650001	-1.67019999	126	12	132
0.317849994	-0.423949987	-1.67060006	126	12	132
0.315340012	-0.424369991	-1.67219996	126	12	132
0.315079987	-0.425830007	-1.67089999	126	12	132
0.312070012	-0.425770015	-1.67060006	126	12	132
0.312070012	-0.424070001	-1.67110002	126	12	132
0.312570006	-0.422809988	-1.67340004	126	12	132
0.310059994	-0.423220009	-1.67499995	126	12	132
0.309810013	-0.424719989	-1.67359996	126	12	132
0.307040006	-0.423150003	-1.67480004	126	12	132
0.304269999	-0.423330009	-1.67540002	126	12	132
0.304760009	-0.42216	-1.67770004	126	12	132
0.304760009	-0.420540005	-1.67809999	126	12	132
0.304269999	-0.418410003	-1.6767	126	12	132
0.301510006	-0.420240015	-1.67690003	126	12	132
0.301259995	-0.421620011	-1.67560005	126	12	132
0.301259995	-0.423260003	-1.67519999	126	12	132
0.298489988	-0.423429996	-1.67589998	126	12	132
0.298489988	-0.420170009	-1.6767	126	12	132
0.298979998	-0.418980002	-1.67900002	126	12	132
0.301990002	-0.419050008	-1.67920005	126	12	132
0.295960009	-0.418909997	-1.67869997	126	12	132
0.295480013	-0.420100003	-1.67639995	126	12	132
0.292950004	-0.42050001	-1.67799997	126	12	132
0.292950004	-0.418839991	-1.67840004	126	12	132
0.290179998	-0.420670003	-1.67869997	126	12	132
0.292710006	-0.421880007	-1.6767	126	12	132
0.291999996	-0.422809988	-1.67340004	126	12	132
0.294759989	-0.422650009	-1.67279994	126	12	132
0.297769994	-0.421079993	-1.67340004	126	12	132
0.297280014	-0.423979998	-1.67069995	126	12	132
0.296799988	-0.425199986	-1.66840005	126	12	132
0.293799996	-0.42513001	-1.6681	126	12	132
0.293799996	-0.423429996	-1.66849995	126	12	132
0.291049987	-0.423599988	-1.66919994	126	12	132
0.291049987	-0.425300002	-1.6688	126	12	132
0.288520008	-0.425700009	-1.67040002	126	12	132
0.288289994	-0.423759997	-1.66989994	126	12	132
0.288520008	-0.422259986	-1.67120004	126	12	132
0.289229989	-0.421339989	-1.67449999	126	12	132
0.286940008	-0.421979994	-1.67700005	126	12	132
0.286940008	-0.420359999	-1.67739999	126	12	132
0.286229998	-0.422910005	-1.67379999	126	12	132
0.286229998	-0.42464	-1.67330003	126	12	132
0.285759985	-0.425870001	-1.671	126	12	132
0.294039994	-0.420300007	-1.67030001	126	12	132
0.300040007	-0.425509989	-1.66960001	126	12	132
0.300040007	-0.423810005	-1.66999996	126	12	132
0.3028	-0.423629999	-1.66939998	126	12	132
0.3028	-0.425339997	-1.66890001	126	12	132
0.305310011	-0.424919993	-1.66729999	126	12	132
0.305810004	-0.423700005	-1.66960001	126	12	132
0.308319986	-0.424989998	-1.66760004	126	12	132
0.307539999	-0.418709993	-1.67789996	126	12	132
0.307779998	-0.420599997	-1.67840004	126	12	132
0.307779998	-0.422219992	-1.67799997	126	12	132
0.310799986	-0.422289997	-1.67820001	126	12	132
0.311049998	-0.420899987	-1.6796	126	12	132
0.313820004	-0.420729995	-1.6789	126	12	132
0.313820004	-0.419070005	-1.67929995	126	12	132
0.31408	-0.422580004	-1.67939997	126	12	132
0.316599995	-0.422170013	-1.67780006	126	12	132
0.319370002	-0.421999991	-1.67709994	126	12	132
0.318859994	-0.419910014	-1.67560005	126	12	132
0.319110006	-0.418480009	-1.67700005	126	12	132
0.32238999	-0.418779999	-1.67809999	126	12	132
0.322649986	-0.420670003	-1.67869997	126	12	132
0.325419992	-0.418830007	-1.67840004	126	12	132
0.325929999	-0.420960009	-1.67980003	126	12	132
0.32870999	-0.420780003	-1.67910004	126	12	132
0.329230011	-0.419589996	-1.68139994	126	12	132
0.332260013	-0.419640005	-1.68159997	126	12	132
0.335299999	-0.419690013	-1.68180001	126	12	132
0.338609993	-0.418289989	-1.68340003	126	12	132
0.339130014	-0.417059988	-1.68570006	126	12	132
0.339130014	-0.41534999	-1.68610001	126	12	132
0.341919988	-0.415170014	-1.68529999	126	12	132
0.341919988	-0.416880012	-1.68490005	126	12	132
0.34138	-0.418110013	-1.68260002	126	12	132
0.344159991	-0.417930007	-1.68190002	126	12	132
0.343629986	-0.419140011	-1.6796	126	12	132
0.343629986	-0.4208	-1.67920005	126	12	132
0.343360007	-0.422190011	-1.67780006	126	12	132
0.342830002	-0.42335999	-1.67560005	126	12	132
0.342020005	-0.424380004	-1.67229998	126	12	132
0.346940011	-0.419420004	-1.68069994	126	12	132
0.34720999	-0.417970002	-1.68210006	126	12	132
0.336089998	-0.415300012	-1.68589997	126	12	132
0.336349994	-0.417239994	-1.68640006	126	12	132
0.336609989	-0.419180006	-1.68690002	126	12	132
0.333829999	-0.419360012	-1.68770003	126	12	132
0.333829999	-0.417650014	-1.68809998	126	12	132
0.33355999	-0.415710002	-1.68760002	126	12	132
0.330779999	-0.417600006	-1.68789995	126	12	132
0.330260009	-0.418839991	-1.68560004	126	12	132
0.32773	-0.417549998	-1.68760002	126	12	132
0.327479988	-0.415609986	-1.68710005	126	12	132
0.327479988	-0.413929999	-1.6875	126	12	132
0.330260009	-0.413749993	-1.6868	126	12	132
0.330000013	-0.415199995	-1.68550003	126	12	132
0.324180007	-0.413650006	-1.68640006	126	12	132
0.324440002	-0.415549994	-1.68690002	126	12	132
0.324180007	-0.417030007	-1.68560004	126	12	132
0.321399987	-0.417210013	-1.68630004	126	12	132
0.321649998	-0.41573	-1.68760002	126	12	132
0.321399987	-0.413819999	-1.68710005	126	12	132
0.318610013	-0.413989991	-1.68780005	126	12	132
0.318870008	-0.415899992	-1.68830001	126	12	132
0.318360001	-0.417149991	-1.68599999	126	12	132
0.317860007	-0.418379992	-1.68369997	126	12	132
0.315329999	-0.418790013	-1.68540001	126	12	132
0.315829992	-0.417549998	-1.68770003	126	12	132
0.316080004	-0.416079998	-1.68900001	126	12	132
0.31558001	-0.413940012	-1.68760002	126	12	132
0.316080004	-0.412730008	-1.68990004	126	12	132
0.313039988	-0.412669986	-1.68959999	126	12	132
0.312539995	-0.413879991	-1.68729997	126	12	132
0.309760004	-0.414050013	-1.68799996	126	12	132
0.30697	-0.414209992	-1.68869996	126	12	132
0.30746001	-0.416359991	-1.69019997	126	12	132
0.310499996	-0.416420013	-1.6904	126	12	132
0.313540012	-0.416480005	-1.69070005	126	12	132
0.312790006	-0.417490005	-1.68739998	126	12	132
0.309760004	-0.417430013	-1.68719995	126	12	132
0.309020013	-0.418430001	-1.6839	126	12	132
0.30599001	-0.418370008	-1.68369997	126	12	132
0.306239992	-0.416900009	-1.68499994	126	12	132
0.303449988	-0.417070001	-1.68570006	126	12	132
0.30320999	-0.418540001	-1.68439996	126	12	132
0.29993999	-0.418240011	-1.6832	126	12	132
0.297170013	-0.418410003	-1.68379998	126	12	132
0.293909997	-0.418099999	-1.68260002	126	12	132
0.294149995	-0.416640013	-1.68400002	126	12	132
0.294620007	-0.415399998	-1.68630004	126	12	132
0.312050015	-0.418500006	-1.68420005	126	12	132
0.310499996	-0.413069993	-1.69120002	126	12	132
0.30794999	-0.41347	-1.69289994	126	12	132
0.308690012	-0.412449986	-1.6961	126	12	132
0.309179991	-0.411190003	-1.69840002	126	12	132
0.309179991	-0.409469992	-1.69879997	126	12	132
0.309179991	-0.407759994	-1.69920003	126	12	132
0.309179991	-0.404419988	-1.70000005	126	12	132
0.309920013	-0.406760007	-1.70249999	126	12	132
0.313219994	-0.40704	-1.70369995	126	12	132
0.312480003	-0.404709995	-1.70120001	126	12	132
0.312480003	-0.408039987	-1.70039999	126	12	132
0.312480003	-0.409759998	-1.70000005	126	12	132
0.31527999	-0.409590006	-1.69930005	126	12	132
