-0.782859981	-0.398229986	-1.704	224	140	0
-0.783640027	-0.396930009	-1.7062	224	140	0
-0.784420013	-0.395610005	-1.70840001	224	140	0
-0.780830026	-0.395469993	-1.70770001	224	140	0
-0.780439973	-0.396990001	-1.70640004	224	140	0
-0.779269993	-0.398079991	-1.70340002	224	140	0
-0.778479993	-0.399360001	-1.70120001	224	140	0
-0.778479993	-0.401059985	-1.70079994	224	140	0
-0.777310014	-0.402099997	-1.69770002	224	140	0
-0.774129987	-0.402159989	-1.69790006	224	140	0
-0.774129987	-0.403829992	-1.69749999	224	140	0
-0.771329999	-0.404100001	-1.69869995	224	140	0
-0.771329999	-0.402429998	-1.69910002	224	140	0
-0.770550013	-0.400330007	-1.69770002	224	140	0
-0.768140018	-0.400810003	-1.6997	224	140	0
-0.768140018	-0.40248999	-1.69930005	224	140	0
-0.768140018	-0.404159993	-1.69889998	224	140	0
-0.770550013	-0.405330002	-1.69649994	224	140	0
-0.76977998	-0.406569988	-1.69430006	224	140	0
-0.766600013	-0.406630009	-1.69449997	224	140	0
-0.766600013	-0.404960006	-1.69490004	224	140	0
-0.763800025	-0.40358001	-1.69649994	224	140	0
-0.764190018	-0.402119994	-1.69780004	224	140	0
-0.764959991	-0.400869995	-1.70000005	224	140	0
-0.76177001	-0.400920004	-1.70019996	224	140	0
-0.761389971	-0.402390003	-1.69889998	224	140	0
-0.760619998	-0.403629988	-1.69669998	224	140	0
-0.759859979	-0.40485999	-1.69449997	224	140	0
-0.759090006	-0.406089991	-1.69229996	224	140	0
-0.761879981	-0.405820012	-1.69120002	224	140	0
-0.762650013	-0.404590011	-1.69340003	224	140	0
-0.761110008	-0.407099992	-1.68900001	224	140	0
-0.760730028	-0.408589989	-1.68770003	224	140	0
-0.763119996	-0.408100009	-1.68570006	224	140	0
-0.765900016	-0.40783	-1.68449998	224	140	0
-0.76473999	-0.408879995	-1.68139994	224	140	0
-0.763960004	-0.410129994	-1.67920005	224	140	0
-0.766730011	-0.409859985	-1.67809999	224	140	0
-0.767120004	-0.413399994	-1.67820001	224	140	0
-0.763960004	-0.413459986	-1.67840004	224	140	0
-0.760810018	-0.413520008	-1.67859995	224	140	0
-0.760039985	-0.414770007	-1.67639995	224	140	0
-0.762799978	-0.414490014	-1.6753	224	140	0
-0.765950024	-0.414429992	-1.67509997	224	140	0
-0.765559971	-0.415899992	-1.67369998	224	140	0
-0.765169978	-0.417349994	-1.6724	224	140	0
-0.768329978	-0.417290002	-1.67219996	224	140	0
-0.768719971	-0.41584	-1.67349994	224	140	0
-0.769500017	-0.414600015	-1.67569995	224	140	0
-0.770669997	-0.413560003	-1.67879999	224	140	0
-0.773440003	-0.414979994	-1.67719996	224	140	0
-0.776600003	-0.414909989	-1.67700005	224	140	0
-0.776199996	-0.416379988	-1.67569995	224	140	0
-0.775810003	-0.41782999	-1.67439997	224	140	0
-0.778970003	-0.417769998	-1.67410004	224	140	0
-0.778970003	-0.416099995	-1.67449999	224	140	0
-0.778970003	-0.414409995	-1.67490005	224	140	0
-0.78016001	-0.413370013	-1.67799997	224	140	0
-0.78095001	-0.412140012	-1.68019998	224	140	0
-0.778569996	-0.412640005	-1.68229997	224	140	0
-0.778569996	-0.410979986	-1.68270004	224	140	0
-0.77895999	-0.409509987	-1.68400002	224	140	0
-0.775789976	-0.409570009	-1.68429995	224	140	0
-0.77500999	-0.410829991	-1.68210006	224	140	0
-0.775399983	-0.412699997	-1.6825	224	140	0
-0.774619997	-0.413940012	-1.6803	224	140	0
-0.777390003	-0.413650006	-1.67920005	224	140	0
-0.772230029	-0.412770003	-1.68280005	224	140	0
-0.771449983	-0.410670012	-1.68139994	224	140	0
-0.772620022	-0.409630001	-1.68449998	224	140	0
-0.773800015	-0.408580005	-1.68760002	224	140	0
-0.776970029	-0.40851	-1.68739998	224	140	0
-0.780139983	-0.408450007	-1.68710005	224	140	0
-0.780929983	-0.407169998	-1.68929994	224	140	0
-0.778150022	-0.407449991	-1.6904	224	140	0
-0.778540015	-0.405959994	-1.6918	224	140	0
-0.778540015	-0.404289991	-1.69219995	224	140	0
-0.775749981	-0.404570013	-1.69330001	224	140	0
-0.776139975	-0.403129995	-1.69459999	224	140	0
-0.779720008	-0.40327999	-1.69519997	224	140	0
-0.780499995	-0.402040005	-1.69739997	224	140	0
-0.772570014	-0.404630005	-1.69360006	224	140	0
-0.771790028	-0.405869991	-1.69140005	224	140	0
-0.772180021	-0.407790005	-1.69190001	224	140	0
-0.774969995	-0.407519996	-1.69070005	224	140	0
-0.774580002	-0.405589998	-1.69019997	224	140	0
-0.782109976	-0.406109989	-1.69239998	224	140	0
-0.78411001	-0.407110006	-1.68900001	224	140	0
-0.784510016	-0.40902999	-1.68949997	224	140	0
-0.78411001	-0.410530001	-1.6882	224	140	0
-0.786899984	-0.410239995	-1.68700004	224	140	0
-0.786899984	-0.40854001	-1.68739998	224	140	0
-0.786499977	-0.406610012	-1.68700004	224	140	0
-0.769840002	-0.408199996	-1.68610001	224	140	0
-0.769070029	-0.409480006	-1.6839	224	140	0
-0.768289983	-0.412389994	-1.68130004	224	140	0
-0.765129983	-0.412449986	-1.68149996	224	140	0
-0.762350023	-0.412719995	-1.68260002	224	140	0
-0.759570003	-0.412999988	-1.68379998	224	140	0
-0.756799996	-0.41328001	-1.68490005	224	140	0
-0.756410003	-0.411390007	-1.68439996	224	140	0
-0.756410003	-0.409700006	-1.68480003	224	140	0
-0.753629982	-0.409969985	-1.68589997	224	140	0
-0.754010022	-0.408479989	-1.68719995	224	140	0
-0.754400015	-0.406989992	-1.68850005	224	140	0
-0.757939994	-0.407160014	-1.68920004	224	140	0
-0.758710027	-0.409299999	-1.69060004	224	140	0
-0.755919993	-0.406150013	-1.6925	224	140	0
-0.752749979	-0.406199992	-1.69280005	224	140	0
-0.753509998	-0.404960006	-1.69500005	224	140	0
-0.753509998	-0.403310001	-1.6954	224	140	0
-0.750339985	-0.403360009	-1.69560003	224	140	0
-0.749580026	-0.404579997	-1.69340003	224	140	0
-0.748820007	-0.405820012	-1.69120002	224	140	0
-0.746410012	-0.404630005	-1.69360006	224	140	0
-0.746789992	-0.403189987	-1.69490004	224	140	0
-0.743250012	-0.403030008	-1.69420004	224	140	0
-0.743250012	-0.404680014	-1.69379997	224	140	0
-0.742869973	-0.406129986	-1.6925	224	140	0
-0.739709973	-0.406179994	-1.69270003	224	140	0
-0.740079999	-0.404729992	-1.69400001	224	140	0
-0.739709973	-0.402859986	-1.69350004	224	140	0
-0.736919999	-0.403120011	-1.69449997	224	140	0
-0.734120011	-0.403369993	-1.69560003	224	140	0
-0.730960011	-0.403420001	-1.69579995	224	140	0
-0.727429986	-0.403239995	-1.69509995	224	140	0
-0.727069974	-0.404680014	-1.69379997	224	140	0
-0.724269986	-0.404929996	-1.69480002	224	140	0
-0.725000024	-0.403710008	-1.69700003	224	140	0
-0.72220999	-0.40395999	-1.69809997	224	140	0
-0.72220999	-0.402289987	-1.69850004	224	140	0
-0.721840024	-0.405400008	-1.69679999	224	140	0
-0.718680024	-0.405440003	-1.69700003	224	140	0
-0.718680024	-0.403780013	-1.69729996	224	140	0
-0.718680024	-0.40211001	-1.69770002	224	140	0
-0.715160012	-0.405259997	-1.69620001	224	140	0
-0.7148	-0.401719987	-1.6961	224	140	0
-0.713720024	-0.402740002	-1.69299996	224	140	0
-0.713720024	-0.40606001	-1.69219995	224	140	0
-0.712639987	-0.407110006	-1.68900001	224	140	0
-0.711920023	-0.408380002	-1.6868	224	140	0
-0.711920023	-0.410089999	-1.68640006	224	140	0
-0.711560011	-0.411559999	-1.68509996	224	140	0
-0.711199999	-0.412999988	-1.68379998	224	140	0
-0.713980019	-0.411089987	-1.68309999	224	140	0
-0.713259995	-0.412299991	-1.68089998	224	140	0
-0.716390014	-0.41227001	-1.68079996	224	140	0
-0.716390014	-0.413940012	-1.68040001	224	140	0
-0.719529986	-0.413899988	-1.68019998	224	140	0
-0.718800008	-0.411790013	-1.67879999	224	140	0
-0.719529986	-0.410569996	-1.68099999	224	140	0
-0.71675998	-0.410829991	-1.68210006	224	140	0
-0.717480004	-0.409579992	-1.68429995	224	140	0
-0.717850029	-0.408089995	-1.68560004	224	140	0
-0.715430021	-0.408569992	-1.68760002	224	140	0
-0.716149986	-0.407299995	-1.68980002	224	140	0
-0.719299972	-0.407260001	-1.68959999	224	140	0
-0.720390022	-0.406199992	-1.69280005	224	140	0
-0.717239976	-0.406239986	-1.69289994	224	140	0
-0.723540008	-0.406170011	-1.69260001	224	140	0
-0.72280997	-0.407440007	-1.6904	224	140	0
-0.725600004	-0.407189995	-1.68929994	224	140	0
-0.725600004	-0.405479997	-1.68970001	224	140	0
-0.72874999	-0.405440003	-1.68959999	224	140	0
-0.728009999	-0.403340012	-1.6882	224	140	0
-0.729489982	-0.407579988	-1.69099998	224	140	0
-0.72874999	-0.408859998	-1.68879998	224	140	0
-0.728380024	-0.410349995	-1.68739998	224	140	0
-0.731530011	-0.410299987	-1.68729997	224	140	0
-0.734690011	-0.410259992	-1.68710005	224	140	0
-0.735430002	-0.408989996	-1.68929994	224	140	0
-0.735430002	-0.407279998	-1.68970001	224	140	0
-0.736169994	-0.405999988	-1.69190001	224	140	0
-0.735800028	-0.404119998	-1.69140005	224	140	0
-0.733009994	-0.404379994	-1.6925	224	140	0
-0.732640028	-0.405829996	-1.69120002	224	140	0
-0.732640028	-0.407539994	-1.69079995	224	140	0
-0.732640028	-0.409249991	-1.6904	224	140	0
-0.738960028	-0.407449991	-1.6904	224	140	0
-0.738960028	-0.409159988	-1.69000006	224	140	0
-0.737839997	-0.410219997	-1.68690002	224	140	0
-0.740249991	-0.409729987	-1.68490005	224	140	0
-0.740249991	-0.408030003	-1.68529999	224	140	0
-0.740999997	-0.406760007	-1.68760002	224	140	0
-0.743399978	-0.406269997	-1.68560004	224	140	0
-0.744159997	-0.408419997	-1.68690002	224	140	0
-0.743780017	-0.40990001	-1.68560004	224	140	0
-0.743399978	-0.411379993	-1.68429995	224	140	0
-0.742649972	-0.412600011	-1.68210006	224	140	0
-0.740249991	-0.411430001	-1.68449998	224	140	0
-0.736720026	-0.411249995	-1.68379998	224	140	0
-0.738749981	-0.412200004	-1.68050003	224	140	0
-0.73763001	-0.413210005	-1.67739999	224	140	0
-0.73724997	-0.414680004	-1.67610002	224	140	0
-0.73724997	-0.416370004	-1.67569995	224	140	0
-0.736500025	-0.417600006	-1.67340004	224	140	0
-0.739260018	-0.417329997	-1.67229998	224	140	0
-0.74278003	-0.417510003	-1.67309999	224	140	0
-0.743529975	-0.416280001	-1.6753	224	140	0
-0.743529975	-0.414590001	-1.67569995	224	140	0
-0.743910015	-0.413109988	-1.67700005	224	140	0
-0.740769982	-0.413159996	-1.67719996	224	140	0
-0.740390003	-0.414640009	-1.67589998	224	140	0
-0.741150022	-0.416770011	-1.67729998	224	140	0
-0.747060001	-0.414759994	-1.67639995	224	140	0
-0.747060001	-0.416449994	-1.676	224	140	0
-0.749819994	-0.414490014	-1.6753	224	140	0
-0.749059975	-0.41573	-1.67309999	224	140	0
-0.748679996	-0.417180002	-1.67180002	224	140	0
-0.751439989	-0.416909993	-1.67069995	224	140	0
-0.754190028	-0.41663	-1.66949999	224	140	0
-0.753809988	-0.418049991	-1.66820002	224	140	0
-0.754190028	-0.419889987	-1.66869998	224	140	0
-0.753809988	-0.421299994	-1.6674	224	140	0
-0.751439989	-0.421799988	-1.66939998	224	140	0
-0.750670016	-0.419719994	-1.66799998	224	140	0
-0.749909997	-0.417659998	-1.66670001	224	140	0
-0.747539997	-0.418159992	-1.66869998	224	140	0
-0.747150004	-0.419539988	-1.6674	224	140	0
-0.748300016	-0.421860009	-1.66960001	224	140	0
-0.743640006	-0.419369996	-1.66670001	224	140	0
-0.742879987	-0.417309999	-1.66530001	224	140	0
-0.742879987	-0.420549989	-1.66439998	224	140	0
-0.742120028	-0.421820015	-1.66219997	224	140	0
-0.741370022	-0.42306	-1.65999997	224	140	0
-0.738619983	-0.423339993	-1.66110003	224	140	0
-0.739380002	-0.422100008	-1.66330004	224	140	0
-0.740130007	-0.420819998	-1.66550004	224	140	0
-0.737380028	-0.419470012	-1.66700006	224	140	0
-0.737380028	-0.417860001	-1.6674	224	140	0
-0.734629989	-0.41813001	-1.66849995	224	140	0
-0.733879983	-0.419290006	-1.66630006	224	140	0
-0.733510017	-0.42069	-1.66499996	224	140	0
-0.736630023	-0.420639992	-1.66480005	224	140	0
-0.735880017	-0.421920002	-1.66260004	224	140	0
-0.734749973	-0.422930002	-1.6595	224	140	0
-0.732010007	-0.423200011	-1.66050005	224	140	0
-0.732379973	-0.421730012	-1.66190004	224	140	0
-0.729640007	-0.422010005	-1.66289997	224	140	0
-0.729260027	-0.42346999	-1.66159999	224	140	0
-0.725769997	-0.423290014	-1.6609	224	140	0
-0.726890028	-0.422280014	-1.66400003	224	140	0
-0.727259994	-0.420780003	-1.66540003	224	140	0
-0.727999985	-0.41960001	-1.66760004	224	140	0
-0.72487998	-0.419640005	-1.66770005	224	140	0
-0.725250006	-0.418260008	-1.66900003	224	140	0
-0.725989997	-0.417059988	-1.67130005	224	140	0
-0.72359997	-0.417549998	-1.67320001	224	140	0
-0.723969996	-0.416099995	-1.67449999	224	140	0
-0.724330008	-0.414629996	-1.67589998	224	140	0
-0.724699974	-0.413159996	-1.67719996	224	140	0
-0.72507	-0.411709994	-1.67850006	224	140	0
-0.725809991	-0.41049999	-1.68069994	224	140	0
-0.722670019	-0.410540015	-1.68089998	224	140	0
-0.722299993	-0.41196999	-1.6796	224	140	0
-0.723399997	-0.414310008	-1.68190002	224	140	0
-0.728950024	-0.410459995	-1.68050003	224	140	0
-0.728209972	-0.411669999	-1.67830002	224	140	0
-0.728579998	-0.413560003	-1.67879999	224	140	0
-0.731350005	-0.413300008	-1.67770004	224	140	0
-0.731350005	-0.411630005	-1.67820001	224	140	0
-0.732460022	-0.410629988	-1.68130004	224	140	0
-0.735230029	-0.412030011	-1.67980003	224	140	0
-0.734489977	-0.413249999	-1.67760003	224	140	0
-0.733739972	-0.414510012	-1.67540002	224	140	0
-0.733739972	-0.416200012	-1.67490005	224	140	0
-0.732990026	-0.41742	-1.67270005	224	140	0
-0.730229974	-0.417690009	-1.67379999	224	140	0
-0.729860008	-0.415789992	-1.67330003	224	140	0
-0.730229974	-0.414330006	-1.67460001	224	140	0
-0.727469981	-0.414590001	-1.67569995	224	140	0
-0.727100015	-0.416060001	-1.67439997	224	140	0
-0.729120016	-0.418669999	-1.67069995	224	140	0
-0.731869996	-0.41839999	-1.66960001	224	140	0
-0.73150003	-0.419779986	-1.66830003	224	140	0
-0.721199989	-0.414669991	-1.676	224	140	0
-0.720470011	-0.415910006	-1.67379999	224	140	0
-0.720099986	-0.417360008	-1.67250001	224	140	0
-0.71973002	-0.418790013	-1.67120004	224	140	0
-0.719370008	-0.420170009	-1.66980004	224	140	0
-0.718630016	-0.421350002	-1.66760004	224	140	0
-0.721759975	-0.421310008	-1.66750002	224	140	0
-0.722119987	-0.419910014	-1.6688	224	140	0
-0.721759975	-0.418069988	-1.66830003	224	140	0
-0.724510014	-0.421050012	-1.66639996	224	140	0
-0.723770022	-0.422320008	-1.66419995	224	140	0
-0.723770022	-0.424019992	-1.66369998	224	140	0
-0.720650017	-0.424059987	-1.66390002	224	140	0
-0.720650017	-0.422360003	-1.66429996	224	140	0
-0.717540026	-0.422399998	-1.6645	224	140	0
-0.717540026	-0.424089998	-1.66410005	224	140	0
-0.714789987	-0.424360007	-1.66509998	224	140	0
-0.714060009	-0.422199994	-1.66369998	224	140	0
-0.714420021	-0.420709997	-1.66509998	224	140	0
-0.711669981	-0.420969993	-1.66610003	224	140	0
-0.712400019	-0.41979	-1.66830003	224	140	0
-0.713490009	-0.418859988	-1.67139995	224	140	0
-0.716239989	-0.420210004	-1.66999996	224	140	0
-0.716970026	-0.419050008	-1.67219996	224	140	0
-0.717700005	-0.417849988	-1.67439997	224	140	0
-0.718429983	-0.416619986	-1.6767	224	140	0
-0.718069971	-0.414709985	-1.67620003	224	140	0
-0.714579999	-0.414519995	-1.67540002	224	140	0
-0.714209974	-0.415989995	-1.67410004	224	140	0
-0.714940012	-0.418110013	-1.67550004	224	140	0
-0.711449981	-0.417919993	-1.67470002	224	140	0
-0.711449981	-0.416240007	-1.67509997	224	140	0
-0.711090028	-0.414330006	-1.67460001	224	140	0
-0.708320022	-0.414590001	-1.67569995	224	140	0
-0.708679974	-0.416500002	-1.67620003	224	140	0
-0.70796001	-0.417730004	-1.67390001	224	140	0
-0.705200016	-0.416310012	-1.67540002	224	140	0
-0.704479992	-0.41753	-1.67320001	224	140	0
-0.702080011	-0.416339993	-1.67550004	224	140	0
-0.702790022	-0.415100008	-1.67770004	224	140	0
-0.700020015	-0.41534999	-1.67879999	224	140	0
-0.700380027	-0.413879991	-1.68009996	224	140	0
-0.700730026	-0.412429988	-1.68139994	224	140	0
-0.703859985	-0.412400007	-1.68130004	224	140	0
-0.703859985	-0.41407001	-1.68089998	224	140	0
-0.706990004	-0.414039999	-1.68079996	224	140	0
-0.706629992	-0.412149996	-1.6803	224	140	0
-0.707350016	-0.410930008	-1.6825	224	140	0
-0.704930007	-0.40970999	-1.68480003	224	140	0
-0.704930007	-0.408010006	-1.68519998	224	140	0
-0.708429992	-0.408190012	-1.68599999	224	140	0
-0.709140003	-0.410340011	-1.68739998	224	140	0
-0.70599997	-0.412070006	-1.68710005	224	140	0
-0.70976001	-0.413780004	-1.67970002	224	140	0
-0.712170005	-0.413300008	-1.67780006	224	140	0
-0.705919981	-0.415069997	-1.67760003	224	140	0
-0.696539998	-0.415149987	-1.67799997	224	140	0
-0.709640026	-0.418440014	-1.66980004	224	140	0
-0.708920002	-0.41960001	-1.66760004	224	140	0
-0.70855999	-0.421000004	-1.66620004	224	140	0
-0.706160009	-0.421490014	-1.66820002	224	140	0
-0.705439985	-0.419400007	-1.66680002	224	140	0
-0.706160009	-0.418249995	-1.66900003	224	140	0
-0.702690005	-0.418049991	-1.66820002	224	140	0
-0.702690005	-0.419660002	-1.66779995	224	140	0
-0.702690005	-0.42129001	-1.6674	224	140	0
-0.699580014	-0.421319991	-1.66750002	224	140	0
-0.699940026	-0.419919997	-1.6688	224	140	0
-0.699940026	-0.418309987	-1.66919994	224	140	0
-0.700290024	-0.416880012	-1.67060006	224	140	0
-0.697889984	-0.417360008	-1.67250001	224	140	0
-0.698249996	-0.415919989	-1.67379999	224	140	0
-0.698249996	-0.419239998	-1.67299998	224	140	0
-0.695129991	-0.417620003	-1.67349994	224	140	0
-0.694769979	-0.419039994	-1.67219996	224	140	0
-0.693710029	-0.419970006	-1.66910005	224	140	0
-0.69095999	-0.420230001	-1.67009997	224	140	0
-0.691309988	-0.418839991	-1.67139995	224	140	0
-0.696470022	-0.419719994	-1.66799998	224	140	0
-0.6954	-0.420659989	-1.66489995	224	140	0
-0.6954	-0.422390014	-1.6645	224	140	0
-0.694689989	-0.423629999	-1.66219997	224	140	0
-0.697440028	-0.423370004	-1.66120005	224	140	0
-0.698149979	-0.422140002	-1.66349995	224	140	0
-0.700900018	-0.421880007	-1.66240001	224	140	0
-0.700179994	-0.423110008	-1.6602	224	140	0
-0.703639984	-0.423310012	-1.66100001	224	140	0
-0.704360008	-0.42208001	-1.66320002	224	140	0
-0.70747	-0.422039986	-1.6631	224	140	0
-0.707109988	-0.423509985	-1.66180003	224	140	0
-0.710219979	-0.423480004	-1.66159999	224	140	0
-0.710579991	-0.422010005	-1.66299999	224	140	0
-0.69265002	-0.422650009	-1.66550004	224	140	0
-0.69265002	-0.420920014	-1.66589999	224	140	0
-0.689199984	-0.420720011	-1.66509998	224	140	0
-0.686100006	-0.420740008	-1.6652	224	140	0
-0.685400009	-0.422010005	-1.66299999	224	140	0
-0.688139975	-0.421750009	-1.66199994	224	140	0
-0.687439978	-0.422989994	-1.65970004	224	140	0
-0.684000015	-0.422780007	-1.65890002	224	140	0
-0.681949973	-0.423489988	-1.66170001	224	140	0
-0.690890014	-0.423189998	-1.66050005	224	140	0
-0.694769979	-0.415719986	-1.67299998	224	140	0
-0.730009973	-0.420509994	-1.66429996	224	140	0
-0.740890026	-0.418029994	-1.66820002	224	140	0
-0.741270006	-0.419869989	-1.66859996	224	140	0
-0.744870007	-0.423240006	-1.66069996	224	140	0
-0.744490027	-0.421319991	-1.6602	224	140	0
-0.747229993	-0.422729999	-1.65869999	224	140	0
-0.745540023	-0.41723001	-1.67200005	224	140	0
-0.756179988	-0.420789987	-1.66540003	224	140	0
-0.756950021	-0.419609994	-1.66760004	224	140	0
-0.756179988	-0.417549998	-1.66620004	224	140	0
-0.75733	-0.416570008	-1.66929996	224	140	0
-0.758490026	-0.415569991	-1.6724	224	140	0
-0.755349994	-0.415630013	-1.67260003	224	140	0
-0.752590001	-0.415899992	-1.67379999	224	140	0
-0.753729999	-0.414880008	-1.67690003	224	140	0
-0.754499972	-0.413619995	-1.67910004	224	140	0
-0.757650018	-0.413569987	-1.6789	224	140	0
-0.756879985	-0.414829999	-1.67659998	224	140	0
-0.758419991	-0.410679996	-1.68149996	224	140	0
-0.758809984	-0.409209996	-1.68280005	224	140	0
-0.76157999	-0.408939987	-1.68169999	224	140	0
-0.760420024	-0.409969985	-1.67859995	224	140	0
-0.750970006	-0.413459986	-1.67840004	224	140	0
-0.74782002	-0.413509995	-1.67859995	224	140	0
-0.761640012	-0.415520012	-1.67219996	224	140	0
-0.760860026	-0.41674	-1.66999996	224	140	0
-0.760479987	-0.418170005	-1.66869998	224	140	0
-0.760860026	-0.419999987	-1.66919994	224	140	0
-0.764010012	-0.419939995	-1.66890001	224	140	0
-0.763620019	-0.418110013	-1.66840005	224	140	0
-0.766759992	-0.418049991	-1.66820002	224	140	0
-0.766759992	-0.419660002	-1.66779995	224	140	0
-0.766759992	-0.42129001	-1.6674	224	140	0
-0.769509971	-0.421009988	-1.66630006	224	140	0
-0.769509971	-0.422740012	-1.66579998	224	140	0
-0.768729985	-0.423979998	-1.66359997	224	140	0
-0.771080017	-0.423460007	-1.66159999	224	140	0
-0.771870017	-0.422219992	-1.6638	224	140	0
-0.771870017	-0.420489997	-1.66419995	224	140	0
-0.771870017	-0.418859988	-1.66460001	224	140	0
-0.769119978	-0.419149995	-1.66579998	224	140	0
-0.770299971	-0.41821	-1.66890001	224	140	0
-0.775409997	-0.419019997	-1.66530001	224	140	0
-0.776199996	-0.421099991	-1.66659999	224	140	0
-0.77579999	-0.422610015	-1.66530001	224	140	0
-0.774619997	-0.423629999	-1.66219997	224	140	0
-0.777360022	-0.423330009	-1.66110003	224	140	0
-0.777760029	-0.421860009	-1.66240001	224	140	0
-0.780900002	-0.423489988	-1.66170001	224	140	0
-0.781700015	-0.422250003	-1.66390002	224	140	0
-0.784449995	-0.421950012	-1.66270006	224	140	0
-0.784449995	-0.423649997	-1.66229999	224	140	0
-0.78719002	-0.423350006	-1.66110003	224	140	0
-0.787999988	-0.422109991	-1.66330004	224	140	0
-0.789200008	-0.421050012	-1.66639996	224	140	0
-0.789200008	-0.419420004	-1.66690004	224	140	0
-0.786450028	-0.419719994	-1.66799998	224	140	0
-0.786050022	-0.421119988	-1.66670001	224	140	0
-0.783299983	-0.421420008	-1.66789997	224	140	0
-0.783689976	-0.42001	-1.66919994	224	140	0
-0.780539989	-0.420080006	-1.66949999	224	140	0
-0.781329989	-0.418909997	-1.6717	224	140	0
-0.78253001	-0.417919993	-1.67470002	224	140	0
-0.785290003	-0.417629987	-1.67359996	224	140	0
-0.784889996	-0.419070005	-1.67229998	224	140	0
-0.788450003	-0.419220001	-1.67289996	224	140	0
-0.788850009	-0.417789996	-1.67420006	224	140	0
-0.788049996	-0.415670007	-1.67279994	224	140	0
-0.787649989	-0.413760006	-1.67229998	224	140	0
-0.784489989	-0.413830012	-1.67260003	224	140	0
-0.783689976	-0.415080011	-1.67040002	224	140	0
-0.780939996	-0.415369987	-1.67159998	224	140	0
-0.780939996	-0.413679987	-1.67200005	224	140	0
-0.77974999	-0.421259999	-1.66729999	224	140	0
-0.777390003	-0.418529987	-1.67009997	224	140	0
-0.77463001	-0.418819994	-1.67130005	224	140	0
-0.77226001	-0.417670012	-1.67369998	224	140	0
-0.771480024	-0.415560007	-1.6724	224	140	0
-0.791949987	-0.420760006	-1.66530001	224	140	0
-0.791949987	-0.422490001	-1.66480005	224	140	0
-0.792360008	-0.424409986	-1.66530001	224	140	0
-0.795109987	-0.424109995	-1.66410005	224	140	0
-0.794700027	-0.422190011	-1.66369998	224	140	0
-0.797860026	-0.423810005	-1.66289997	224	140	0
-0.763230026	-0.421130002	-1.66670001	224	140	0
-0.762839973	-0.422630012	-1.66540003	224	140	0
-0.763230026	-0.42456001	-1.66589999	224	140	0
-0.764810026	-0.421889991	-1.66250002	224	140	0
-0.764810026	-0.423590004	-1.66209996	224	140	0
-0.7597	-0.420960009	-1.66610003	224	140	0
-0.755400002	-0.422069997	-1.66320002	224	140	0
-0.755020022	-0.423530012	-1.66190004	224	140	0
-0.758149981	-0.423480004	-1.66159999	224	140	0
-0.758149981	-0.42177999	-1.66209996	224	140	0
-0.752659976	-0.422349989	-1.66429996	224	140	0
-0.75150001	-0.42335999	-1.66120005	224	140	0
-0.748759985	-0.421950012	-1.66270006	224	140	0
-0.746179998	-0.412770003	-1.68280005	224	140	0
-0.746940017	-0.411549985	-1.68499994	224	140	0
-0.746940017	-0.409859985	-1.68540001	224	140	0
-0.746940017	-0.408149987	-1.68579996	224	140	0
-0.746940017	-0.40643999	-1.68630004	224	140	0
-0.750469983	-0.40832001	-1.68649995	224	140	0
-0.750090003	-0.409810007	-1.68519998	224	140	0
-0.749710023	-0.411280006	-1.6839	224	140	0
-0.749329984	-0.412719995	-1.68260002	224	140	0
-0.750850022	-0.406830013	-1.68780005	224	140	0
-0.725229979	-0.408679992	-1.68799996	224	140	0
-0.7245	-0.409949988	-1.68579996	224	140	0
-0.720990002	-0.409759998	-1.68499994	224	140	0
-0.721350014	-0.408279985	-1.68640006	224	140	0
-0.714699984	-0.409839988	-1.68529999	224	140	0
-0.709860027	-0.407359987	-1.69009995	224	140	0
-0.710219979	-0.405869991	-1.69140005	224	140	0
-0.726100028	-0.40268001	-1.70019996	224	140	0
-0.723659992	-0.401470006	-1.70249999	224	140	0
-0.724380016	-0.400200009	-1.70469999	224	140	0
-0.721210003	-0.400240004	-1.70490003	224	140	0
-0.720849991	-0.401719987	-1.70360005	224	140	0
-0.727559984	-0.401859999	-1.70420003	224	140	0
-0.727919996	-0.400379986	-1.70550001	224	140	0
-0.730729997	-0.400130004	-1.70439994	224	140	0
-0.731100023	-0.398629993	-1.70570004	224	140	0
-0.731459975	-0.397119999	-1.70700002	224	140	0
-0.730729997	-0.394980013	-1.70560002	224	140	0
-0.727919996	-0.395220011	-1.70669997	224	140	0
-0.728290021	-0.397159994	-1.70720005	224	140	0
-0.72902	-0.399309993	-1.70860004	224	140	0
-0.726199985	-0.399560004	-1.70969999	224	140	0
-0.725470006	-0.397410005	-1.70829999	224	140	0
-0.724380016	-0.395049989	-1.70589995	224	140	0
-0.723749995	-0.400020003	-1.71159995	224	140	0
-0.72902	-0.394149989	-1.7098	224	140	0
-0.731830001	-0.393909991	-1.70869994	224	140	0
-0.735010028	-0.393860012	-1.70850003	224	140	0
-0.734269977	-0.395139992	-1.70630002	224	140	0
-0.735010028	-0.397289991	-1.70770001	224	140	0
-0.735379994	-0.399230003	-1.70829999	224	140	0
-0.738560021	-0.397460014	-1.70850003	224	140	0
-0.739300013	-0.396149993	-1.71070004	224	140	0
-0.739669979	-0.394659996	-1.71200001	224	140	0
-0.739669979	-0.392969996	-1.71239996	224	140	0
-0.740040004	-0.391449988	-1.71370006	224	140	0
-0.74040997	-0.389919996	-1.71500003	224	140	0
-0.737959981	-0.390379995	-1.71700001	224	140	0
-0.737219989	-0.3917	-1.7148	224	140	0
-0.734030008	-0.391739994	-1.71490002	224	140	0
-0.734399974	-0.390210003	-1.71619999	224	140	0
-0.733299971	-0.393049985	-1.71270001	224	140	0
-0.736109972	-0.392800003	-1.71159995	224	140	0
-0.73010999	-0.39309001	-1.71290004	224	140	0
-0.730840027	-0.391779989	-1.71510005	224	140	0
-0.739059985	-0.389270008	-1.72010005	224	140	0
-0.736590028	-0.389719993	-1.72210002	224	140	0
-0.737689972	-0.388619989	-1.72520006	224	140	0
-0.740530014	-0.388370007	-1.72409999	224	140	0
-0.740530014	-0.386649996	-1.72449994	224	140	0
-0.743740022	-0.386599988	-1.72430003	224	140	0
-0.743740022	-0.388330013	-1.72389996	224	140	0
-0.742999971	-0.389640003	-1.72169995	224	140	0
-0.746200025	-0.389589995	-1.72150004	224	140	0
-0.746940017	-0.388280004	-1.72370005	224	140	0
-0.749779999	-0.389750004	-1.72220004	224	140	0
-0.753359973	-0.389910012	-1.72290003	224	140	0
-0.752240002	-0.39102	-1.7198	224	140	0
-0.752240002	-0.392760009	-1.71940005	224	140	0
-0.755069971	-0.392509997	-1.71829998	224	140	0
-0.75752002	-0.392049998	-1.71630001	224	140	0
-0.759959996	-0.39331001	-1.71379995	224	140	0
-0.759199977	-0.394580007	-1.71159995	224	140	0
-0.758819997	-0.396070004	-1.71039999	224	140	0
-0.758059978	-0.397390008	-1.70809996	224	140	0
-0.75691998	-0.398479998	-1.70500004	224	140	0
-0.757300019	-0.400389999	-1.70550001	224	140	0
-0.753740013	-0.40022999	-1.70490003	224	140	0
-0.753359973	-0.398319989	-1.70439994	224	140	0
-0.754119992	-0.397020012	-1.70659995	224	140	0
-0.751299977	-0.397280008	-1.70770001	224	140	0
-0.750549972	-0.398580015	-1.70550001	224	140	0
-0.750930011	-0.400489986	-1.70599997	224	140	0
-0.74812001	-0.399049997	-1.70749998	224	140	0
-0.748870015	-0.39774999	-1.70969999	224	140	0
-0.748489976	-0.395810008	-1.70920002	224	140	0
-0.74812001	-0.393900007	-1.70869994	224	140	0
-0.751299977	-0.393849999	-1.70850003	224	140	0
-0.752430022	-0.396180004	-1.71080005	224	140	0
-0.752430022	-0.392780006	-1.71159995	224	140	0
-0.755249977	-0.392529994	-1.7105	224	140	0
-0.755249977	-0.394219995	-1.71010005	224	140	0
-0.755999982	-0.396329999	-1.71150005	224	140	0
-0.749610007	-0.393040001	-1.71270001	224	140	0
-0.744930029	-0.393940002	-1.70889997	224	140	0
-0.745299995	-0.395850003	-1.70940006	224	140	0
-0.745679975	-0.397790015	-1.70990002	224	140	0
-0.744930029	-0.399100006	-1.70770001	224	140	0
-0.741739988	-0.39914	-1.70790005	224	140	0
-0.742120028	-0.397630006	-1.70920002	224	140	0
-0.742489994	-0.396109998	-1.7105	224	140	0
-0.742860019	-0.394609988	-1.71179998	224	140	0
-0.742860019	-0.392919987	-1.71220005	224	140	0
-0.743600011	-0.39162001	-1.71440005	224	140	0
-0.746990025	-0.40011999	-1.70439994	224	140	0
-0.745869994	-0.401179999	-1.70130002	224	140	0
-0.745869994	-0.402859986	-1.70089996	224	140	0
-0.749050021	-0.402810007	-1.70070004	224	140	0
-0.749050021	-0.401129991	-1.70109999	224	140	0
-0.752229989	-0.401080012	-1.70089996	224	140	0
-0.751850009	-0.402539998	-1.69959998	224	140	0
-0.755029976	-0.40248999	-1.69930005	224	140	0
-0.755029976	-0.400819987	-1.6997	224	140	0
-0.758210003	-0.402440012	-1.69910002	224	140	0
-0.758970022	-0.401190013	-1.70130002	224	140	0
-0.759350002	-0.39971	-1.7026	224	140	0
-0.76049	-0.398640007	-1.70570004	224	140	0
-0.763679981	-0.398580015	-1.70550001	224	140	0
-0.763300002	-0.400079995	-1.70420003	224	140	0
-0.766489983	-0.400020003	-1.704	224	140	0
-0.766879976	-0.398530006	-1.70529997	224	140	0
-0.769299984	-0.39805001	-1.70319998	224	140	0
-0.769299984	-0.399749994	-1.70280004	224	140	0
-0.772099972	-0.399479985	-1.70169997	224	140	0
-0.772490025	-0.397989988	-1.70299995	224	140	0
-0.773259997	-0.396690011	-1.70519996	224	140	0
-0.770070016	-0.396750003	-1.70539999	224	140	0
-0.768029988	-0.397430003	-1.70840001	224	140	0
-0.765219986	-0.395969987	-1.70990002	224	140	0
-0.764450014	-0.397280008	-1.70770001	224	140	0
-0.761640012	-0.397540003	-1.70879996	224	140	0
-0.761640012	-0.395810008	-1.70920002	224	140	0
-0.762399971	-0.394529998	-1.71140003	224	140	0
-0.762399971	-0.392839998	-1.71179998	224	140	0
-0.76354003	-0.391739994	-1.71490002	224	140	0
-0.761479974	-0.39241001	-1.71780002	224	140	0
-0.762619972	-0.391279995	-1.72090006	224	140	0
-0.759410024	-0.391330004	-1.72119999	224	140	0
-0.756200016	-0.391389996	-1.72140002	224	140	0
-0.767130017	-0.391889989	-1.71560001	224	140	0
-0.766749978	-0.393409997	-1.71430004	224	140	0
-0.766749978	-0.395099998	-1.71389997	224	140	0
-0.769569993	-0.394829988	-1.71270001	224	140	0
-0.769569993	-0.396539986	-1.71239996	224	140	0
-0.772390008	-0.396270007	-1.7112	224	140	0
-0.775200009	-0.396010011	-1.71010005	224	140	0
-0.778020024	-0.395740002	-1.70889997	224	140	0
-0.776849985	-0.396840006	-1.70580006	224	140	0
-0.769949973	-0.393350005	-1.71399999	224	140	0
-0.770720005	-0.392040014	-1.71619999	224	140	0
-0.773930013	-0.391979992	-1.71599996	224	140	0
-0.774320006	-0.393909991	-1.71650004	224	140	0
-0.773930013	-0.395399988	-1.71519995	224	140	0
-0.777140021	-0.395339996	-1.71490002	224	140	0
-0.777530015	-0.393849999	-1.71619999	224	140	0
-0.776359975	-0.39151001	-1.71389997	224	140	0
-0.779569983	-0.393169999	-1.71329999	224	140	0
-0.779569983	-0.394870013	-1.71290004	224	140	0
-0.782779992	-0.394800007	-1.71259999	224	140	0
-0.783169985	-0.393319994	-1.71389997	224	140	0
-0.786390007	-0.393260002	-1.71360004	224	140	0
-0.786390007	-0.394950002	-1.71319997	224	140	0
-0.789600015	-0.394879997	-1.71300006	224	140	0
-0.789990008	-0.393400013	-1.71420002	224	140	0
-0.789990008	-0.391680002	-1.71459997	224	140	0
-0.79242003	-0.391200006	-1.71259999	224	140	0
-0.79242003	-0.392919987	-1.71220005	224	140	0
-0.79242003	-0.394609988	-1.71179998	224	140	0
-0.79163003	-0.395900011	-1.70959997	224	140	0
-0.791230023	-0.397419989	-1.70829999	224	140	0
-0.794040024	-0.39715001	-1.70710003	224	140	0
-0.794439971	-0.395630002	-1.70840001	224	140	0
-0.79764998	-0.397289991	-1.70770001	224	140	0
-0.796850026	-0.398589998	-1.70550001	224	140	0
-0.796060026	-0.399879992	-1.7033	224	140	0
-0.795260012	-0.401149988	-1.70120001	224	140	0
-0.791660011	-0.401010007	-1.70060003	224	140	0
-0.790470004	-0.402049989	-1.69749999	224	140	0
-0.793250024	-0.400160015	-1.70449996	224	140	0
-0.792850018	-0.39824	-1.704	224	140	0
-0.79926002	-0.399809986	-1.70299995	224	140	0
-0.79926002	-0.401499987	-1.7026	224	140	0
-0.802070022	-0.40290001	-1.70109999	224	140	0
-0.802869976	-0.401639998	-1.70319998	224	140	0
-0.802470028	-0.39974001	-1.70270002	224	140	0
-0.802070022	-0.397819996	-1.70229995	224	140	0
-0.802869976	-0.396519989	-1.70439994	224	140	0
-0.800059974	-0.396800011	-1.70560002	224	140	0
-0.799660027	-0.398310006	-1.70430005	224	140	0
-0.80647999	-0.39666	-1.70500004	224	140	0
-0.804459989	-0.39734	-1.70019996	224	140	0
-0.805679977	-0.399659991	-1.70239997	224	140	0
-0.80647999	-0.401780009	-1.70379996	224	140	0
-0.806079984	-0.403250009	-1.70249999	224	140	0
-0.808879972	-0.402960002	-1.70130002	224	140	0
-0.809289992	-0.401490003	-1.7026	224	140	0
-0.808879972	-0.399589986	-1.70210004	224	140	0
-0.808070004	-0.397469997	-1.70070004	224	140	0
-0.8125	-0.399720013	-1.70270002	224	140	0
-0.81291002	-0.401630014	-1.70319998	224	140	0
-0.813310027	-0.398440003	-1.70490003	224	140	0
-0.813310027	-0.396719992	-1.70529997	224	140	0
-0.810500026	-0.397000015	-1.70650005	224	140	0
-0.808099985	-0.39576	-1.70899999	224	140	0
-0.808099985	-0.394059986	-1.70940006	224	140	0
-0.808899999	-0.392780006	-1.71150005	224	140	0
-0.811720014	-0.392500013	-1.71029997	224	140	0
-0.811720014	-0.394190013	-1.70990002	224	140	0
-0.81212002	-0.396100014	-1.71039999	224	140	0
-0.814530015	-0.395610005	-1.70829999	224	140	0
-0.814530015	-0.393909991	-1.70869994	224	140	0
-0.806089997	-0.393059999	-1.71280003	224	140	0
-0.806089997	-0.394749999	-1.71239996	224	140	0
-0.805679977	-0.396239996	-1.71109998	224	140	0
-0.802470028	-0.394609988	-1.71179998	224	140	0
-0.802060008	-0.396109998	-1.7105	224	140	0
-0.799250007	-0.396380007	-1.71169996	224	140	0
-0.800040007	-0.395090014	-1.71389997	224	140	0
-0.79885	-0.39278999	-1.71159995	224	140	0
-0.795629978	-0.392859995	-1.7119	224	140	0
-0.796429992	-0.394959986	-1.71329999	224	140	0
-0.796429992	-0.391539991	-1.7141	224	140	0
-0.800440013	-0.391880006	-1.71560001	224	140	0
-0.803669989	-0.393539995	-1.71490002	224	140	0
-0.807669997	-0.404000014	-1.6983	224	140	0
-0.787630022	-0.397280008	-1.70770001	224	140	0
-0.788810015	-0.39616999	-1.71080005	224	140	0
-0.787559986	-0.392150015	-1.71669996	224	140	0
-0.784739971	-0.392419994	-1.71790004	224	140	0
-0.784739971	-0.390679985	-1.71829998	224	140	0
-0.782299995	-0.391149998	-1.72029996	224	140	0
-0.782299995	-0.389420003	-1.72070003	224	140	0
-0.782299995	-0.387699991	-1.72109997	224	140	0
-0.783469975	-0.386590004	-1.72420001	224	140	0
-0.780629992	-0.386849999	-1.72539997	224	140	0
-0.777400017	-0.386909992	-1.7256	224	140	0
-0.774950027	-0.38736999	-1.7277	224	140	0
-0.77572	-0.386040002	-1.7299	224	140	0
-0.77609998	-0.38451001	-1.73119998	224	140	0
-0.776870012	-0.383179992	-1.73339999	224	140	0
-0.774020016	-0.383439988	-1.73450005	224	140	0
-0.773249984	-0.384770006	-1.73230004	224	140	0
-0.772490025	-0.386099994	-1.73010004	224	140	0
-0.769640028	-0.386350006	-1.7313	224	140	0
-0.769640028	-0.384620011	-1.73169994	224	140	0
-0.770020008	-0.383089989	-1.73300004	224	140	0
-0.771160007	-0.381940007	-1.73609996	224	140	0
-0.771929979	-0.380580008	-1.73819995	224	140	0
-0.76868999	-0.380629987	-1.7385	224	140	0
-0.76831001	-0.382189989	-1.73720002	224	140	0
-0.765070021	-0.382239997	-1.73740005	224	140	0
-0.765070021	-0.380479991	-1.7378	224	140	0
-0.765070021	-0.378769994	-1.73819995	224	140	0
-0.76621002	-0.37766999	-1.74129999	224	140	0
-0.766579986	-0.376100004	-1.74259996	224	140	0
-0.763339996	-0.376150012	-1.7428	224	140	0
-0.762589991	-0.377519995	-1.74059999	224	140	0
-0.759729981	-0.377770007	-1.74170005	224	140	0
-0.760479987	-0.376399994	-1.74389994	224	140	0
-0.761229992	-0.375	-1.74609995	224	140	0
-0.764100015	-0.374760002	-1.745	224	140	0
-0.767719984	-0.374900013	-1.7457	224	140	0
-0.770210028	-0.376249999	-1.74319994	224	140	0
-0.770210028	-0.378010005	-1.7428	224	140	0
-0.769450009	-0.379310012	-1.74070001	224	140	0
-0.773829997	-0.37639001	-1.74389994	224	140	0
-0.774209976	-0.37834999	-1.74440002	224	140	0
-0.773829997	-0.37985	-1.74310005	224	140	0
-0.77670002	-0.379599988	-1.74199998	224	140	0
-0.777459979	-0.378289998	-1.74419999	224	140	0
-0.777459979	-0.376529992	-1.74450004	224	140	0
-0.778230011	-0.375129998	-1.74670005	224	140	0
-0.778989971	-0.373750001	-1.74890006	224	140	0
-0.778230011	-0.371619999	-1.74749994	224	140	0
-0.775359988	-0.371870011	-1.74860001	224	140	0
-0.776120007	-0.370539993	-1.75080001	224	140	0
-0.776499987	-0.374199986	-1.75100005	224	140	0
-0.773999989	-0.374639988	-1.75300002	224	140	0
-0.773999989	-0.371160001	-1.75380003	224	140	0
-0.774760008	-0.369839996	-1.75590003	224	140	0
-0.774760008	-0.368099988	-1.75629997	224	140	0
-0.772249997	-0.368530005	-1.75839996	224	140	0
-0.773010015	-0.367150009	-1.76059997	224	140	0
-0.775900006	-0.366910011	-1.75940001	224	140	0
-0.779169977	-0.366849989	-1.75909996	224	140	0
-0.779169977	-0.368609995	-1.75880003	224	140	0
-0.782050014	-0.368369997	-1.75759995	224	140	0
-0.781289995	-0.369729996	-1.75539994	224	140	0
-0.778020024	-0.369780004	-1.75569999	224	140	0
-0.784940004	-0.369859993	-1.75610006	224	140	0
-0.785709977	-0.368499994	-1.75820005	224	140	0
-0.78937	-0.368629992	-1.75890005	224	140	0
-0.790520012	-0.367439985	-1.76189995	224	140	0
-0.787630022	-0.367680013	-1.76310003	224	140	0
-0.788010001	-0.36609	-1.76440001	224	140	0
-0.784730017	-0.366149992	-1.76470006	224	140	0
-0.78512001	-0.364549994	-1.76590002	224	140	0
-0.78549999	-0.363009989	-1.76719999	224	140	0
-0.782220006	-0.361369997	-1.76779997	224	140	0
-0.778930008	-0.361420006	-1.76810002	224	140	0
-0.778550029	-0.36293	-1.76680005	224	140	0
-0.778930008	-0.364840001	-1.76740003	224	140	0
-0.776030004	-0.365090013	-1.76849997	224	140	0
-0.775279999	-0.362989992	-1.76709998	224	140	0
-0.776030004	-0.361660004	-1.76929998	224	140	0
-0.772000015	-0.364760011	-1.76699996	224	140	0
-0.77451998	-0.366120011	-1.76460004	224	140	0
-0.777800024	-0.366070002	-1.76429999	224	140	0
-0.781449974	-0.3662	-1.76489997	224	140	0
-0.781830013	-0.364600003	-1.76619995	224	140	0
-0.781069994	-0.362509996	-1.76479995	224	140	0
-0.783590019	-0.367359996	-1.76160002	224	140	0
-0.793420017	-0.368950009	-1.76040006	224	140	0
-0.792639971	-0.366809994	-1.75899994	224	140	0
-0.795530021	-0.366560012	-1.75779998	224	140	0
-0.795530021	-0.368319988	-1.75740004	224	140	0
-0.795530021	-0.370059997	-1.75699997	224	140	0
-0.798799992	-0.370000005	-1.75670004	224	140	0
-0.798020005	-0.371329993	-1.75460005	224	140	0
-0.801689982	-0.371459991	-1.75520003	224	140	0
-0.802470028	-0.370130002	-1.75730002	224	140	0
-0.802470028	-0.368389994	-1.75769997	224	140	0
-0.799979985	-0.368829995	-1.75979996	224	140	0
-0.799589992	-0.36688	-1.75929999	224	140	0
-0.804570019	-0.371199995	-1.75399995	224	140	0
-0.808239996	-0.371329993	-1.75460005	224	140	0
-0.81151998	-0.371259987	-1.75419998	224	140	0
-0.814400017	-0.370999992	-1.75300002	224	140	0
-0.817279994	-0.370739996	-1.75179994	224	140	0
-0.816879988	-0.372269988	-1.75049996	224	140	0
-0.816079974	-0.373640001	-1.74839997	224	140	0
-0.813199997	-0.372150004	-1.75	224	140	0
-0.819750011	-0.373760015	-1.74890006	224	140	0
-0.823029995	-0.373679996	-1.74860001	224	140	0
-0.825900018	-0.37342	-1.74730003	224	140	0
-0.825900018	-0.371670008	-1.74769998	224	140	0
-0.828769982	-0.374909997	-1.7457	224	140	0
-0.827960014	-0.376309991	-1.74349999	224	140	0
-0.827139974	-0.377689987	-1.7414	224	140	0
-0.829999983	-0.377420008	-1.74010003	224	140	0
-0.831229985	-0.376239985	-1.74319994	224	140	0
-0.831640005	-0.374639988	-1.74450004	224	140	0
-0.834089994	-0.377730012	-1.74150002	224	140	0
-0.833270013	-0.375580013	-1.74010003	224	140	0
-0.836950004	-0.375690013	-1.74070001	224	140	0
-0.836950004	-0.377449989	-1.74030006	224	140	0
-0.839399993	-0.378679991	-1.7378	224	140	0
-0.838989973	-0.380190015	-1.73650002	224	140	0
-0.838989973	-0.381949991	-1.73609996	224	140	0
-0.836130023	-0.382230014	-1.73740005	224	140	0
-0.835720003	-0.380279988	-1.73689997	224	140	0
-0.835309982	-0.378369987	-1.73640001	224	140	0
-0.832040012	-0.380160004	-1.73629999	224	140	0
-0.831629992	-0.378259987	-1.73580003	224	140	0
-0.828369975	-0.378329992	-1.73619998	224	140	0
-0.827960014	-0.37985	-1.7349	224	140	0
-0.827960014	-0.381610006	-1.73450005	224	140	0
-0.826740026	-0.382770002	-1.73150003	224	140	0
-0.826330006	-0.384299994	-1.73020005	224	140	0
-0.826740026	-0.386229992	-1.73070002	224	140	0
-0.825510025	-0.387360007	-1.7277	224	140	0
-0.827939987	-0.38688001	-1.72549999	224	140	0
-0.828350008	-0.385349989	-1.72679996	224	140	0
-0.829169989	-0.384020001	-1.72899997	224	140	0
-0.832019985	-0.383740008	-1.7277	224	140	0
-0.832840025	-0.38587001	-1.72909999	224	140	0
-0.835680008	-0.385589987	-1.72780001	224	140	0
-0.836090028	-0.384059995	-1.72909999	224	140	0
-0.838940024	-0.383780003	-1.72790003	224	140	0
-0.838940024	-0.385500014	-1.72749996	224	140	0
-0.839349985	-0.387430012	-1.72800004	224	140	0
-0.842190027	-0.38714999	-1.72669995	224	140	0
-0.841780007	-0.385219991	-1.72619998	224	140	0
-0.844200015	-0.386460006	-1.72370005	224	140	0
-0.843360007	-0.387789994	-1.72150004	224	140	0
-0.842530012	-0.389109999	-1.71930003	224	140	0
-0.842530012	-0.39083001	-1.71899998	224	140	0
-0.841690004	-0.392170012	-1.71679997	224	140	0
-0.840849996	-0.393480003	-1.71459997	224	140	0
-0.840020001	-0.394769996	-1.71249998	224	140	0
-0.842419982	-0.394270003	-1.71029997	224	140	0
-0.844810009	-0.393779993	-1.70819998	224	140	0
-0.848469973	-0.393889993	-1.70860004	224	140	0
-0.848890007	-0.395790011	-1.70910001	224	140	0
-0.848469973	-0.397320002	-1.70790005	224	140	0
-0.84762001	-0.398629993	-1.70570004	224	140	0
-0.851279974	-0.397020012	-1.70659995	224	140	0
-0.851700008	-0.398950011	-1.70710003	224	140	0
-0.854510009	-0.398649991	-1.70580006	224	140	0
-0.854939997	-0.397130013	-1.70710003	224	140	0
-0.857320011	-0.396629989	-1.70490003	224	140	0
-0.857749999	-0.398550004	-1.70539999	224	140	0
-0.856890023	-0.399839997	-1.70319998	224	140	0
-0.856459975	-0.401329994	-1.70190001	224	140	0
-0.859269977	-0.401030004	-1.70060003	224	140	0
-0.862070024	-0.40072	-1.69930005	224	140	0
-0.861209989	-0.401980013	-1.69719994	224	140	0
-0.860780001	-0.403439999	-1.69589996	224	140	0
-0.863569975	-0.404790014	-1.69420004	224	140	0
-0.866789997	-0.404680014	-1.69379997	224	140	0
-0.867659986	-0.403450012	-1.69589996	224	140	0
-0.864870012	-0.403759986	-1.69719994	224	140	0
-0.864870012	-0.402090013	-1.69760001	224	140	0
-0.864870012	-0.400409997	-1.69799995	224	140	0
-0.865729988	-0.399129987	-1.70019996	224	140	0
-0.868529975	-0.398829997	-1.69889998	224	140	0
-0.868529975	-0.400519997	-1.69850004	224	140	0
-0.869400024	-0.402610004	-1.69980001	224	140	0
-0.872200012	-0.4023	-1.69850004	224	140	0
-0.87263	-0.400830001	-1.69980001	224	140	0
-0.872200012	-0.398930013	-1.69930005	224	140	0
-0.87349999	-0.397850007	-1.70229995	224	140	0
-0.873939991	-0.396329999	-1.70360005	224	140	0
-0.870700002	-0.396439999	-1.70410001	224	140	0
-0.870700002	-0.398149997	-1.70369995	224	140	0
-0.867030025	-0.39805001	-1.70319998	224	140	0
-0.866590023	-0.396129996	-1.70270002	224	140	0
-0.86789	-0.395009995	-1.70580006	224	140	0
-0.871569991	-0.395119995	-1.7062	224	140	0
-0.875240028	-0.395220011	-1.70669997	224	140	0
-0.876550019	-0.394129992	-1.70969999	224	140	0
-0.874170005	-0.394630015	-1.7119	224	140	0
-0.875469983	-0.393550009	-1.71490002	224	140	0
-0.875029981	-0.39162001	-1.71440005	224	140	0
-0.878289998	-0.391519994	-1.71399999	224	140	0
-0.879159987	-0.390190005	-1.71609998	224	140	0
-0.876339972	-0.390489995	-1.71739995	224	140	0
-0.87677002	-0.388960004	-1.71870005	224	140	0
-0.873939991	-0.387540013	-1.72039998	224	140	0
-0.871110022	-0.387840003	-1.72179997	224	140	0
-0.870249987	-0.389160007	-1.71959996	224	140	0
-0.869390011	-0.390489995	-1.71749997	224	140	0
-0.868099988	-0.39162001	-1.71440005	224	140	0
-0.867659986	-0.393139988	-1.71309996	224	140	0
-0.867229998	-0.394630015	-1.7119	224	140	0
-0.870050013	-0.394329995	-1.71060002	224	140	0
-0.870920002	-0.393049985	-1.71270001	224	140	0
-0.87134999	-0.391519994	-1.71399999	224	140	0
-0.87134999	-0.389789999	-1.71440005	224	140	0
-0.872640014	-0.388669997	-1.71739995	224	140	0
-0.864419997	-0.393240005	-1.71360004	224	140	0
-0.865270019	-0.39192	-1.71570003	224	140	0
-0.862020016	-0.393739998	-1.71580005	224	140	0
-0.859200001	-0.394039989	-1.71710002	224	140	0
-0.859200001	-0.392320007	-1.71739995	224	140	0
-0.859200001	-0.390579998	-1.71780002	224	140	0
-0.855939984	-0.390670002	-1.71829998	224	140	0
-0.852689981	-0.390760005	-1.71870005	224	140	0
-0.851419985	-0.391900003	-1.71560001	224	140	0
-0.850579977	-0.393220007	-1.71350002	224	140	0
-0.847339988	-0.39331001	-1.71379995	224	140	0
-0.848179996	-0.391990006	-1.71599996	224	140	0
-0.849020004	-0.390650004	-1.71819997	224	140	0
-0.846189976	-0.390940011	-1.71949995	224	140	0
-0.846189976	-0.389219999	-1.7198	224	140	0
-0.847029984	-0.387899995	-1.722	224	140	0
-0.847029984	-0.386180013	-1.72239995	224	140	0
-0.850279987	-0.38609001	-1.722	224	140	0
-0.849860013	-0.387609988	-1.72070003	224	140	0
-0.850700021	-0.389730006	-1.72210002	224	140	0
-0.845350027	-0.392280012	-1.71730006	224	140	0
-0.844929993	-0.39379999	-1.71599996	224	140	0
-0.852970004	-0.394410014	-1.71089995	224	140	0
-0.852970004	-0.396109998	-1.7105	224	140	0
-0.854669988	-0.39181	-1.71519995	224	140	0
-0.855939984	-0.394140005	-1.71749997	224	140	0
-0.857219994	-0.38955	-1.72130001	224	140	0
-0.860469997	-0.389450014	-1.72090006	224	140	0
-0.861750007	-0.388330013	-1.72389996	224	140	0
-0.864589989	-0.388040006	-1.72259998	224	140	0
-0.864589989	-0.386310011	-1.72300005	224	140	0
-0.867420018	-0.387739986	-1.72130001	224	140	0
-0.868700027	-0.386610001	-1.72430003	224	140	0
-0.868700027	-0.390060008	-1.72360003	224	140	0
-0.865869999	-0.390359998	-1.72490001	224	140	0
-0.867420018	-0.391189992	-1.72049999	224	140	0
-0.864160001	-0.391279995	-1.72099996	224	140	0
-0.863300025	-0.392619997	-1.71879995	224	140	0
-0.858910024	-0.388619989	-1.72520006	224	140	0
-0.859340012	-0.387100011	-1.72650003	224	140	0
-0.858910024	-0.385170013	-1.72599995	224	140	0
-0.856069982	-0.385459989	-1.72730005	224	140	0
-0.855650008	-0.386990011	-1.72599995	224	140	0
-0.854799986	-0.388319999	-1.72389996	224	140	0
-0.854799986	-0.39004001	-1.72350001	224	140	0
-0.852810025	-0.385549992	-1.7277	224	140	0
-0.85323	-0.384020001	-1.72899997	224	140	0
-0.854070008	-0.382690012	-1.73109996	224	140	0
-0.851230025	-0.382970005	-1.73239994	224	140	0
-0.850390017	-0.384310007	-1.73020005	224	140	0
-0.849550009	-0.385639995	-1.72809994	224	140	0
-0.848380029	-0.383249998	-1.73370004	224	140	0
-0.845109999	-0.383340001	-1.73409998	224	140	0
-0.845109999	-0.385069996	-1.73370004	224	140	0
-0.84552002	-0.381790012	-1.73539996	224	140	0
-0.84552002	-0.380030006	-1.73570001	224	140	0
-0.848380029	-0.379750013	-1.73450005	224	140	0
-0.851230025	-0.379469991	-1.73319995	224	140	0
-0.84224999	-0.380109996	-1.73609996	224	140	0
-0.84224999	-0.381870002	-1.73570001	224	140	0
-0.841009974	-0.383029997	-1.73269999	224	140	0
-0.837329984	-0.382919997	-1.73220003	224	140	0
-0.857339978	-0.382600009	-1.73070002	224	140	0
-0.857339978	-0.384319991	-1.73029995	224	140	0
-0.860189974	-0.384039998	-1.72899997	224	140	0
-0.860189974	-0.382310003	-1.72940004	224	140	0
-0.863030016	-0.382019997	-1.72809994	224	140	0
-0.863030016	-0.387199998	-1.727	224	140	0
-0.857919991	-0.395130008	-1.71399999	224	140	0
-0.857070029	-0.396420002	-1.7119	224	140	0
-0.859879971	-0.396120012	-1.71060002	224	140	0
-0.860740006	-0.394829988	-1.71270001	224	140	0
-0.863560021	-0.394529998	-1.71140003	224	140	0
-0.879159987	-0.393649995	-1.71529996	224	140	0
-0.881980002	-0.393339992	-1.71399999	224	140	0
-0.881980002	-0.39162001	-1.71440005	224	140	0
-0.882860005	-0.390280008	-1.71650004	224	140	0
-0.885240018	-0.389780015	-1.71430004	224	140	0
-0.884360015	-0.391110003	-1.71220005	224	140	0
-0.885240018	-0.393240005	-1.71350002	224	140	0
-0.888059974	-0.392930001	-1.71220005	224	140	0
-0.888059974	-0.394620001	-1.71179998	224	140	0
-0.890879989	-0.394309998	-1.7105	224	140	0
-0.890879989	-0.392619997	-1.71080005	224	140	0
-0.89368999	-0.392309994	-1.70949996	224	140	0
-0.892359972	-0.39339	-1.70650005	224	140	0
-0.891919971	-0.394879997	-1.70519996	224	140	0
-0.891919971	-0.396609992	-1.70480001	224	140	0
-0.891030014	-0.397920012	-1.70270002	224	140	0
-0.890150011	-0.399210006	-1.70050001	224	140	0
-0.887790024	-0.398030013	-1.70309997	224	140	0
-0.884980023	-0.39835	-1.70449996	224	140	0
-0.88410002	-0.399639994	-1.70229995	224	140	0
-0.886460006	-0.399120003	-1.70009995	224	140	0
-0.886300027	-0.397240013	-1.70749998	224	140	0
-0.885860026	-0.395310014	-1.70700002	224	140	0
-0.888670027	-0.394989997	-1.70570004	224	140	0
-0.889110029	-0.396930009	-1.7062	224	140	0
-0.882610023	-0.395410001	-1.70749998	224	140	0
-0.882170022	-0.396939993	-1.7062	224	140	0
-0.87936002	-0.397249997	-1.7076	224	140	0
