-0.0970460027	-0.476350009	-1.5704	12	15	192
-0.0996610001	-0.476060003	-1.56949997	12	15	192
-0.0996619985	-0.47784999	-1.57000005	12	15	192
-0.0996610001	-0.479140013	-1.56850004	12	15	192
-0.0996590033	-0.480439991	-1.56710005	12	15	192
-0.0996619985	-0.482609987	-1.56850004	12	15	192
-0.0970460027	-0.482320011	-1.5675	12	15	192
-0.10227	-0.482019991	-1.56659997	12	15	192
-0.10227	-0.480439991	-1.56710005	12	15	192
-0.102279998	-0.479140013	-1.56850004	12	15	192
-0.102279998	-0.477840006	-1.57000005	12	15	192
-0.102279998	-0.476639986	-1.57140005	12	15	192
-0.104900002	-0.476630002	-1.57140005	12	15	192
-0.104910001	-0.475739986	-1.57369995	12	15	192
-0.10492	-0.474409997	-1.57519996	12	15	192
-0.107550003	-0.47468999	-1.57609999	12	15	192
-0.107529998	-0.475730002	-1.57369995	12	15	192
-0.110140003	-0.475149989	-1.57179999	12	15	192
-0.110129997	-0.476330012	-1.5704	12	15	192
-0.110119998	-0.477539986	-1.56889999	12	15	192
-0.110129997	-0.479420006	-1.56939995	12	15	192
-0.107490003	-0.478549987	-1.56659997	12	15	192
-0.107490003	-0.480140001	-1.5661	12	15	192
-0.110090002	-0.47984001	-1.56509995	12	15	192
-0.110069998	-0.480830014	-1.56270003	12	15	192
-0.112680003	-0.48082	-1.56270003	12	15	192
-0.112690002	-0.47953999	-1.56410003	12	15	192
-0.112709999	-0.478540003	-1.56649995	12	15	192
-0.112709999	-0.47694999	-1.56700003	12	15	192
-0.115309998	-0.47823	-1.56550002	12	15	192
-0.1153	-0.479530007	-1.56410003	12	15	192
-0.115270004	-0.48052001	-1.56169999	12	15	192
-0.117880002	-0.480509996	-1.56169999	12	15	192
-0.117859997	-0.481810004	-1.56019998	12	15	192
-0.120480001	-0.482089996	-1.56110001	12	15	192
-0.120499998	-0.480789989	-1.56260002	12	15	192
-0.120530002	-0.479799986	-1.56500006	12	15	192
-0.120530002	-0.478210002	-1.56550002	12	15	192
-0.120559998	-0.477209985	-1.56789994	12	15	192
-0.117930003	-0.476929992	-1.56690001	12	15	192
-0.117909998	-0.477930009	-1.56459999	12	15	192
-0.117909998	-0.479519993	-1.56410003	12	15	192
-0.115350001	-0.477519989	-1.56889999	12	15	192
-0.115379997	-0.476900011	-1.57219994	12	15	192
-0.115379997	-0.475419998	-1.57270002	12	15	192
-0.115369998	-0.473509997	-1.57219994	12	15	192
-0.117990002	-0.473500013	-1.57219994	12	15	192
-0.118019998	-0.475699991	-1.57360005	12	15	192
-0.118000001	-0.476889998	-1.57219994	12	15	192
-0.120640002	-0.477169991	-1.57309997	12	15	192
-0.120669998	-0.47626999	-1.57550001	12	15	192
-0.123290002	-0.476249993	-1.57539999	12	15	192
-0.123329997	-0.475210011	-1.57780004	12	15	192
-0.125960007	-0.475199997	-1.57780004	12	15	192
-0.125960007	-0.473509997	-1.5783	12	15	192
-0.125960007	-0.471980006	-1.57879996	12	15	192
-0.125960007	-0.470470011	-1.57920003	12	15	192
-0.126000002	-0.469460011	-1.58159995	12	15	192
-0.123350002	-0.469190001	-1.58070004	12	15	192
-0.123329997	-0.470490009	-1.57920003	12	15	192
-0.120700002	-0.470499992	-1.57930005	12	15	192
-0.120719999	-0.469199985	-1.58070004	12	15	192
-0.120750003	-0.46814999	-1.58309996	12	15	192
-0.120779999	-0.467099994	-1.5855	12	15	192
-0.12342	-0.467090011	-1.5855	12	15	192
-0.123379998	-0.468129992	-1.58309996	12	15	192
-0.126069993	-0.468970001	-1.58589995	12	15	192
-0.126090005	-0.467640013	-1.58729994	12	15	192
-0.126110002	-0.466320008	-1.58879995	12	15	192
-0.123470001	-0.466329992	-1.58879995	12	15	192
-0.120829999	-0.466340005	-1.58889997	12	15	192
-0.118189998	-0.466349989	-1.58889997	12	15	192
-0.118210003	-0.465380013	-1.59130001	12	15	192
-0.11558	-0.46566999	-1.59230006	12	15	192
-0.115599997	-0.464720011	-1.59459996	12	15	192
-0.115620002	-0.463369995	-1.59609997	12	15	192
-0.115630001	-0.461959988	-1.59749997	12	15	192
-0.115599997	-0.459809989	-1.59599996	12	15	192
-0.118280001	-0.460359991	-1.59790003	12	15	192
-0.118299998	-0.459060013	-1.59930003	12	15	192
-0.11564	-0.459069997	-1.59940004	12	15	192
-0.112999998	-0.45934999	-1.60039997	12	15	192
-0.112980001	-0.460649997	-1.59899998	12	15	192
-0.113009997	-0.46281001	-1.60039997	12	15	192
-0.110339999	-0.460940003	-1.59990001	12	15	192
-0.110349998	-0.459630013	-1.60140002	12	15	192
-0.110349998	-0.45837	-1.60280001	12	15	192
-0.113020003	-0.45837	-1.6027	12	15	192
-0.113030002	-0.457109988	-1.60409999	12	15	192
-0.11569	-0.457100004	-1.60409999	12	15	192
-0.115680002	-0.458359987	-1.6027	12	15	192
-0.118340001	-0.458350003	-1.6027	12	15	192
-0.118340001	-0.456820011	-1.60309994	12	15	192
-0.121019997	-0.458609998	-1.60360003	12	15	192
-0.12105	-0.457630008	-1.60590005	12	15	192
-0.121019997	-0.455430001	-1.60450006	12	15	192
-0.123680003	-0.455419987	-1.60450006	12	15	192
-0.1237	-0.457349986	-1.6049	12	15	192
-0.123680003	-0.458600014	-1.60350001	12	15	192
-0.126359999	-0.45886001	-1.60450006	12	15	192
-0.126359999	-0.457329988	-1.6049	12	15	192
-0.126379997	-0.455949992	-1.6063	12	15	192
-0.126420006	-0.454780012	-1.60870004	12	15	192
-0.129069999	-0.454490006	-1.60769999	12	15	192
-0.129069999	-0.456209987	-1.60720003	12	15	192
-0.131740004	-0.45618999	-1.60720003	12	15	192
-0.131740004	-0.454479992	-1.60769999	12	15	192
-0.134379998	-0.454189986	-1.60660005	12	15	192
-0.134430006	-0.453099996	-1.60899997	12	15	192
-0.137119994	-0.453359991	-1.6099	12	15	192
-0.13707	-0.454439998	-1.60749996	12	15	192
-0.139740005	-0.45442	-1.60749996	12	15	192
-0.139770001	-0.456409991	-1.60800004	12	15	192
-0.142470002	-0.456660002	-1.60880005	12	15	192
-0.142470002	-0.454950005	-1.60930002	12	15	192
-0.142470002	-0.453319997	-1.60979998	12	15	192
-0.142499998	-0.451979995	-1.61119998	12	15	192
-0.145170003	-0.451950014	-1.61109996	12	15	192
-0.145199999	-0.453839988	-1.61160004	12	15	192
-0.145170003	-0.455199987	-1.61020005	12	15	192
-0.145140007	-0.456640005	-1.60880005	12	15	192
-0.147770002	-0.456339985	-1.60769999	12	15	192
-0.147709996	-0.457450002	-1.60529995	12	15	192
-0.147679999	-0.458710015	-1.60389996	12	15	192
-0.150340006	-0.458680004	-1.60380006	12	15	192
-0.150340006	-0.457150012	-1.60430002	12	15	192
-0.150409997	-0.456039995	-1.60669994	12	15	192
-0.153080001	-0.456019998	-1.60660005	12	15	192
-0.153080001	-0.457679987	-1.60609996	12	15	192
-0.155780002	-0.457920015	-1.60699999	12	15	192
-0.155819997	-0.456539989	-1.60839999	12	15	192
-0.155819997	-0.454820007	-1.60889995	12	15	192
-0.153150007	-0.454849988	-1.60899997	12	15	192
-0.150509998	-0.455150008	-1.61000001	12	15	192
-0.147839993	-0.455170006	-1.61010003	12	15	192
-0.147909999	-0.454079986	-1.61249995	12	15	192
-0.147909999	-0.452470005	-1.61300004	12	15	192
-0.147970006	-0.451400012	-1.61530006	12	15	192
-0.147970006	-0.449779987	-1.61580002	12	15	192
-0.150649995	-0.44975999	-1.61570001	12	15	192
-0.150649995	-0.451370001	-1.61530006	12	15	192
-0.150619999	-0.452719986	-1.61380005	12	15	192
-0.150649995	-0.454600006	-1.61430001	12	15	192
-0.153329998	-0.454569995	-1.61430001	12	15	192
-0.153329998	-0.452960014	-1.61469996	12	15	192
-0.153439999	-0.452149987	-1.61800003	12	15	192
-0.153369993	-0.449999988	-1.61660004	12	15	192
-0.156130001	-0.450509995	-1.61839998	12	15	192
-0.156130001	-0.45212999	-1.61790001	12	15	192
-0.158810005	-0.452100009	-1.6178	12	15	192
-0.158810005	-0.450480014	-1.61829996	12	15	192
-0.158810005	-0.448850006	-1.61880004	12	15	192
-0.161489993	-0.448819995	-1.61860001	12	15	192
-0.161449999	-0.450179994	-1.61720002	12	15	192
-0.161489993	-0.452069998	-1.61769998	12	15	192
-0.164130002	-0.450150013	-1.6171	12	15	192
-0.164049998	-0.45122999	-1.61469996	12	15	192
-0.164049998	-0.45284	-1.61430001	12	15	192
-0.166679993	-0.45254001	-1.61319995	12	15	192
-0.166720003	-0.454430014	-1.61370003	12	15	192
-0.166679993	-0.455790013	-1.61230004	12	15	192
-0.169359997	-0.455749989	-1.61220002	12	15	192
-0.16945	-0.454659998	-1.61459994	12	15	192
-0.169400007	-0.452780008	-1.61409998	12	15	192
-0.169359997	-0.450899988	-1.6135	12	15	192
-0.172079995	-0.451130003	-1.61440003	12	15	192
-0.172179997	-0.453280002	-1.61590004	12	15	192
-0.172179997	-0.454899997	-1.61539996	12	15	192
-0.174759999	-0.454320014	-1.61339998	12	15	192
-0.174909994	-0.45352	-1.61670005	12	15	192
-0.174810007	-0.451359987	-1.61520004	12	15	192
-0.174860001	-0.450019985	-1.61660004	12	15	192
-0.172179997	-0.450049996	-1.61679995	12	15	192
-0.172279999	-0.448949993	-1.61909997	12	15	192
-0.172370002	-0.447849989	-1.62150002	12	15	192
-0.172419995	-0.446480006	-1.62290001	12	15	192
-0.172519997	-0.445389986	-1.62530005	12	15	192
-0.172619998	-0.444319993	-1.62769997	12	15	192
-0.175310001	-0.444290012	-1.62750006	12	15	192
-0.175209999	-0.445349991	-1.62520003	12	15	192
-0.175160006	-0.446709991	-1.62380004	12	15	192
-0.175060004	-0.447809994	-1.6214	12	15	192
-0.175009996	-0.449180007	-1.62	12	15	192
-0.177640006	-0.448879987	-1.61889994	12	15	192
-0.177589998	-0.45025	-1.61749995	12	15	192
-0.177540004	-0.451590002	-1.61600006	12	15	192
-0.177589998	-0.453480005	-1.61660004	12	15	192
-0.180329993	-0.452089995	-1.6178	12	15	192
-0.180380002	-0.45074001	-1.61919999	12	15	192
-0.180329993	-0.448839992	-1.61870003	12	15	192
-0.183119997	-0.449339986	-1.62049997	12	15	192
-0.183119997	-0.450969994	-1.62010002	12	15	192
-0.185749993	-0.45065999	-1.61899996	12	15	192
-0.18581	-0.449299991	-1.62039995	12	15	192
-0.188500002	-0.449250013	-1.62020004	12	15	192
-0.188380003	-0.450349987	-1.6178	12	15	192
-0.191119999	-0.448940009	-1.61909997	12	15	192
-0.193810001	-0.448900014	-1.61889994	12	15	192
-0.196490005	-0.448850006	-1.61880004	12	15	192
-0.199180007	-0.448810011	-1.61860001	12	15	192
-0.201719999	-0.448220015	-1.61650002	12	15	192
-0.201649994	-0.449589998	-1.61510003	12	15	192
-0.201649994	-0.451200008	-1.61459994	12	15	192
-0.201649994	-0.452820003	-1.6142	12	15	192
-0.204329997	-0.452769995	-1.61399996	12	15	192
-0.204329997	-0.45115	-1.61450005	12	15	192
-0.206939995	-0.450830013	-1.61329997	12	15	192
-0.207010001	-0.452719986	-1.61380005	12	15	192
-0.209690005	-0.452659994	-1.61360002	12	15	192
-0.209830001	-0.451590002	-1.61600006	12	15	192
-0.209910005	-0.450239986	-1.61740005	12	15	192
-0.209910005	-0.448610008	-1.61790001	12	15	192
-0.207300007	-0.448920012	-1.61899996	12	15	192
-0.207300007	-0.44727999	-1.61950004	12	15	192
-0.207440004	-0.44619	-1.62189996	12	15	192
-0.210199997	-0.446399987	-1.62259996	12	15	192
-0.210130006	-0.447759986	-1.62119997	12	15	192
-0.212889999	-0.447979987	-1.62199998	12	15	192
-0.212960005	-0.446610004	-1.62339997	12	15	192
-0.215729997	-0.446819991	-1.62419999	12	15	192
-0.215890005	-0.445730001	-1.62650001	12	15	192
-0.215959996	-0.444400012	-1.6279	12	15	192
-0.215959996	-0.442809999	-1.62839997	12	15	192
-0.213190004	-0.442600012	-1.62759995	12	15	192
-0.213259995	-0.444449991	-1.62810004	12	15	192
-0.213190004	-0.445780009	-1.62670004	12	15	192
-0.210490003	-0.445829988	-1.62689996	12	15	192
-0.210569993	-0.444499999	-1.62829995	12	15	192
-0.210569993	-0.442919999	-1.62880003	12	15	192
-0.207939997	-0.443230003	-1.62989998	12	15	192
-0.207870007	-0.444559991	-1.62849998	12	15	192
-0.207800001	-0.445890009	-1.62709999	12	15	192
-0.204960003	-0.445410013	-1.62539995	12	15	192
-0.204889998	-0.446770012	-1.62399995	12	15	192
-0.202130005	-0.446550012	-1.62320006	12	15	192
-0.202199996	-0.445190012	-1.62460005	12	15	192
-0.199509993	-0.445239991	-1.62479997	12	15	192
-0.196689993	-0.444759995	-1.62300003	12	15	192
-0.196620002	-0.446119994	-1.62160003	12	15	192
-0.196689993	-0.448009998	-1.6221	12	15	192
-0.194000006	-0.448060006	-1.62230003	12	15	192
-0.19393	-0.446170002	-1.62179995	12	15	192
-0.194000006	-0.444810003	-1.62320006	12	15	192
-0.191369995	-0.446740001	-1.62390006	12	15	192
-0.191430002	-0.445380002	-1.62530005	12	15	192
-0.191489995	-0.444050014	-1.62670004	12	15	192
-0.188789994	-0.444090009	-1.62679994	12	15	192
-0.188789994	-0.445690006	-1.62639999	12	15	192
-0.188850001	-0.44758001	-1.62689996	12	15	192
-0.186100006	-0.447349995	-1.62609994	12	15	192
-0.186159998	-0.445989996	-1.62750006	12	15	192
-0.186100006	-0.444139987	-1.62699997	12	15	192
-0.183520004	-0.444700003	-1.62899995	12	15	192
-0.180759996	-0.444480002	-1.62820005	12	15	192
-0.178059995	-0.444519997	-1.62839997	12	15	192
-0.178220004	-0.443720013	-1.63170004	12	15	192
-0.178220004	-0.442059994	-1.63209999	12	15	192
-0.175469995	-0.441830009	-1.63129997	12	15	192
-0.175469995	-0.443489999	-1.63090003	12	15	192
-0.172759995	-0.443529993	-1.63100004	12	15	192
-0.17272	-0.441610008	-1.63049996	12	15	192
-0.172810003	-0.440459996	-1.6329	12	15	192
-0.172910005	-0.439399987	-1.63520002	12	15	192
-0.170159996	-0.439170003	-1.63440001	12	15	192
-0.170110002	-0.440490007	-1.63300002	12	15	192
-0.167449996	-0.440780014	-1.63409996	12	15	192
-0.167449996	-0.439200014	-1.63450003	12	15	192
-0.164790004	-0.43948999	-1.63559997	12	15	192
-0.164790004	-0.441080004	-1.63510001	12	15	192
-0.16212	-0.44137001	-1.63619995	12	15	192
-0.162080005	-0.439520001	-1.63569999	12	15	192
-0.15941	-0.439810008	-1.63680005	12	15	192
-0.159449995	-0.438510001	-1.63810003	12	15	192
-0.159490004	-0.437130004	-1.63950002	12	15	192
-0.159569994	-0.435959995	-1.64189994	12	15	192
-0.162290007	-0.435930014	-1.64180005	12	15	192
-0.162249997	-0.437359989	-1.64040005	12	15	192
-0.162210003	-0.438739985	-1.63900006	12	15	192
-0.164920002	-0.438710004	-1.63890004	12	15	192
-0.167590007	-0.438419998	-1.63779998	12	15	192
-0.17035	-0.438650012	-1.63859999	12	15	192
-0.170389995	-0.437260002	-1.63999999	12	15	192
-0.170440003	-0.435840011	-1.6415	12	15	192
-0.173160002	-0.435799986	-1.64129996	12	15	192
-0.173109993	-0.437229991	-1.63989997	12	15	192
-0.173109993	-0.438870013	-1.63950002	12	15	192
-0.17577	-0.436940014	-1.63880002	12	15	192
-0.175720006	-0.438320011	-1.63740003	12	15	192
-0.175669998	-0.439619988	-1.63600004	12	15	192
-0.175569996	-0.440679997	-1.63370001	12	15	192
-0.178330004	-0.439330012	-1.63489997	12	15	192
-0.178379998	-0.441170007	-1.63549995	12	15	192
-0.181140006	-0.441390008	-1.63629997	12	15	192
-0.181030005	-0.439289987	-1.63479996	12	15	192
-0.181140006	-0.438250005	-1.63709998	12	15	192
-0.181189999	-0.436859995	-1.63859999	12	15	192
-0.178479999	-0.43689999	-1.63870001	12	15	192
-0.178430006	-0.43829	-1.63730001	12	15	192
-0.175870001	-0.435770005	-1.64119995	12	15	192
-0.178690001	-0.436250001	-1.64300001	12	15	192
-0.18152	-0.436720014	-1.64479995	12	15	192
-0.181569993	-0.43531999	-1.64619994	12	15	192
-0.181679994	-0.434190005	-1.64859998	12	15	192
-0.181679994	-0.43096	-1.6494	12	15	192
-0.181569993	-0.428820014	-1.64789999	12	15	192
-0.178900003	-0.429109991	-1.64900005	12	15	192
-0.178900003	-0.430739999	-1.64859998	12	15	192
-0.176180005	-0.430779994	-1.6487	12	15	192
-0.176229998	-0.432639986	-1.64929998	12	15	192
-0.176119998	-0.433750004	-1.64690006	12	15	192
-0.176180005	-0.435649991	-1.64740002	12	15	192
-0.178849995	-0.435360014	-1.64629996	12	15	192
-0.178849995	-0.433710009	-1.64680004	12	15	192
-0.173350006	-0.435180008	-1.64559996	12	15	192
-0.173299998	-0.433279991	-1.6451	12	15	192
-0.1734	-0.432170004	-1.64750004	12	15	192
-0.173500001	-0.431059986	-1.64979994	12	15	192
-0.173600003	-0.429930001	-1.65219998	12	15	192
-0.173639998	-0.428530008	-1.65359998	12	15	192
-0.17374	-0.427329987	-1.6559	12	15	192
-0.176579997	-0.427789986	-1.65769994	12	15	192
-0.176530004	-0.429250002	-1.65629995	12	15	192
-0.179269999	-0.429219991	-1.65620005	12	15	192
-0.179319993	-0.427760005	-1.65760005	12	15	192
-0.179429993	-0.426530004	-1.65999997	12	15	192
-0.179529995	-0.425390005	-1.66229999	12	15	192
-0.17678	-0.425419986	-1.66250002	12	15	192
-0.176829994	-0.427320004	-1.66299999	12	15	192
-0.174079999	-0.427350014	-1.66320002	12	15	192
-0.173989996	-0.425209999	-1.66159999	12	15	192
-0.171189994	-0.424989998	-1.66079998	12	15	192
-0.171289995	-0.427130014	-1.66229999	12	15	192
-0.168500006	-0.425269991	-1.66190004	12	15	192
-0.168400005	-0.426420003	-1.6595	12	15	192
-0.168310001	-0.427639991	-1.65719998	12	15	192
-0.171100006	-0.427859992	-1.65799999	12	15	192
-0.165570006	-0.42938	-1.65680003	12	15	192
-0.165490001	-0.430530012	-1.65450001	12	15	192
-0.168270007	-0.430750012	-1.65530002	12	15	192
-0.168180004	-0.431890011	-1.653	12	15	192
-0.168180004	-0.428600013	-1.65380001	12	15	192
-0.170860007	-0.428319991	-1.65269995	12	15	192
-0.171010002	-0.430720001	-1.6552	12	15	192
-0.170819998	-0.431349993	-1.65090001	12	15	192
-0.168040007	-0.432740003	-1.64960003	12	15	192
-0.165360004	-0.433019996	-1.65069997	12	15	192
-0.165360004	-0.431410015	-1.65110004	12	15	192
-0.162579998	-0.431190014	-1.65030003	12	15	192
-0.162630007	-0.433050007	-1.65079999	12	15	192
-0.162540004	-0.434159994	-1.64849997	12	15	192
-0.162459999	-0.435299993	-1.64610004	12	15	192
-0.165179998	-0.435270011	-1.64600003	12	15	192
-0.165140003	-0.433369994	-1.64549994	12	15	192
-0.167809993	-0.433090001	-1.6444	12	15	192
-0.167769998	-0.434480011	-1.64300001	12	15	192
-0.167769998	-0.436129987	-1.64250004	12	15	192
-0.167720005	-0.437550008	-1.64110005	12	15	192
-0.16505	-0.437840015	-1.64219999	12	15	192
-0.16505	-0.436159998	-1.64269996	12	15	192
-0.17058	-0.433310002	-1.64520001	12	15	192
-0.170680001	-0.435460001	-1.64670002	12	15	192
-0.170680001	-0.432200015	-1.64760005	12	15	192
-0.159689993	-0.435079992	-1.64530003	12	15	192
-0.156969994	-0.435099989	-1.64540005	12	15	192
-0.157010004	-0.433710009	-1.64680004	12	15	192
-0.154290006	-0.432119995	-1.6473	12	15	192
-0.154210001	-0.433230013	-1.64489996	12	15	192
-0.154210001	-0.434870005	-1.64450002	12	15	192
-0.154210001	-0.436529994	-1.64409995	12	15	192
-0.151490003	-0.436549991	-1.64409995	12	15	192
-0.151460007	-0.43463999	-1.64359999	12	15	192
-0.151529998	-0.433510005	-1.64600003	12	15	192
-0.151559994	-0.432150006	-1.64740002	12	15	192
-0.148800001	-0.433530003	-1.64610004	12	15	192
-0.146050006	-0.433299989	-1.64520001	12	15	192
-0.143299997	-0.434709996	-1.64390004	12	15	192
-0.143270001	-0.43610999	-1.64250004	12	15	192
-0.143209994	-0.437269986	-1.6401	12	15	192
-0.143179998	-0.438659996	-1.63870001	12	15	192
-0.143120006	-0.439700007	-1.63629997	12	15	192
-0.143089995	-0.441020012	-1.63489997	12	15	192
-0.143030003	-0.442180008	-1.63259995	12	15	192
-0.143000007	-0.443569988	-1.63119996	12	15	192
-0.14294	-0.444629997	-1.62880003	12	15	192
-0.14294	-0.446229994	-1.62839997	12	15	192
-0.145640001	-0.446200013	-1.62829995	12	15	192
-0.145610005	-0.444350004	-1.62769997	12	15	192
-0.148340002	-0.444590002	-1.6286	12	15	192
-0.148310006	-0.445919991	-1.62720001	12	15	192
-0.148269996	-0.44727999	-1.62580001	12	15	192
-0.150969997	-0.447250009	-1.6257	12	15	192
-0.150999993	-0.445890009	-1.62709999	12	15	192
-0.151040003	-0.444559991	-1.62849998	12	15	192
-0.153659999	-0.44400999	-1.62650001	12	15	192
-0.156399995	-0.444249988	-1.62740004	12	15	192
-0.156430006	-0.442930013	-1.62880003	12	15	192
-0.159089997	-0.444220006	-1.62730002	12	15	192
-0.159089997	-0.44580999	-1.62679994	12	15	192
-0.159050003	-0.447169989	-1.62539995	12	15	192
-0.161789998	-0.447409987	-1.62629998	12	15	192
-0.161829993	-0.446049988	-1.62769997	12	15	192
-0.161789998	-0.444189996	-1.62720001	12	15	192
-0.161829993	-0.442869991	-1.6286	12	15	192
-0.164529994	-0.44442001	-1.62800002	12	15	192
-0.164529994	-0.446020007	-1.62759995	12	15	192
-0.164480001	-0.447380006	-1.62619996	12	15	192
-0.164399996	-0.44848001	-1.62380004	12	15	192
-0.167089999	-0.448439986	-1.62370002	12	15	192
-0.167089999	-0.446819991	-1.62409997	12	15	192
-0.167180002	-0.445719987	-1.62650001	12	15	192
-0.167219996	-0.444389999	-1.6279	12	15	192
-0.167219996	-0.442809999	-1.62829995	12	15	192
-0.167270005	-0.441410005	-1.62979996	12	15	192
-0.169970006	-0.441379994	-1.62960005	12	15	192
-0.169970006	-0.443040013	-1.62919998	12	15	192
-0.169829994	-0.443830013	-1.62590003	12	15	192
-0.169870004	-0.445690006	-1.62639999	12	15	192
-0.169780001	-0.446779996	-1.62399995	12	15	192
-0.169689998	-0.44788	-1.62160003	12	15	192
-0.169689998	-0.449519992	-1.62119997	12	15	192
-0.166950002	-0.449290007	-1.62030005	12	15	192
-0.16426	-0.449319988	-1.62049997	12	15	192
-0.161660001	-0.448240012	-1.62300003	12	15	192
-0.158930004	-0.448000014	-1.6221	12	15	192
-0.156240001	-0.448029995	-1.62220001	12	15	192
-0.156200007	-0.446139991	-1.62170005	12	15	192
-0.156200007	-0.444519997	-1.6221	12	15	192
-0.153520003	-0.444550008	-1.62220001	12	15	192
-0.153589994	-0.446700007	-1.62370002	12	15	192
-0.153520003	-0.447789997	-1.62129998	12	15	192
-0.153479993	-0.449169993	-1.61989999	12	15	192
-0.156159997	-0.449140012	-1.61979997	12	15	192
-0.150759995	-0.448929995	-1.61899996	12	15	192
-0.150830001	-0.447820008	-1.6214	12	15	192
-0.148139998	-0.447840005	-1.62150002	12	15	192
-0.148110002	-0.449220002	-1.62010002	12	15	192
-0.14542	-0.449239999	-1.62020004	12	15	192
-0.14542	-0.450879991	-1.61969995	12	15	192
-0.142759994	-0.451169997	-1.62080002	12	15	192
-0.142729998	-0.449259996	-1.62030005	12	15	192
-0.142759994	-0.447890013	-1.62170005	12	15	192
-0.145449996	-0.447869986	-1.62160003	12	15	192
-0.145549998	-0.447039992	-1.62489998	12	15	192
-0.142849997	-0.447059989	-1.625	12	15	192
-0.140129998	-0.446810007	-1.62409997	12	15	192
-0.137390003	-0.4463	-1.62230003	12	15	192
-0.137390003	-0.447930008	-1.62179995	12	15	192
-0.137360007	-0.449299991	-1.62039995	12	15	192
-0.137309998	-0.450399995	-1.61800003	12	15	192
-0.137280002	-0.45175001	-1.61660004	12	15	192
-0.137229994	-0.452829987	-1.6142	12	15	192
-0.139909998	-0.452809989	-1.6142	12	15	192
-0.134550005	-0.45122999	-1.61469996	12	15	192
-0.134499997	-0.452309996	-1.61240005	12	15	192
-0.131830007	-0.452320009	-1.61240005	12	15	192
-0.131799996	-0.453660011	-1.61099994	12	15	192
-0.129150003	-0.453949988	-1.61199999	12	15	192
-0.129130006	-0.452069998	-1.61150002	12	15	192
-0.129130006	-0.450459987	-1.61199999	12	15	192
-0.131799996	-0.45043999	-1.61189997	12	15	192
-0.134599999	-0.450150013	-1.6171	12	15	192
-0.134650007	-0.449050009	-1.61950004	12	15	192
-0.134650007	-0.447409987	-1.62	12	15	192
-0.1347	-0.446319997	-1.62230003	12	15	192
-0.131960005	-0.447430015	-1.62	12	15	192
-0.131940007	-0.448799998	-1.61860001	12	15	192
-0.131899998	-0.449900001	-1.61619997	12	15	192
-0.129209995	-0.449919999	-1.61629999	12	15	192
-0.129260004	-0.448819995	-1.61870003	12	15	192
-0.126589999	-0.449099988	-1.61969995	12	15	192
-0.126570001	-0.450470001	-1.61829996	12	15	192
-0.126530007	-0.451550007	-1.61590004	12	15	192
-0.126530007	-0.453159988	-1.61539996	12	15	192
-0.126530007	-0.454780012	-1.61500001	12	15	192
-0.126629993	-0.44799	-1.6221	12	15	192
-0.129319996	-0.447979987	-1.62199998	12	15	192
-0.129299998	-0.444469988	-1.62189996	12	15	192
-0.129339993	-0.443410009	-1.6243	12	15	192
-0.132029995	-0.443390012	-1.62419999	12	15	192
-0.132049993	-0.445239991	-1.62479997	12	15	192
-0.132080004	-0.447129995	-1.62530005	12	15	192
-0.1294	-0.447409987	-1.62629998	12	15	192
-0.12669	-0.447160006	-1.62539995	12	15	192
-0.12669	-0.445540011	-1.62580001	12	15	192
-0.12669	-0.443949997	-1.62629998	12	15	192
-0.134800002	-0.445760012	-1.62660003	12	15	192
-0.134819999	-0.444429994	-1.62800002	12	15	192
-0.137539998	-0.446269989	-1.62849998	12	15	192
-0.140269995	-0.446509987	-1.62940001	12	15	192
-0.140300006	-0.445179999	-1.63080001	12	15	192
-0.140330002	-0.443850011	-1.6322	12	15	192
-0.140349999	-0.442460001	-1.6336	12	15	192
-0.140410006	-0.441300005	-1.63600004	12	15	192
-0.140440002	-0.43998	-1.63740003	12	15	192
-0.140440002	-0.438419998	-1.63779998	12	15	192
-0.137730002	-0.438439995	-1.63789999	12	15	192
-0.137730002	-0.439999998	-1.63750005	12	15	192
-0.137700006	-0.441320002	-1.63610005	12	15	192
-0.137649998	-0.442479998	-1.63370001	12	15	192
-0.137620002	-0.443870008	-1.63230002	12	15	192
-0.137620002	-0.445459992	-1.63180006	12	15	192
-0.134890005	-0.44363001	-1.63139999	12	15	192
-0.134939998	-0.442490011	-1.63370001	12	15	192
-0.132190004	-0.441989988	-1.63189995	12	15	192
-0.132139996	-0.443120003	-1.62950003	12	15	192
-0.129449993	-0.44314	-1.62960005	12	15	192
-0.129490003	-0.442000002	-1.63189995	12	15	192
-0.126800001	-0.442279994	-1.6329	12	15	192
-0.126800001	-0.443940014	-1.63250005	12	15	192
-0.1241	-0.443949997	-1.63250005	12	15	192
-0.124119997	-0.442550004	-1.63399994	12	15	192
-0.124130003	-0.441139996	-1.63540006	12	15	192
-0.124119997	-0.439300001	-1.63479996	12	15	192
-0.124130003	-0.437999994	-1.63619995	12	15	192
-0.126819998	-0.439280003	-1.63479996	12	15	192
-0.126800001	-0.437469989	-1.63419998	12	15	192
-0.12951	-0.437460005	-1.63419998	12	15	192
-0.129529998	-0.43926999	-1.63469994	12	15	192
-0.129549995	-0.441109985	-1.63530004	12	15	192
-0.126859993	-0.441390008	-1.63629997	12	15	192
-0.132280007	-0.441359997	-1.63619995	12	15	192
-0.132239997	-0.439260006	-1.63469994	12	15	192
-0.132239997	-0.437700003	-1.63510001	12	15	192
-0.134990007	-0.438199997	-1.63699996	12	15	192
-0.134990007	-0.43976	-1.63660002	12	15	192
-0.135020003	-0.441599995	-1.63709998	12	15	192
-0.140019998	-0.452270001	-1.61849999	12	15	192
-0.142670006	-0.451979995	-1.61740005	12	15	192
-0.145260006	-0.45115	-1.61450005	12	15	192
-0.140100002	-0.451460004	-1.62179995	12	15	192
-0.140049994	-0.449279994	-1.62030005	12	15	192
-0.140019998	-0.447380006	-1.61979997	12	15	192
-0.166820005	-0.450120002	-1.61699998	12	15	192
-0.166820005	-0.451739997	-1.61660004	12	15	192
-0.169499993	-0.450089991	-1.61689997	12	15	192
-0.164660007	-0.441969991	-1.63180006	12	15	192
-0.164660007	-0.443619996	-1.63129997	12	15	192
-0.162039995	-0.442519993	-1.63380003	12	15	192
-0.159370005	-0.442809999	-1.63489997	12	15	192
-0.159370005	-0.441130012	-1.63540006	12	15	192
-0.156660005	-0.441159993	-1.63549995	12	15	192
-0.1567	-0.439839989	-1.63689995	12	15	192
-0.1567	-0.438279986	-1.63730001	12	15	192
-0.156739995	-0.43689999	-1.63870001	12	15	192
-0.15399	-0.438309997	-1.63740003	12	15	192
-0.15399	-0.43987	-1.63699996	12	15	192
-0.153919995	-0.440930009	-1.63460004	12	15	192
-0.15388	-0.442339987	-1.63320005	12	15	192
-0.153850004	-0.44374001	-1.63180006	12	15	192
-0.151179999	-0.444029987	-1.63279998	12	15	192
-0.151140004	-0.442110002	-1.63230002	12	15	192
-0.151209995	-0.440950006	-1.63469994	12	15	192
-0.148499995	-0.440979987	-1.63479996	12	15	192
-0.148469999	-0.442389995	-1.63339996	12	15	192
-0.148440003	-0.443789989	-1.63199997	12	15	192
-0.145699993	-0.443549991	-1.63110006	12	15	192
-0.145730004	-0.442149997	-1.63250005	12	15	192
-0.145799994	-0.441000015	-1.63489997	12	15	192
-0.145889997	-0.440200001	-1.63820004	12	15	192
-0.145889997	-0.438639998	-1.63859999	12	15	192
-0.145860001	-0.436740011	-1.63810003	12	15	192
-0.145919994	-0.435570002	-1.64049995	12	15	192
-0.145919994	-0.433919996	-1.64090002	12	15	192
-0.148699999	-0.434410006	-1.64269996	12	15	192
-0.148739994	-0.436320007	-1.64330006	12	15	192
-0.148670003	-0.437489986	-1.64090002	12	15	192
-0.148599997	-0.438620001	-1.63849998	12	15	192
-0.148599997	-0.440180004	-1.63810003	12	15	192
-0.151319996	-0.440149993	-1.63800001	12	15	192
-0.151319996	-0.43858999	-1.63839996	12	15	192
-0.151350006	-0.437209994	-1.63979995	12	15	192
-0.154100001	-0.437440008	-1.64069998	12	15	192
-0.143270001	-0.432810009	-1.64330006	12	15	192
-0.140579998	-0.434729993	-1.64400005	12	15	192
-0.140579998	-0.436379999	-1.64349997	12	15	192
-0.140579998	-0.438069999	-1.64310002	12	15	192
-0.137879997	-0.438340008	-1.64409995	12	15	192
-0.137909994	-0.436910003	-1.64549994	12	15	192
-0.137879997	-0.435000002	-1.64499998	12	15	192
-0.137909994	-0.433609992	-1.64639997	12	15	192
-0.137940004	-0.432249993	-1.64779997	12	15	192
-0.137940004	-0.430640012	-1.64820004	12	15	192
-0.140660003	-0.430620015	-1.64810002	12	15	192
-0.140689999	-0.432489991	-1.6487	12	15	192
-0.143450007	-0.431109995	-1.64999998	12	15	192
-0.143480003	-0.432969987	-1.65050006	12	15	192
-0.146239996	-0.433209985	-1.65139997	12	15	192
-0.146300003	-0.432099998	-1.65380001	12	15	192
-0.149069995	-0.432330012	-1.65470004	12	15	192
-0.15174	-0.431800008	-1.65260005	12	15	192
-0.151700005	-0.429910004	-1.65209997	12	15	192
-0.151769996	-0.428759992	-1.65450001	12	15	192
-0.151840001	-0.427560002	-1.65680003	12	15	192
-0.151840001	-0.42583999	-1.6573	12	15	192
-0.14914	-0.426109999	-1.65830004	12	15	192
-0.149069995	-0.427329987	-1.65600002	12	15	192
-0.146300003	-0.427100003	-1.65509999	12	15	192
-0.146359995	-0.425880015	-1.65750003	12	15	192
-0.146300003	-0.423750013	-1.6559	12	15	192
-0.143570006	-0.42377001	-1.65600002	12	15	192
-0.143619999	-0.427619994	-1.65709996	12	15	192
-0.143570006	-0.428829998	-1.65470004	12	15	192
-0.143509999	-0.42998001	-1.65240002	12	15	192
-0.140770003	-0.430000007	-1.65240002	12	15	192
-0.140829995	-0.428849995	-1.65480006	12	15	192
-0.140890002	-0.427639991	-1.65719998	12	15	192
-0.140939996	-0.426420003	-1.6595	12	15	192
-0.140939996	-0.424780011	-1.65999997	12	15	192
-0.143680006	-0.426400006	-1.6595	12	15	192
-0.138219997	-0.426690012	-1.66059995	12	15	192
-0.138280004	-0.42554	-1.66289997	12	15	192
-0.135529995	-0.425559998	-1.66299999	12	15	192
-0.135480002	-0.42671001	-1.66069996	12	15	192
-0.135429993	-0.427929997	-1.65830004	12	15	192
-0.132689998	-0.427949995	-1.65830004	12	15	192
-0.132740006	-0.426719993	-1.66069996	12	15	192
-0.132760003	-0.425330013	-1.66209996	12	15	192
-0.130009994	-0.425339997	-1.66219997	12	15	192
-0.129989997	-0.426739991	-1.66079998	12	15	192
-0.129969999	-0.42820999	-1.65939999	12	15	192
-0.127230003	-0.426499993	-1.65989995	12	15	192
-0.127250001	-0.425110012	-1.66120005	12	15	192
-0.124480002	-0.424870014	-1.66030002	12	15	192
-0.124480002	-0.426510006	-1.65989995	12	15	192
-0.124480002	-0.428240001	-1.6595	12	15	192
-0.124449998	-0.429450005	-1.65709996	12	15	192
-0.124430001	-0.430849999	-1.65569997	12	15	192
-0.127169997	-0.430830002	-1.65559995	12	15	192
-0.127189994	-0.429430008	-1.65699995	12	15	192
-0.127189994	-0.427729994	-1.65750003	12	15	192
-0.129910007	-0.429170012	-1.65600002	12	15	192
-0.129869998	-0.430319995	-1.65369999	12	15	192
-0.132579997	-0.430049986	-1.65260005	12	15	192
-0.132620007	-0.428900003	-1.65499997	12	15	192
-0.135309994	-0.428380013	-1.653	12	15	192
-0.135279998	-0.429780006	-1.6516	12	15	192
-0.138019994	-0.429760009	-1.65149999	12	15	192
-0.13809	-0.428869992	-1.65489995	12	15	192
-0.138170004	-0.42791	-1.65820003	12	15	192
-0.135210007	-0.430660009	-1.64830005	12	15	192
-0.135240003	-0.432520002	-1.64880002	12	15	192
-0.135189995	-0.43362999	-1.64649999	12	15	192
-0.132459998	-0.433649987	-1.64649999	12	15	192
-0.132489994	-0.432289988	-1.64789999	12	15	192
-0.132510006	-0.430929989	-1.64929998	12	15	192
-0.129800007	-0.431199998	-1.65030003	12	15	192
-0.129820004	-0.43305999	-1.65090001	12	15	192
-0.127110004	-0.431719989	-1.6523	12	15	192
-0.127130002	-0.433580011	-1.65289998	12	15	192
-0.12974	-0.433660001	-1.64660001	12	15	192
-0.129720002	-0.435050011	-1.64520001	12	15	192
-0.129679993	-0.436190009	-1.64279997	12	15	192
-0.132369995	-0.43592	-1.64180005	12	15	192
-0.132369995	-0.434269994	-1.64219999	12	15	192
-0.135110006	-0.434509993	-1.64310002	12	15	192
-0.135140002	-0.436419994	-1.6437	12	15	192
-0.135110006	-0.437849998	-1.64219999	12	15	192
-0.132349998	-0.437350005	-1.64040005	12	15	192
-0.129590005	-0.436850011	-1.63849998	12	15	192
-0.126900002	-0.437119991	-1.63950002	12	15	192
-0.12703	-0.435579985	-1.64719999	12	15	192
-0.12703	-0.43393001	-1.64760005	12	15	192
-0.12703	-0.437229991	-1.64670002	12	15	192
-0.14621	-0.429699987	-1.65129995	12	15	192
-0.14621	-0.428059995	-1.65170002	12	15	192
-0.148969993	-0.428290009	-1.65260005	12	15	192
-0.148939997	-0.42967999	-1.65120006	12	15	192
-0.148969993	-0.433180004	-1.65129995	12	15	192
-0.149200007	-0.424959987	-1.66069996	12	15	192
-0.151950002	-0.42493999	-1.66059995	12	15	192
-0.154730007	-0.425170004	-1.66149998	12	15	192
-0.154689997	-0.426560014	-1.66009998	12	15	192
-0.154650003	-0.428030014	-1.65869999	12	15	192
-0.157429993	-0.428259999	-1.6595	12	15	192
-0.157470003	-0.426779985	-1.66100001	12	15	192
-0.157509997	-0.425390005	-1.66229999	12	15	192
-0.160300002	-0.427249998	-1.66279995	12	15	192
-0.160300002	-0.428979993	-1.66229999	12	15	192
-0.160339996	-0.425859988	-1.66419995	12	15	192
-0.163039997	-0.425579995	-1.6631	12	15	192
-0.165749997	-0.425300002	-1.66199994	12	15	192
-0.165749997	-0.426950008	-1.66159999	12	15	192
-0.165710002	-0.428420007	-1.6602	12	15	192
-0.162919998	-0.428200006	-1.65929997	12	15	192
-0.162919998	-0.426479995	-1.65980005	12	15	192
-0.162839994	-0.429410011	-1.65699995	12	15	192
-0.160060003	-0.42919001	-1.65610003	12	15	192
-0.15997	-0.430339992	-1.65369999	12	15	192
-0.159889996	-0.431470007	-1.65139997	12	15	192
-0.159889996	-0.433079988	-1.65090001	12	15	192
-0.159810007	-0.434190005	-1.64859998	12	15	192
-0.157130003	-0.432859987	-1.65009999	12	15	192
-0.157199994	-0.43175	-1.65240002	12	15	192
-0.157199994	-0.430110008	-1.65289998	12	15	192
-0.154469997	-0.430139989	-1.653	12	15	192
-0.154430002	-0.431519985	-1.6516	12	15	192
-0.154510006	-0.428739995	-1.65439999	12	15	192
-0.157319993	-0.429210007	-1.65620005	12	15	192
-0.162709996	-0.430310011	-1.65359998	12	15	192
-0.140609995	-0.433340013	-1.64540005	12	15	192
-0.156629995	-0.442580014	-1.63399994	12	15	192
-0.159209996	-0.443419993	-1.63059998	12	15	192
-0.15693	-0.436500013	-1.64400005	12	15	192
-0.182219997	-0.425099999	-1.66120005	12	15	192
-0.182109997	-0.426250011	-1.65890002	12	15	192
-0.182009995	-0.427469999	-1.65649998	12	15	192
-0.181950003	-0.428930014	-1.65509999	12	15	192
-0.184689999	-0.42888999	-1.65489995	12	15	192
-0.184630007	-0.430290014	-1.65359998	12	15	192
-0.184520006	-0.431419998	-1.65120006	12	15	192
-0.184459999	-0.432779998	-1.64979994	12	15	192
-0.187189996	-0.432740003	-1.64970005	12	15	192
-0.187250003	-0.431380004	-1.65100002	12	15	192
-0.189919993	-0.432700008	-1.64950001	12	15	192
-0.192709997	-0.432909995	-1.65030003	12	15	192
-0.192650005	-0.431050003	-1.64979994	12	15	192
-0.192770004	-0.429919988	-1.65209997	12	15	192
-0.195439994	-0.43125999	-1.65059996	12	15	192
-0.195319995	-0.432370007	-1.64820004	12	15	192
-0.195189998	-0.433470011	-1.64590001	12	15	192
-0.195130005	-0.434859991	-1.64450002	12	15	192
-0.195130005	-0.43652001	-1.64400005	12	15	192
-0.192469999	-0.43682	-1.6451	12	15	192
-0.192589998	-0.435669988	-1.64750004	12	15	192
-0.192530006	-0.433770001	-1.64699996	12	15	192
-0.189740002	-0.433560014	-1.64619994	12	15	192
-0.189740002	-0.435200006	-1.64569998	12	15	192
-0.189630002	-0.436349988	-1.64339995	12	15	192
-0.186849996	-0.436129987	-1.64260006	12	15	192
-0.186849996	-0.437810004	-1.64209998	12	15	192
-0.186729997	-0.438939989	-1.63970006	12	15	192
-0.186680004	-0.440250009	-1.63839996	12	15	192
-0.183909997	-0.440030009	-1.63759995	12	15	192
-0.183960006	-0.438730001	-1.63890004	12	15	192
-0.184019998	-0.437339991	-1.64030004	12	15	192
-0.184190005	-0.436430007	-1.6437	12	15	192
-0.184239998	-0.435030013	-1.6451	12	15	192
-0.184300005	-0.433640003	-1.64649999	12	15	192
-0.187079996	-0.43384999	-1.6473	12	15	192
-0.186959997	-0.434989989	-1.64489996	12	15	192
-0.183789998	-0.441089988	-1.63520002	12	15	192
-0.183679998	-0.44224	-1.63279998	12	15	192
-0.183679998	-0.443899989	-1.63240004	12	15	192
-0.186330006	-0.443599999	-1.63129997	12	15	192
-0.186389998	-0.442200005	-1.63269997	12	15	192
-0.186440006	-0.440789998	-1.63409996	12	15	192
-0.189209998	-0.441009998	-1.63489997	12	15	192
-0.189270005	-0.439689994	-1.63629997	12	15	192
-0.189390004	-0.438639998	-1.63859999	12	15	192
-0.189449996	-0.437260002	-1.63999999	12	15	192
-0.192220002	-0.437469989	-1.6408	12	15	192
-0.192100003	-0.438600004	-1.63849998	12	15	192
-0.191980004	-0.439639986	-1.63610005	12	15	192
-0.191919997	-0.440970004	-1.63469994	12	15	192
-0.191799998	-0.442119986	-1.63240004	12	15	192
-0.191729993	-0.443509996	-1.63090003	12	15	192
-0.194440007	-0.443470001	-1.63080001	12	15	192
-0.194370002	-0.444799989	-1.62940001	12	15	192
-0.197009996	-0.444489986	-1.62829995	12	15	192
-0.199770004	-0.444700003	-1.62909997	12	15	192
-0.199900001	-0.443639994	-1.63139999	12	15	192
-0.200039998	-0.442510009	-1.63380003	12	15	192
-0.200100005	-0.441089988	-1.63520002	12	15	192
-0.200039998	-0.439249992	-1.63469994	12	15	192
-0.197329998	-0.439300001	-1.63479996	12	15	192
-0.197400004	-0.441139996	-1.63540006	12	15	192
-0.197329998	-0.442550004	-1.63399994	12	15	192
-0.1972	-0.443690002	-1.63160002	12	15	192
-0.194560006	-0.442339987	-1.63320005	12	15	192
-0.194619998	-0.440919995	-1.63460004	12	15	192
-0.194560006	-0.43908	-1.63399994	12	15	192
-0.194749996	-0.438300014	-1.63730001	12	15	192
-0.197520003	-0.438510001	-1.63810003	12	15	192
-0.197589993	-0.437130004	-1.63950002	12	15	192
-0.197720006	-0.435959995	-1.64189994	12	15	192
-0.197850004	-0.434819996	-1.64429998	12	15	192
-0.200440004	-0.434260011	-1.64219999	12	15	192
-0.200369999	-0.435660005	-1.6408	12	15	192
-0.200299993	-0.437079996	-1.63940001	12	15	192
-0.200240001	-0.438470006	-1.63800001	12	15	192
-0.203079998	-0.438939989	-1.63970006	12	15	192
-0.203020006	-0.437040001	-1.63919997	12	15	192
-0.203020006	-0.435360014	-1.63960004	12	15	192
-0.203150004	-0.434219986	-1.64199996	12	15	192
-0.205939993	-0.43441999	-1.64279997	12	15	192
-0.205799997	-0.435559988	-1.64040005	12	15	192
-0.205730006	-0.436989993	-1.63900006	12	15	192
-0.205799997	-0.43889001	-1.63950002	12	15	192
-0.208440006	-0.438580006	-1.63839996	12	15	192
-0.208580002	-0.437449992	-1.6408	12	15	192
-0.208660007	-0.43603	-1.64219999	12	15	192
-0.208729997	-0.434630007	-1.64359999	12	15	192
-0.208800003	-0.433239996	-1.64499998	12	15	192
-0.208939999	-0.432130009	-1.6473	12	15	192
-0.206220001	-0.432179987	-1.64750004	12	15	192
-0.206149995	-0.433539987	-1.64610004	12	15	192
-0.203419998	-0.433589995	-1.64629996	12	15	192
-0.2007	-0.433640003	-1.64649999	12	15	192
-0.198039994	-0.433939993	-1.64760005	12	15	192
-0.198170006	-0.432830006	-1.64999998	12	15	192
-0.198170006	-0.431219995	-1.65040004	12	15	192
-0.200969994	-0.433039993	-1.65079999	12	15	192
-0.201030001	-0.43167001	-1.65219998	12	15	192
-0.201159999	-0.430539995	-1.65450001	12	15	192
-0.201159999	-0.42888999	-1.65489995	12	15	192
-0.201299995	-0.427679986	-1.6573	12	15	192
-0.201299995	-0.425960004	-1.65779996	12	15	192
-0.198559999	-0.427729994	-1.65750003	12	15	192
-0.198430002	-0.428930014	-1.65509999	12	15	192
-0.198430002	-0.43057999	-1.65470004	12	15	192
-0.195690006	-0.430629998	-1.65489995	12	15	192
-0.195690006	-0.428979993	-1.65530002	12	15	192
-0.195759997	-0.427520007	-1.65670002	12	15	192
-0.195879996	-0.426299989	-1.65910006	12	15	192
-0.196009994	-0.425150007	-1.66139996	12	15	192
-0.193259999	-0.425190002	-1.66159999	12	15	192
-0.193200007	-0.426589996	-1.6602	12	15	192
-0.193079993	-0.427810013	-1.65779996	12	15	192
-0.193079993	-0.429520011	-1.65740001	12	15	192
-0.190280005	-0.429309994	-1.6566	12	15	192
-0.190219998	-0.430709988	-1.6552	12	15	192
-0.190099999	-0.431849986	-1.65279996	12	15	192
-0.187419996	-0.430500001	-1.65439999	12	15	192
-0.187480003	-0.429100007	-1.65579998	12	15	192
-0.187539995	-0.427650005	-1.65719998	12	15	192
-0.184740007	-0.427439988	-1.65639997	12	15	192
-0.184909999	-0.426459998	-1.65970004	12	15	192
-0.184909999	-0.424820006	-1.66009998	12	15	192
-0.187649995	-0.424780011	-1.65999997	12	15	192
-0.187710002	-0.426670015	-1.66050005	12	15	192
-0.190459996	-0.42662999	-1.66040003	12	15	192
-0.190400004	-0.424739987	-1.65980005	12	15	192
-0.190339997	-0.427859992	-1.65799999	12	15	192
-0.198689997	-0.426499993	-1.65989995	12	15	192
-0.204170004	-0.42640999	-1.6595	12	15	192
-0.204099998	-0.427890003	-1.65810001	12	15	192
-0.204040006	-0.429340005	-1.65670002	12	15	192
-0.203899994	-0.430489987	-1.65429997	12	15	192
-0.206709996	-0.430700004	-1.65509999	12	15	192
-0.209370002	-0.430400014	-1.65400004	12	15	192
-0.209230006	-0.431529999	-1.6516	12	15	192
-0.212029994	-0.431730002	-1.65240002	12	15	192
-0.212180004	-0.430599988	-1.65470004	12	15	192
-0.212109998	-0.4287	-1.65419996	12	15	192
-0.214839995	-0.428649992	-1.65400004	12	15	192
-0.214760005	-0.430040002	-1.65260005	12	15	192
-0.214760005	-0.431679994	-1.65219998	12	15	192
-0.217340007	-0.431129992	-1.65009999	12	15	192
-0.217189997	-0.432229996	-1.64769995	12	15	192
-0.217109993	-0.433589995	-1.64629996	12	15	192
-0.219840005	-0.433539987	-1.64610004	12	15	192
-0.219919994	-0.432179987	-1.64750004	12	15	192
-0.220070004	-0.43107	-1.64979994	12	15	192
-0.222800002	-0.431019992	-1.64960003	12	15	192
-0.222639993	-0.432119995	-1.6473	12	15	192
-0.222560003	-0.433479995	-1.64590001	12	15	192
-0.225280002	-0.433429986	-1.64569998	12	15	192
-0.225199997	-0.434819996	-1.64429998	12	15	192
-0.225360006	-0.436980009	-1.64579999	12	15	192
-0.225199997	-0.438160002	-1.64339995	12	15	192
-0.222479999	-0.438210011	-1.64359999	12	15	192
-0.222399995	-0.436269999	-1.64310002	12	15	192
-0.222320005	-0.434370011	-1.64260006	12	15	192
-0.219520003	-0.434170008	-1.64180005	12	15	192
-0.219520003	-0.435820013	-1.64139998	12	15	192
-0.219520003	-0.4375	-1.64090002	12	15	192
-0.219369993	-0.438630015	-1.63859999	12	15	192
-0.219209999	-0.439669997	-1.63619995	12	15	192
-0.219209999	-0.441249996	-1.6358	12	15	192
-0.219050005	-0.442409992	-1.63339996	12	15	192
-0.22168	-0.442090005	-1.63230002	12	15	192
-0.221760005	-0.440679997	-1.63370001	12	15	192
-0.221760005	-0.439099997	-1.63409996	12	15	192
-0.224460006	-0.439040005	-1.63390005	12	15	192
-0.224380001	-0.44036001	-1.63250005	12	15	192
-0.224219993	-0.441509992	-1.63010001	12	15	192
-0.224130005	-0.442900002	-1.62870002	12	15	192
-0.224130005	-0.444489986	-1.62829995	12	15	192
-0.226919994	-0.444689989	-1.62899995	12	15	192
-0.227080002	-0.44363001	-1.63139999	12	15	192
-0.226999998	-0.441709995	-1.63090003	12	15	192
-0.226999998	-0.440039992	-1.63129997	12	15	192
-0.229870006	-0.440499991	-1.63300002	12	15	192
-0.229959995	-0.439179987	-1.63440001	12	15	192
-0.230130002	-0.438140005	-1.63670003	12	15	192
-0.227500007	-0.438459992	-1.63789999	12	15	192
-0.224629998	-0.437999994	-1.63619995	12	15	192
-0.227249995	-0.439240009	-1.63460004	12	15	192
-0.230379999	-0.437269986	-1.6401	12	15	192
-0.230379999	-0.435589999	-1.64049995	12	15	192
-0.230550006	-0.434450001	-1.64289999	12	15	192
-0.227919996	-0.434760004	-1.64409995	12	15	192
-0.228	-0.433369994	-1.64549994	12	15	192
-0.230810001	-0.433569998	-1.64619994	12	15	192
-0.233710006	-0.434009999	-1.64789999	12	15	192
-0.233710006	-0.432399988	-1.64830005	12	15	192
-0.233799994	-0.431039989	-1.64970005	12	15	192
-0.233970001	-0.429899991	-1.65209997	12	15	192
-0.236699998	-0.429839998	-1.65180004	12	15	192
-0.236609995	-0.431230009	-1.65040004	12	15	192
-0.236609995	-0.43283999	-1.64999998	12	15	192
-0.236430004	-0.433950007	-1.64769995	12	15	192
-0.239160001	-0.43226999	-1.64789999	12	15	192
-0.239340007	-0.431169987	-1.65020001	12	15	192
-0.239429995	-0.429780006	-1.6516	12	15	192
-0.239610001	-0.428629994	-1.65400004	12	15	192
-0.236880004	-0.4287	-1.65419996	12	15	192
-0.234229997	-0.429010004	-1.65540004	12	15	192
-0.234410003	-0.4278	-1.65779996	12	15	192
-0.234490007	-0.426319987	-1.65919995	12	15	192
-0.234490007	-0.424679995	-1.65960002	12	15	192
-0.231749997	-0.424739987	-1.65980005	12	15	192
-0.231670007	-0.426129997	-1.65840006	12	15	192
-0.23184	-0.428350002	-1.65989995	12	15	192
-0.229179993	-0.428660005	-1.66110003	12	15	192
-0.228919998	-0.426189989	-1.65869999	12	15	192
-0.229010001	-0.424800009	-1.65999997	12	15	192
-0.226349995	-0.425099999	-1.66120005	12	15	192
-0.226180002	-0.426250011	-1.65890002	12	15	192
-0.226180002	-0.427969992	-1.65840006	12	15	192
-0.226019993	-0.429179996	-1.65610003	12	15	192
-0.22586	-0.430330008	-1.65369999	12	15	192
-0.225769997	-0.431719989	-1.6523	12	15	192
-0.223120004	-0.43039	-1.65390003	12	15	192
-0.220390007	-0.430440009	-1.65409994	12	15	192
-0.217730001	-0.430750012	-1.65530002	12	15	192
-0.217800006	-0.429340005	-1.65670002	12	15	192
-0.217730001	-0.427390009	-1.65620005	12	15	192
-0.21514	-0.427940011	-1.65830004	12	15	192
-0.215289995	-0.42671001	-1.66069996	12	15	192
-0.218030006	-0.426660001	-1.66050005	12	15	192
-0.218189999	-0.425509989	-1.66279995	12	15	192
-0.220939994	-0.425460011	-1.66260004	12	15	192
-0.2236	-0.425159991	-1.66139996	12	15	192
-0.223519996	-0.426550001	-1.66009998	12	15	192
-0.223440006	-0.428030014	-1.65869999	12	15	192
-0.223440006	-0.429740012	-1.65820003	12	15	192
-0.220699996	-0.42978999	-1.65840006	12	15	192
-0.220699996	-0.428079993	-1.65890002	12	15	192
-0.220699996	-0.426360011	-1.65929997	12	15	192
-0.215519994	-0.425810009	-1.66400003	12	15	192
-0.212909997	-0.426360011	-1.66610003	12	15	192
-0.210160002	-0.42640999	-1.66630006	12	15	192
-0.207330003	-0.426209986	-1.66550004	12	15	192
-0.204510003	-0.426010013	-1.66480005	12	15	192
-0.201759994	-0.426050007	-1.66489995	12	15	192
-0.198949993	-0.425850004	-1.66419995	12	15	192
-0.212689996	-0.427260011	-1.66279995	12	15	192
-0.209869996	-0.427060008	-1.66199994	12	15	192
-0.209800005	-0.428539991	-1.66059995	12	15	192
-0.207049996	-0.426860005	-1.66129994	12	15	192
-0.206850007	-0.427839994	-1.65789998	12	15	192
-0.206909999	-0.429800004	-1.65840006	12	15	192
-0.209590003	-0.429500014	-1.6573	12	15	192
-0.212329999	-0.427740008	-1.65750003	12	15	192
-0.228670001	-0.43215999	-1.65400004	12	15	192
-0.228589997	-0.430269986	-1.65349996	12	15	192
-0.228670001	-0.428869992	-1.65489995	12	15	192
-0.231490001	-0.429069996	-1.65559995	12	15	192
-0.231240004	-0.431600004	-1.65190005	12	15	192
-0.231069997	-0.429459989	-1.65040004	12	15	192
-0.231069997	-0.432709992	-1.64950001	12	15	192
-0.228259996	-0.432509989	-1.64880002	12	15	192
-0.225529999	-0.43257001	-1.64900005	12	15	192
-0.237320006	-0.424870014	-1.66030002	12	15	192
-0.237230003	-0.426259995	-1.65890002	12	15	192
-0.237149999	-0.427740008	-1.65750003	12	15	192
-0.239889994	-0.427679986	-1.6573	12	15	192
-0.242719993	-0.427859992	-1.65799999	12	15	192
-0.242899999	-0.42662999	-1.66040003	12	15	192
-0.240160003	-0.426699996	-1.66059995	12	15	192
-0.240339994	-0.425550014	-1.66299999	12	15	192
-0.243180007	-0.42572999	-1.66369998	12	15	192
-0.245930001	-0.425669998	-1.66340005	12	15	192
-0.248480007	-0.425110012	-1.66129994	12	15	192
-0.248290002	-0.426259995	-1.65890002	12	15	192
-0.245550007	-0.426319987	-1.65919995	12	15	192
-0.245269999	-0.427300006	-1.65579998	12	15	192
-0.245079994	-0.42851001	-1.65349996	12	15	192
-0.245269999	-0.430660009	-1.65499997	12	15	192
-0.245079994	-0.431789994	-1.65260005	12	15	192
-0.247810006	-0.431730002	-1.65240002	12	15	192
-0.248009995	-0.430590004	-1.65470004	12	15	192
-0.250739992	-0.430519998	-1.65450001	12	15	192
-0.253479987	-0.42881	-1.65460002	12	15	192
-0.253479987	-0.427100003	-1.65509999	12	15	192
-0.250739992	-0.427170008	-1.65530002	12	15	192
-0.248009995	-0.42723	-1.65559995	12	15	192
-0.247720003	-0.428189993	-1.65219998	12	15	192
-0.250349998	-0.427870005	-1.65100002	12	15	192
-0.253179997	-0.429699987	-1.65129995	12	15	192
-0.255809993	-0.42938	-1.65009999	12	15	192
-0.255710006	-0.43077001	-1.6487	12	15	192
-0.255609989	-0.432130009	-1.6473	12	15	192
-0.255710006	-0.433990002	-1.64779997	12	15	192
-0.252880007	-0.433809996	-1.64709997	12	15	192
-0.25277999	-0.431939989	-1.64660001	12	15	192
-0.252880007	-0.430590004	-1.648	12	15	192
-0.250250012	-0.432520002	-1.64880002	12	15	192
-0.250250012	-0.434130013	-1.64839995	12	15	192
-0.250250012	-0.435779989	-1.64789999	12	15	192
-0.247429997	-0.435589999	-1.64719999	12	15	192
-0.247429997	-0.437249988	-1.64680004	12	15	192
-0.244519994	-0.436809987	-1.6451	12	15	192
-0.244519994	-0.435149997	-1.64549994	12	15	192
-0.244420007	-0.43325001	-1.64499998	12	15	192
-0.244420007	-0.431639999	-1.64540005	12	15	192
-0.241789997	-0.431959987	-1.64670002	12	15	192
-0.241699994	-0.433319986	-1.64530003	12	15	192
-0.241610005	-0.434709996	-1.64390004	12	15	192
-0.241699994	-0.436619997	-1.6444	12	15	192
-0.241520002	-0.437790006	-1.64199996	12	15	192
-0.244230002	-0.437720001	-1.64180005	12	15	192
-0.246759996	-0.437139988	-1.63960004	12	15	192
-0.249369994	-0.43682	-1.63839996	12	15	192
-0.252090007	-0.436749995	-1.63810003	12	15	192
-0.254900008	-0.436930001	-1.63880002	12	15	192
-0.25771001	-0.437119991	-1.63950002	12	15	192
