0.650390029	-0.688639998	-1.19719994	240	227	0
0.650390029	-0.688390017	-1.19729996	240	227	0
0.650900006	-0.689069986	-1.19790006	240	227	0
0.650900006	-0.689119995	-1.19790006	240	227	0
0.650900006	-0.689320028	-1.19780004	240	227	0
0.650900006	-0.689639986	-1.19760001	240	227	0
0.650900006	-0.689689994	-1.19760001	240	227	0
0.651419997	-0.68949002	-1.19869995	240	227	0
0.651939988	-0.689920008	-1.19939995	240	227	0
0.651939988	-0.690509975	-1.19910002	240	227	0
0.652450025	-0.690349996	-1.20019996	240	227	0
0.654619992	-0.689689994	-1.199	240	227	0
0.654100001	-0.68927002	-1.1983	240	227	0
0.654100001	-0.689719975	-1.19799995	240	227	0
0.65358001	-0.688839972	-1.19749999	240	227	0
0.653069973	-0.688470006	-1.19679999	240	227	0
0.653069973	-0.688409984	-1.19679999	240	227	0
0.653069973	-0.688170016	-1.19690001	240	227	0
0.653069973	-0.68866998	-1.19659996	240	227	0
0.653069973	-0.68900001	-1.19649994	240	227	0
0.653069973	-0.689040005	-1.19640005	240	227	0
0.652549982	-0.688629985	-1.19570005	240	227	0
0.652549982	-0.688579977	-1.19570005	240	227	0
0.652549982	-0.688560009	-1.19570005	240	227	0
0.652549982	-0.688250005	-1.19589996	240	227	0
0.652549982	-0.68799001	-1.19599998	240	227	0
0.652029991	-0.687560022	-1.19529998	240	227	0
0.652029991	-0.688090026	-1.19500005	240	227	0
0.652029991	-0.688149989	-1.19500005	240	227	0
0.65151	-0.687839985	-1.19420004	240	227	0
0.65151	-0.688300014	-1.19389999	240	227	0
0.65151	-0.688430011	-1.19379997	240	227	0
0.65151	-0.688820004	-1.19360006	240	227	0
0.65151	-0.688899994	-1.19350004	240	227	0
0.65151	-0.689010024	-1.19350004	240	227	0
0.65151	-0.689019978	-1.19350004	240	227	0
0.652029991	-0.689419985	-1.19420004	240	227	0
0.652029991	-0.689440012	-1.19420004	240	227	0
0.652029991	-0.689450026	-1.19420004	240	227	0
0.652029991	-0.68927002	-1.19430006	240	227	0
0.652029991	-0.689090014	-1.19439995	240	227	0
0.652549982	-0.689589977	-1.19509995	240	227	0
0.652549982	-0.68979001	-1.19500005	240	227	0
0.652549982	-0.689090014	-1.1954	240	227	0
0.652549982	-0.688880026	-1.19550002	240	227	0
0.653069973	-0.690069973	-1.19579995	240	227	0
0.655229986	-0.689649999	-1.19459999	240	227	0
0.655229986	-0.689620018	-1.19459999	240	227	0
0.655229986	-0.689369977	-1.1947	240	227	0
0.655229986	-0.688929975	-1.19500005	240	227	0
0.655229986	-0.688650012	-1.19509995	240	227	0
0.655229986	-0.688549995	-1.19519997	240	227	0
0.655229986	-0.688350022	-1.19529998	240	227	0
0.655229986	-0.68829	-1.19529998	240	227	0
0.655229986	-0.688030005	-1.19550002	240	227	0
0.655229986	-0.688009977	-1.19550002	240	227	0
0.655229986	-0.687759995	-1.19570005	240	227	0
0.655229986	-0.687510014	-1.19579995	240	227	0
0.655749977	-0.688189983	-1.19640005	240	227	0
0.655749977	-0.687629998	-1.19669998	240	227	0
0.655749977	-0.68712002	-1.19700003	240	227	0
0.656260014	-0.687290013	-1.19790006	240	227	0
0.656260014	-0.688610017	-1.19710004	240	227	0
0.656260014	-0.689069986	-1.19690001	240	227	0
0.656260014	-0.68918997	-1.19679999	240	227	0
0.656260014	-0.689199984	-1.19679999	240	227	0
0.656260014	-0.689260006	-1.19679999	240	227	0
0.656260014	-0.689719975	-1.19649994	240	227	0
0.655749977	-0.688899994	-1.19599998	240	227	0
0.655749977	-0.688809991	-1.19599998	240	227	0
0.655749977	-0.68878001	-1.1961	240	227	0
0.655749977	-0.689840019	-1.1954	240	227	0
0.655749977	-0.689989984	-1.1954	240	227	0
0.654709995	-0.689209998	-1.19379997	240	227	0
0.654709995	-0.688870013	-1.19400001	240	227	0
0.654190004	-0.688679993	-1.19319999	240	227	0
0.654190004	-0.688679993	-1.19319999	240	227	0
0.654190004	-0.688619971	-1.19319999	240	227	0
0.654190004	-0.68858999	-1.19319999	240	227	0
0.654190004	-0.688730001	-1.19309998	240	227	0
0.654190004	-0.688730001	-1.19309998	240	227	0
0.654190004	-0.688750029	-1.19309998	240	227	0
0.654190004	-0.688769996	-1.19309998	240	227	0
0.654190004	-0.688799977	-1.19309998	240	227	0
0.654190004	-0.688799977	-1.19309998	240	227	0
0.654190004	-0.688199997	-1.19340003	240	227	0
0.654190004	-0.687929988	-1.19360006	240	227	0
0.653670013	-0.687430024	-1.19289994	240	227	0
0.653670013	-0.687279999	-1.19299996	240	227	0
0.653670013	-0.687740028	-1.19270003	240	227	0
0.653670013	-0.687889993	-1.19260001	240	227	0
0.653670013	-0.688359976	-1.19239998	240	227	0
0.653150022	-0.687919974	-1.19159997	240	227	0
0.653150022	-0.687560022	-1.1918	240	227	0
0.653150022	-0.686060011	-1.19270003	240	227	0
0.653670013	-0.686479986	-1.19340003	240	227	0
0.654190004	-0.686909974	-1.19420004	240	227	0
0.654709995	-0.687340021	-1.19490004	240	227	0
0.654709995	-0.687390029	-1.19490004	240	227	0
0.655229986	-0.686169982	-1.19659996	240	227	0
0.654190004	-0.685029984	-1.19529998	240	227	0
0.652549982	-0.68611002	-1.19710004	240	227	0
0.653069973	-0.686240017	-1.19799995	240	227	0
0.653069973	-0.686829984	-1.19770002	240	227	0
0.653069973	-0.68708998	-1.19760001	240	227	0
0.652029991	-0.686500013	-1.19589996	240	227	0
0.652029991	-0.686749995	-1.19579995	240	227	0
0.65151	-0.686580002	-1.19490004	240	227	0
0.65151	-0.687139988	-1.19459999	240	227	0
0.650990009	-0.68671	-1.19379997	240	227	0
0.650990009	-0.6875	-1.19340003	240	227	0
0.650990009	-0.687730014	-1.19319999	240	227	0
0.650990009	-0.687960029	-1.19309998	240	227	0
0.650990009	-0.688120008	-1.19299996	240	227	0
0.650990009	-0.688530028	-1.19280005	240	227	0
0.650990009	-0.688549995	-1.19280005	240	227	0
0.650990009	-0.688570023	-1.19280005	240	227	0
0.650479972	-0.688049972	-1.19210005	240	227	0
0.650479972	-0.688109994	-1.19200003	240	227	0
0.650479972	-0.688139975	-1.19200003	240	227	0
0.650479972	-0.687229991	-1.1925	240	227	0
0.650479972	-0.687080026	-1.19260001	240	227	0
0.649959981	-0.687359989	-1.19149995	240	227	0
0.64892	-0.68641001	-1.19000006	240	227	0
0.651069999	-0.685760021	-1.18889999	240	227	0
0.652629972	-0.685630023	-1.19200003	240	227	0
0.655300021	-0.685400009	-1.19159997	240	227	0
0.655300021	-0.686659992	-1.19079995	240	227	0
0.655820012	-0.68769002	-1.19120002	240	227	0
0.656340003	-0.68809998	-1.19200003	240	227	0
0.656340003	-0.687960029	-1.19210005	240	227	0
0.656340003	-0.687539995	-1.19229996	240	227	0
0.656859994	-0.688090026	-1.19299996	240	227	0
0.656859994	-0.687699974	-1.19319999	240	227	0
0.656859994	-0.687629998	-1.19319999	240	227	0
0.657379985	-0.688269973	-1.19379997	240	227	0
0.657379985	-0.688510001	-1.19369996	240	227	0
0.657379985	-0.688870013	-1.19350004	240	227	0
0.657379985	-0.688970029	-1.19340003	240	227	0
0.657379985	-0.688979983	-1.19340003	240	227	0
0.657379985	-0.68900001	-1.19340003	240	227	0
0.657909989	-0.689300001	-1.19420004	240	227	0
0.657909989	-0.689350009	-1.19420004	240	227	0
0.657909989	-0.689360023	-1.19420004	240	227	0
0.657909989	-0.689390004	-1.19420004	240	227	0
0.657909989	-0.689419985	-1.19420004	240	227	0
0.657909989	-0.689220011	-1.19430006	240	227	0
0.657909989	-0.689040005	-1.19439995	240	227	0
0.657909989	-0.688319981	-1.19480002	240	227	0
0.657909989	-0.688059986	-1.19490004	240	227	0
0.657909989	-0.68779999	-1.19509995	240	227	0
0.657909989	-0.687780023	-1.19509995	240	227	0
0.657909989	-0.687529981	-1.19529998	240	227	0
0.65842998	-0.687709987	-1.1961	240	227	0
0.65842998	-0.687960029	-1.19599998	240	227	0
0.65842998	-0.688579977	-1.19560003	240	227	0
0.65842998	-0.688660026	-1.19560003	240	227	0
0.65842998	-0.688750029	-1.19550002	240	227	0
0.658949971	-0.688970029	-1.19640005	240	227	0
0.658949971	-0.688970029	-1.19640005	240	227	0
0.658949971	-0.689029992	-1.19640005	240	227	0
0.658949971	-0.688839972	-1.19649994	240	227	0
0.658949971	-0.688380003	-1.19669998	240	227	0
0.658949971	-0.687820017	-1.19710004	240	227	0
0.658949971	-0.687569976	-1.19719994	240	227	0
0.658949971	-0.687059999	-1.19749999	240	227	0
0.65842998	-0.686370015	-1.19690001	240	227	0
0.657909989	-0.686469972	-1.19589996	240	227	0
0.657379985	-0.685230017	-1.19560003	240	227	0
0.657379985	-0.687110007	-1.19449997	240	227	0
0.657379985	-0.687160015	-1.19449997	240	227	0
0.656859994	-0.686680019	-1.19379997	240	227	0
0.656340003	-0.686249971	-1.19299996	240	227	0
0.659020007	-0.686020017	-1.19260001	240	227	0
0.659539998	-0.686450005	-1.19340003	240	227	0
0.660059988	-0.686869979	-1.19410002	240	227	0
0.660059988	-0.687139988	-1.19400001	240	227	0
0.660059988	-0.687319994	-1.19389999	240	227	0
0.660059988	-0.687399983	-1.19379997	240	227	0
0.660589993	-0.687300026	-1.19480002	240	227	0
0.661109984	-0.687720001	-1.19560003	240	227	0
0.661109984	-0.688310027	-1.19519997	240	227	0
0.661109984	-0.688350022	-1.19519997	240	227	0
0.661109984	-0.68866998	-1.19500005	240	227	0
0.661109984	-0.688750029	-1.19500005	240	227	0
0.661109984	-0.68888998	-1.19490004	240	227	0
0.661109984	-0.689589977	-1.19449997	240	227	0
0.661109984	-0.689599991	-1.19449997	240	227	0
0.661629975	-0.690039992	-1.19519997	240	227	0
0.661629975	-0.689949989	-1.19529998	240	227	0
0.661629975	-0.689800024	-1.1954	240	227	0
0.661629975	-0.689249992	-1.19570005	240	227	0
0.661629975	-0.688950002	-1.19589996	240	227	0
0.661629975	-0.688939989	-1.19589996	240	227	0
0.661629975	-0.688740015	-1.19599998	240	227	0
0.661629975	-0.688399971	-1.19620001	240	227	0
0.661629975	-0.688149989	-1.19630003	240	227	0
0.661629975	-0.687900007	-1.19649994	240	227	0
0.662150025	-0.688629985	-1.19700003	240	227	0
0.662150025	-0.688570023	-1.19710004	240	227	0
0.662150025	-0.688009977	-1.19739997	240	227	0
0.662150025	-0.687250018	-1.19780004	240	227	0
0.661629975	-0.686559975	-1.19719994	240	227	0
0.661109984	-0.685840011	-1.19669998	240	227	0
0.661109984	-0.686659992	-1.19620001	240	227	0
0.661109984	-0.686909974	-1.1961	240	227	0
0.661629975	-0.685379982	-1.19790006	240	227	0
0.662150025	-0.686100006	-1.19850004	240	227	0
0.662670016	-0.686819971	-1.19910002	240	227	0
0.660510004	-0.687479973	-1.20019996	240	227	0
0.659990013	-0.686760008	-1.19959998	240	227	0
0.659470022	-0.686039984	-1.19910002	240	227	0
0.659990013	-0.684920013	-1.20070004	240	227	0
0.659990013	-0.684509993	-1.20089996	240	227	0
0.659990013	-0.684099972	-1.20120001	240	227	0
0.660510004	-0.683709979	-1.20239997	240	227	0
0.660510004	-0.683290005	-1.2026	240	227	0
0.660510004	-0.682399988	-1.20309997	240	227	0
0.661029994	-0.683290005	-1.20360005	240	227	0
0.662069976	-0.683170021	-1.20560002	240	227	0
0.661549985	-0.68118	-1.20580006	240	227	0
0.661549985	-0.679650009	-1.20659995	240	227	0
0.662590027	-0.679889977	-1.20840001	240	227	0
0.663110018	-0.681400001	-1.20860004	240	227	0
0.663110018	-0.681900024	-1.20829999	240	227	0
0.664160013	-0.683820009	-1.20920002	240	227	0
0.664160013	-0.68434	-1.20889997	240	227	0
0.661979973	-0.684480011	-1.21029997	240	227	0
0.660939991	-0.682550013	-1.20940006	240	227	0
0.660420001	-0.683730006	-1.20780003	240	227	0
0.65990001	-0.683830023	-1.20679998	240	227	0
0.659380019	-0.684369981	-1.20550001	240	227	0
0.658860028	-0.684369981	-1.20449996	240	227	0
0.658860028	-0.683470011	-1.20500004	240	227	0
0.65990001	-0.685630023	-1.20570004	240	227	0
0.65990001	-0.686039984	-1.20550001	240	227	0
0.662069976	-0.685389996	-1.20430005	240	227	0
0.664759994	-0.685150027	-1.20389998	240	227	0
0.665289998	-0.685169995	-1.20490003	240	227	0
0.665809989	-0.684750021	-1.20609999	240	227	0
0.66851002	-0.684029996	-1.20599997	240	227	0
0.66851002	-0.683539987	-1.20630002	240	227	0
0.66851002	-0.682510018	-1.20679998	240	227	0
0.669030011	-0.681349993	-1.20850003	240	227	0
0.667980015	-0.680019975	-1.20729995	240	227	0
0.66851002	-0.678619981	-1.20899999	240	227	0
0.665809989	-0.678849995	-1.20949996	240	227	0
0.665289998	-0.679660022	-1.20799994	240	227	0
0.664759994	-0.679840028	-1.2069	240	227	0
0.665289998	-0.680750012	-1.20739996	240	227	0
0.664240003	-0.680410028	-1.20560002	240	227	0
0.663720012	-0.680530012	-1.20459998	240	227	0
0.664240003	-0.682519972	-1.20449996	240	227	0
0.664240003	-0.683000028	-1.20420003	240	227	0
0.663200021	-0.68305999	-1.20220006	240	227	0
0.663200021	-0.685109973	-1.20099998	240	227	0
0.662150025	-0.68384999	-1.19980001	240	227	0
0.662150025	-0.683449984	-1.20000005	240	227	0
0.664309978	-0.682789981	-1.19879997	240	227	0
0.665359974	-0.68404001	-1.20009995	240	227	0
0.665889978	-0.684870005	-1.20060003	240	227	0
0.666410029	-0.685710013	-1.20109999	240	227	0
0.66693002	-0.686909974	-1.20140004	240	227	0
0.667460024	-0.686969995	-1.20229995	240	227	0
0.666410029	-0.687129974	-1.20029998	240	227	0
0.665889978	-0.68641001	-1.1997	240	227	0
0.665359974	-0.686580002	-1.19860005	240	227	0
0.665359974	-0.687439978	-1.19819999	240	227	0
0.664839983	-0.687269986	-1.19729996	240	227	0
0.664839983	-0.687520027	-1.19710004	240	227	0
0.664839983	-0.687780023	-1.19700003	240	227	0
0.664839983	-0.688340008	-1.19669998	240	227	0
0.664839983	-0.688960016	-1.19630003	240	227	0
0.664839983	-0.689050019	-1.19620001	240	227	0
0.664839983	-0.689440012	-1.19599998	240	227	0
0.664839983	-0.689939976	-1.19570005	240	227	0
0.664839983	-0.690029979	-1.19570005	240	227	0
0.664839983	-0.690140009	-1.19560003	240	227	0
0.664839983	-0.690219998	-1.19560003	240	227	0
0.665359974	-0.690590024	-1.19630003	240	227	0
0.665359974	-0.690630019	-1.19630003	240	227	0
0.665359974	-0.69066	-1.19630003	240	227	0
0.665889978	-0.691049993	-1.19710004	240	227	0
0.665889978	-0.689779997	-1.19780004	240	227	0
0.665889978	-0.689440012	-1.19799995	240	227	0
0.665889978	-0.689239979	-1.19809997	240	227	0
0.665889978	-0.68918997	-1.19809997	240	227	0
0.665359974	-0.688759983	-1.19739997	240	227	0
0.665359974	-0.688510001	-1.19749999	240	227	0
0.665359974	-0.689350009	-1.19710004	240	227	0
0.664309978	-0.688709974	-1.19550002	240	227	0
0.664309978	-0.68870002	-1.19550002	240	227	0
0.664309978	-0.688560009	-1.19550002	240	227	0
0.664309978	-0.688499987	-1.19560003	240	227	0
0.664309978	-0.688499987	-1.19560003	240	227	0
0.664309978	-0.68848002	-1.19560003	240	227	0
0.664309978	-0.68791002	-1.19589996	240	227	0
0.663789988	-0.687489986	-1.19519997	240	227	0
0.663789988	-0.687749982	-1.19500005	240	227	0
0.663789988	-0.688080013	-1.19480002	240	227	0
0.663789988	-0.688380003	-1.1947	240	227	0
0.663789988	-0.688510001	-1.19459999	240	227	0
0.663789988	-0.68878001	-1.19439995	240	227	0
0.663789988	-0.688899994	-1.19439995	240	227	0
0.663789988	-0.689329982	-1.19410002	240	227	0
0.663269997	-0.688950002	-1.19340003	240	227	0
0.663269997	-0.688920021	-1.19340003	240	227	0
0.663269997	-0.688830018	-1.19340003	240	227	0
0.663269997	-0.688319981	-1.19369996	240	227	0
0.663269997	-0.688229978	-1.19379997	240	227	0
0.663269997	-0.688009977	-1.19389999	240	227	0
0.663269997	-0.687510014	-1.19420004	240	227	0
0.663269997	-0.687059999	-1.19439995	240	227	0
0.662739992	-0.686640024	-1.19369996	240	227	0
0.662739992	-0.687170029	-1.19340003	240	227	0
0.662739992	-0.688040018	-1.19289994	240	227	0
0.662739992	-0.688149989	-1.19280005	240	227	0
0.662739992	-0.688350022	-1.19270003	240	227	0
0.662739992	-0.688409984	-1.19270003	240	227	0
0.662220001	-0.686209977	-1.19299996	240	227	0
0.660589993	-0.688549995	-1.19410002	240	227	0
0.660589993	-0.688709974	-1.19400001	240	227	0
0.660589993	-0.688709974	-1.19400001	240	227	0
0.660589993	-0.688809991	-1.19400001	240	227	0
0.660589993	-0.689130008	-1.19379997	240	227	0
0.660059988	-0.688690007	-1.19309998	240	227	0
0.660059988	-0.688639998	-1.19309998	240	227	0
0.660059988	-0.688730001	-1.19299996	240	227	0
0.660059988	-0.688759983	-1.19299996	240	227	0
0.659539998	-0.688220024	-1.19239998	240	227	0
0.659539998	-0.68829	-1.19229996	240	227	0
0.659539998	-0.687740028	-1.19260001	240	227	0
0.659020007	-0.687730014	-1.19159997	240	227	0
0.658949971	-0.69028002	-1.19560003	240	227	0
0.658949971	-0.690259993	-1.19570005	240	227	0
0.659470022	-0.690609992	-1.19640005	240	227	0
0.659470022	-0.690670013	-1.19640005	240	227	0
0.659470022	-0.690460026	-1.19649994	240	227	0
0.659470022	-0.690410018	-1.19649994	240	227	0
0.659470022	-0.690339983	-1.19659996	240	227	0
0.659470022	-0.689909995	-1.19679999	240	227	0
0.659470022	-0.689400017	-1.19710004	240	227	0
0.659470022	-0.68937999	-1.19710004	240	227	0
0.659470022	-0.688809991	-1.19749999	240	227	0
0.659990013	-0.689230025	-1.19819999	240	227	0
0.660510004	-0.689660013	-1.199	240	227	0
0.660510004	-0.690550029	-1.19840002	240	227	0
0.661029994	-0.690680027	-1.19939995	240	227	0
0.663200021	-0.690020025	-1.19819999	240	227	0
0.663200021	-0.689419985	-1.19850004	240	227	0
0.662670016	-0.68900001	-1.19780004	240	227	0
0.662670016	-0.689589977	-1.19749999	240	227	0
0.662670016	-0.689890027	-1.19729996	240	227	0
0.662150025	-0.689279974	-1.19669998	240	227	0
0.662150025	-0.689220011	-1.19669998	240	227	0
0.662150025	-0.689149976	-1.19669998	240	227	0
0.662150025	-0.690110028	-1.19620001	240	227	0
0.662150025	-0.690259993	-1.1961	240	227	0
0.662150025	-0.690460026	-1.19599998	240	227	0
0.663200021	-0.691290021	-1.19749999	240	227	0
0.663720012	-0.691460013	-1.19840002	240	227	0
0.663720012	-0.689849973	-1.19930005	240	227	0
0.664240003	-0.690270007	-1.20000005	240	227	0
0.666410029	-0.689610004	-1.19889998	240	227	0
0.66693002	-0.690039992	-1.19959998	240	227	0
0.667460024	-0.690460026	-1.20029998	240	227	0
0.667980015	-0.690890014	-1.20109999	240	227	0
0.669629991	-0.68979001	-1.19920003	240	227	0
0.669099987	-0.689369977	-1.19850004	240	227	0
0.669099987	-0.689620018	-1.1983	240	227	0
0.668569982	-0.688950002	-1.19770002	240	227	0
0.668049991	-0.688520014	-1.19700003	240	227	0
0.668049991	-0.688570023	-1.19690001	240	227	0
0.668049991	-0.689140022	-1.19659996	240	227	0
0.668049991	-0.689170003	-1.19659996	240	227	0
0.668049991	-0.689939976	-1.19620001	240	227	0
0.667519987	-0.68979001	-1.19529998	240	227	0
0.667519987	-0.689750016	-1.19529998	240	227	0
0.667519987	-0.689960003	-1.19519997	240	227	0
0.667519987	-0.689970016	-1.19519997	240	227	0
0.667519987	-0.689989984	-1.19509995	240	227	0
0.667519987	-0.689350009	-1.19550002	240	227	0
0.667519987	-0.689199984	-1.19560003	240	227	0
0.667519987	-0.689119995	-1.19560003	240	227	0
0.667519987	-0.68888998	-1.19579995	240	227	0
0.667519987	-0.688690007	-1.19589996	240	227	0
0.667519987	-0.688549995	-1.19599998	240	227	0
0.667519987	-0.68809998	-1.19620001	240	227	0
0.667519987	-0.687849998	-1.19640005	240	227	0
0.667519987	-0.687279999	-1.19669998	240	227	0
0.667519987	-0.687030017	-1.19679999	240	227	0
0.667519987	-0.686510026	-1.19719994	240	227	0
0.668049991	-0.687960029	-1.19729996	240	227	0
0.668569982	-0.687619984	-1.19850004	240	227	0
0.668569982	-0.686770022	-1.199	240	227	0
0.669099987	-0.686890006	-1.19990003	240	227	0
0.669629991	-0.686670005	-1.20099998	240	227	0
0.669099987	-0.685469985	-1.20070004	240	227	0
0.668569982	-0.684629977	-1.20019996	240	227	0
0.668049991	-0.683799982	-1.1997	240	227	0
0.667519987	-0.682980001	-1.19920003	240	227	0
0.668049991	-0.685750008	-1.19860005	240	227	0
0.670210004	-0.685679972	-1.19710004	240	227	0
0.670740008	-0.68581003	-1.19799995	240	227	0
0.670740008	-0.68550998	-1.19809997	240	227	0
0.670740008	-0.686950028	-1.19729996	240	227	0
0.670740008	-0.687720001	-1.19690001	240	227	0
0.670740008	-0.688030005	-1.19669998	240	227	0
0.670740008	-0.688279986	-1.19659996	240	227	0
0.670740008	-0.689069986	-1.1961	240	227	0
0.670740008	-0.689310014	-1.19599998	240	227	0
0.670740008	-0.689689994	-1.19570005	240	227	0
0.670740008	-0.689809978	-1.19570005	240	227	0
0.670740008	-0.689970016	-1.19560003	240	227	0
0.670740008	-0.690050006	-1.19550002	240	227	0
0.670740008	-0.690140009	-1.19550002	240	227	0
0.671259999	-0.690569997	-1.19620001	240	227	0
0.671259999	-0.690110028	-1.19649994	240	227	0
0.671259999	-0.689960003	-1.19659996	240	227	0
0.671259999	-0.689350009	-1.19690001	240	227	0
0.671259999	-0.688960016	-1.19710004	240	227	0
0.671259999	-0.68870002	-1.19729996	240	227	0
0.671790004	-0.689130008	-1.19799995	240	227	0
0.671790004	-0.689719975	-1.19770002	240	227	0
0.671790004	-0.690729976	-1.19710004	240	227	0
0.672320008	-0.689549983	-1.19879997	240	227	0
0.672839999	-0.689970016	-1.19949996	240	227	0
0.673370004	-0.690400004	-1.20019996	240	227	0
0.67553997	-0.689729989	-1.19910002	240	227	0
0.676069975	-0.690150023	-1.19980001	240	227	0
0.676599979	-0.690569997	-1.20050001	240	227	0
0.678759992	-0.689899981	-1.19939995	240	227	0
0.678759992	-0.68908	-1.19980001	240	227	0
0.678229988	-0.689480007	-1.19860005	240	227	0
0.677699983	-0.689310014	-1.19780004	240	227	0
0.677699983	-0.689050019	-1.19790006	240	227	0
0.677169979	-0.688629985	-1.19719994	240	227	0
0.677169979	-0.688679993	-1.19710004	240	227	0
0.677169979	-0.688069999	-1.19749999	240	227	0
0.676639974	-0.687960029	-1.19659996	240	227	0
0.676639974	-0.688210011	-1.19640005	240	227	0
0.676639974	-0.688660026	-1.19620001	240	227	0
0.676639974	-0.68878001	-1.1961	240	227	0
0.676639974	-0.688799977	-1.1961	240	227	0
0.676639974	-0.688849986	-1.1961	240	227	0
0.676639974	-0.689100027	-1.19589996	240	227	0
0.676639974	-0.689230025	-1.19579995	240	227	0
0.676639974	-0.689809978	-1.19550002	240	227	0
0.676639974	-0.689920008	-1.1954	240	227	0
0.676639974	-0.68997997	-1.1954	240	227	0
0.676639974	-0.690069973	-1.1954	240	227	0
0.676110029	-0.689580023	-1.1947	240	227	0
0.676110029	-0.689649999	-1.19459999	240	227	0
0.676110029	-0.689660013	-1.19459999	240	227	0
0.676110029	-0.689199984	-1.19490004	240	227	0
0.676110029	-0.68918997	-1.19490004	240	227	0
0.676110029	-0.68908	-1.19500005	240	227	0
0.676110029	-0.689040005	-1.19500005	240	227	0
0.676110029	-0.688409984	-1.19529998	240	227	0
0.676110029	-0.688049972	-1.19550002	240	227	0
0.676110029	-0.687780023	-1.19570005	240	227	0
0.675580025	-0.687359989	-1.19500005	240	227	0
0.675580025	-0.687889993	-1.1947	240	227	0
0.675580025	-0.687950015	-1.19459999	240	227	0
0.675580025	-0.688069999	-1.19459999	240	227	0
0.675580025	-0.688149989	-1.19449997	240	227	0
0.675580025	-0.688870013	-1.19410002	240	227	0
0.675580025	-0.68888998	-1.19410002	240	227	0
0.675580025	-0.689050019	-1.19400001	240	227	0
0.675580025	-0.689180017	-1.19389999	240	227	0
0.675580025	-0.689239979	-1.19389999	240	227	0
0.67505002	-0.68878001	-1.19319999	240	227	0
0.67505002	-0.688759983	-1.19319999	240	227	0
0.67505002	-0.688830018	-1.19309998	240	227	0
0.67505002	-0.68858999	-1.19330001	240	227	0
0.67505002	-0.68809998	-1.19360006	240	227	0
0.67505002	-0.688040018	-1.19360006	240	227	0
0.67505002	-0.687740028	-1.19379997	240	227	0
0.67505002	-0.687529981	-1.19389999	240	227	0
0.67505002	-0.686940014	-1.19420004	240	227	0
0.674520016	-0.68651998	-1.19350004	240	227	0
0.673990011	-0.686680019	-1.19239998	240	227	0
0.673990011	-0.687039971	-1.19219995	240	227	0
0.673990011	-0.687979996	-1.19169998	240	227	0
0.674520016	-0.688380003	-1.19239998	240	227	0
0.674520016	-0.688279986	-1.1925	240	227	0
0.672370017	-0.689050019	-1.19360006	240	227	0
0.672370017	-0.689050019	-1.19360006	240	227	0
0.672370017	-0.68848002	-1.19389999	240	227	0
0.672370017	-0.688350022	-1.19400001	240	227	0
0.672370017	-0.68829	-1.19400001	240	227	0
0.672370017	-0.688210011	-1.19410002	240	227	0
0.672370017	-0.687979996	-1.19420004	240	227	0
0.672370017	-0.687780023	-1.19430006	240	227	0
0.672370017	-0.687759995	-1.19430006	240	227	0
0.672370017	-0.687640011	-1.19439995	240	227	0
0.672370017	-0.687189996	-1.1947	240	227	0
0.672900021	-0.687609971	-1.1954	240	227	0
0.672900021	-0.688139975	-1.19509995	240	227	0
0.672900021	-0.688229978	-1.19500005	240	227	0
0.672900021	-0.688399971	-1.19490004	240	227	0
0.672900021	-0.688499987	-1.19490004	240	227	0
0.672900021	-0.689260006	-1.19439995	240	227	0
0.672900021	-0.689300001	-1.19439995	240	227	0
0.672900021	-0.689320028	-1.19439995	240	227	0
0.672900021	-0.68949002	-1.19430006	240	227	0
0.673430026	-0.689930022	-1.19500005	240	227	0
0.673430026	-0.689899981	-1.19509995	240	227	0
0.673430026	-0.689849973	-1.19509995	240	227	0
0.673430026	-0.68957001	-1.19519997	240	227	0
0.673430026	-0.689540029	-1.19529998	240	227	0
0.673430026	-0.689450026	-1.19529998	240	227	0
0.673430026	-0.689440012	-1.19529998	240	227	0
0.673430026	-0.689289987	-1.1954	240	227	0
0.673950016	-0.690230012	-1.19579995	240	227	0
0.673950016	-0.690259993	-1.19579995	240	227	0
0.674480021	-0.689530015	-1.19719994	240	227	0
0.674480021	-0.689469993	-1.19729996	240	227	0
0.674480021	-0.688880026	-1.19760001	240	227	0
0.675010026	-0.689300001	-1.1983	240	227	0
0.675010026	-0.689350009	-1.1983	240	227	0
0.675010026	-0.690909982	-1.19739997	240	227	0
0.673950016	-0.688709974	-1.19669998	240	227	0
0.673950016	-0.688459992	-1.19690001	240	227	0
0.673950016	-0.688210011	-1.19700003	240	227	0
0.673430026	-0.688030005	-1.1961	240	227	0
0.673430026	-0.687470019	-1.19640005	240	227	0
0.673430026	-0.68671	-1.19690001	240	227	0
0.673430026	-0.686439991	-1.19700003	240	227	0
0.673430026	-0.685859978	-1.19739997	240	227	0
0.673950016	-0.686569989	-1.19790006	240	227	0
0.672900021	-0.685140014	-1.19679999	240	227	0
0.672370017	-0.686119974	-1.19529998	240	227	0
0.672900021	-0.686800003	-1.19589996	240	227	0
0.671840012	-0.687030017	-1.19379997	240	227	0
0.671840012	-0.687470019	-1.19350004	240	227	0
0.671310008	-0.686930001	-1.19280005	240	227	0
0.671310008	-0.686930001	-1.19280005	240	227	0
0.671310008	-0.687279999	-1.19260001	240	227	0
0.671310008	-0.688180029	-1.19210005	240	227	0
0.671840012	-0.688629985	-1.19280005	240	227	0
0.671840012	-0.688650012	-1.19280005	240	227	0
0.671840012	-0.688650012	-1.19280005	240	227	0
0.671840012	-0.68858999	-1.19289994	240	227	0
0.671840012	-0.688530028	-1.19289994	240	227	0
0.671310008	-0.686339974	-1.19319999	240	227	0
0.669160008	-0.68700999	-1.19430006	240	227	0
0.669160008	-0.687600017	-1.19400001	240	227	0
0.669160008	-0.687950015	-1.19379997	240	227	0
0.669160008	-0.688799977	-1.19330001	240	227	0
0.669160008	-0.688870013	-1.19330001	240	227	0
0.669160008	-0.688880026	-1.19330001	240	227	0
0.669679999	-0.689279974	-1.19400001	240	227	0
0.669679999	-0.689320028	-1.19400001	240	227	0
0.669679999	-0.689140022	-1.19410002	240	227	0
0.669679999	-0.688319981	-1.19459999	240	227	0
0.669679999	-0.688019991	-1.1947	240	227	0
0.669679999	-0.688000023	-1.19480002	240	227	0
0.669679999	-0.687960029	-1.19480002	240	227	0
0.669679999	-0.687699974	-1.19490004	240	227	0
0.669679999	-0.687430024	-1.19509995	240	227	0
0.669679999	-0.686619997	-1.19550002	240	227	0
0.669679999	-0.686370015	-1.19570005	240	227	0
0.669679999	-0.685840011	-1.19599998	240	227	0
0.670210004	-0.687849998	-1.19579995	240	227	0
0.670210004	-0.68791002	-1.19579995	240	227	0
0.670210004	-0.688310027	-1.19560003	240	227	0
0.670210004	-0.688440025	-1.19550002	240	227	0
0.670210004	-0.68848002	-1.19550002	240	227	0
0.670210004	-0.688960016	-1.19519997	240	227	0
0.670210004	-0.689149976	-1.19509995	240	227	0
0.670210004	-0.689509988	-1.19490004	240	227	0
0.670210004	-0.68967998	-1.19480002	240	227	0
0.670210004	-0.68967998	-1.19480002	240	227	0
0.670210004	-0.689729989	-1.1947	240	227	0
0.668569982	-0.690810025	-1.19659996	240	227	0
0.668569982	-0.690779984	-1.19669998	240	227	0
0.666999996	-0.68949002	-1.19449997	240	227	0
0.666999996	-0.689469993	-1.19449997	240	227	0
0.666999996	-0.689440012	-1.19449997	240	227	0
0.666999996	-0.689390004	-1.19449997	240	227	0
0.666999996	-0.689279974	-1.19459999	240	227	0
0.666999996	-0.689209998	-1.19459999	240	227	0
0.666999996	-0.689549983	-1.19439995	240	227	0
0.666469991	-0.689140022	-1.19369996	240	227	0
0.666469991	-0.689090014	-1.19369996	240	227	0
0.666469991	-0.689019978	-1.19369996	240	227	0
0.666469991	-0.688539982	-1.19400001	240	227	0
0.666469991	-0.688189983	-1.19420004	240	227	0
0.666469991	-0.688139975	-1.19430006	240	227	0
0.666469991	-0.688049972	-1.19430006	240	227	0
0.666469991	-0.687839985	-1.19439995	240	227	0
0.666469991	-0.687839985	-1.19439995	240	227	0
0.666469991	-0.687510014	-1.19459999	240	227	0
0.666469991	-0.687250018	-1.19480002	240	227	0
0.666999996	-0.687669992	-1.19550002	240	227	0
0.666999996	-0.688250005	-1.19519997	240	227	0
0.666999996	-0.688260019	-1.19519997	240	227	0
0.666999996	-0.688380003	-1.19509995	240	227	0
0.66595	-0.687409997	-1.19369996	240	227	0
0.66595	-0.687359989	-1.19369996	240	227	0
0.66595	-0.686819971	-1.19400001	240	227	0
0.665419996	-0.686399996	-1.19330001	240	227	0
0.66595	-0.68799001	-1.19340003	240	227	0
0.66595	-0.688229978	-1.19319999	240	227	0
0.66595	-0.688690007	-1.19299996	240	227	0
0.66595	-0.688719988	-1.19289994	240	227	0
0.665419996	-0.68791002	-1.19239998	240	227	0
0.667580009	-0.68690002	-1.19149995	240	227	0
0.668099999	-0.686869979	-1.1925	240	227	0
0.668099999	-0.686160028	-1.19289994	240	227	0
0.668630004	-0.687170029	-1.19330001	240	227	0
0.668630004	-0.687380016	-1.19309998	240	227	0
0.668630004	-0.688090026	-1.19270003	240	227	0
0.668630004	-0.688350022	-1.19260001	240	227	0
0.668630004	-0.688440025	-1.1925	240	227	0
0.668630004	-0.688470006	-1.1925	240	227	0
0.668630004	-0.688470006	-1.1925	240	227	0
0.668099999	-0.684279978	-1.19389999	240	227	0
0.66595	-0.684949994	-1.19509995	240	227	0
0.663789988	-0.685609996	-1.19630003	240	227	0
0.664309978	-0.686320007	-1.19679999	240	227	0
0.664309978	-0.689450026	-1.19500005	240	227	0
0.664309978	-0.689559996	-1.19500005	240	227	0
0.664309978	-0.689729989	-1.19490004	240	227	0
0.664309978	-0.689769983	-1.19480002	240	227	0
0.664309978	-0.68979001	-1.19480002	240	227	0
0.672940016	-0.687129974	-1.19019997	240	227	0
0.676110029	-0.686720014	-1.19630003	240	227	0
0.676110029	-0.685609996	-1.19690001	240	227	0
0.676639974	-0.68633002	-1.19749999	240	227	0
0.677169979	-0.687039971	-1.19809997	240	227	0
0.677699983	-0.687730014	-1.19869995	240	227	0
0.677699983	-0.686580002	-1.19930005	240	227	0
0.678229988	-0.685580015	-1.20089996	240	227	0
0.678229988	-0.684750021	-1.20130002	240	227	0
0.678759992	-0.685580015	-1.20179999	240	227	0
0.678759992	-0.684360027	-1.20249999	240	227	0
0.679289997	-0.684369981	-1.20350003	240	227	0
0.679820001	-0.684369981	-1.20449996	240	227	0
0.680350006	-0.684369981	-1.20550001	240	227	0
0.680350006	-0.683889985	-1.20570004	240	227	0
0.679820001	-0.681949973	-1.20589995	240	227	0
0.679289997	-0.680999994	-1.20539999	240	227	0
0.678759992	-0.681630015	-1.20410001	240	227	0
0.677699983	-0.681309998	-1.20229995	240	227	0
0.67553997	-0.682940006	-1.20290005	240	227	0
0.676599979	-0.684199989	-1.20420003	240	227	0
0.676599979	-0.682810009	-1.20500004	240	227	0
0.67711997	-0.682720006	-1.20599997	240	227	0
0.677649975	-0.682619989	-1.20700002	240	227	0
0.678179979	-0.681949973	-1.20840001	240	227	0
0.678709984	-0.681379974	-1.20969999	240	227	0
0.679769993	-0.682709992	-1.21089995	240	227	0
0.679769993	-0.681609988	-1.21150005	240	227	0
0.679769993	-0.680999994	-1.21179998	240	227	0
0.679239988	-0.679970026	-1.21140003	240	227	0
0.679769993	-0.679769993	-1.21249998	240	227	0
0.679769993	-0.67918998	-1.21290004	240	227	0
0.681410015	-0.678110003	-1.21089995	240	227	0
0.681410015	-0.679310024	-1.21029997	240	227	0
0.683589995	-0.678640008	-1.20910001	240	227	0
0.684119999	-0.68137002	-1.20850003	240	227	0
0.684650004	-0.681299984	-1.20949996	240	227	0
0.683589995	-0.681450009	-1.20749998	240	227	0
0.682519972	-0.681699991	-1.20539999	240	227	0
0.682519972	-0.682219982	-1.20510006	240	227	0
0.681990027	-0.680739999	-1.20500004	240	227	0
0.681460023	-0.681900024	-1.20340002	240	227	0
0.681990027	-0.683700025	-1.2033	240	227	0
0.681990027	-0.68453002	-1.20280004	240	227	0
0.682519972	-0.683700025	-1.20430005	240	227	0
0.68305999	-0.684960008	-1.20449996	240	227	0
0.685760021	-0.684700012	-1.20410001	240	227	0
0.685760021	-0.685109973	-1.20389998	240	227	0
0.685760021	-0.68550998	-1.20360005	240	227	0
0.685760021	-0.68592	-1.20340002	240	227	0
0.684689999	-0.685490012	-1.20169997	240	227	0
0.684159994	-0.685490012	-1.20070004	240	227	0
0.684159994	-0.685909986	-1.20050001	240	227	0
0.684689999	-0.686680019	-1.20099998	240	227	0
0.684689999	-0.688220024	-1.20009995	240	227	0
0.684159994	-0.688059986	-1.19920003	240	227	0
0.684159994	-0.688830018	-1.19879997	240	227	0
0.684159994	-0.689390004	-1.19850004	240	227	0
0.684689999	-0.689809978	-1.19920003	240	227	0
0.68362999	-0.688970029	-1.19770002	240	227	0
0.68362999	-0.688149989	-1.19819999	240	227	0
0.683089972	-0.687479973	-1.19760001	240	227	0
0.683089972	-0.686659992	-1.19809997	240	227	0
0.683089972	-0.685769975	-1.19860005	240	227	0
0.68362999	-0.686489999	-1.19920003	240	227	0
0.68362999	-0.686789989	-1.199	240	227	0
0.685790002	-0.68581003	-1.19799995	240	227	0
0.686320007	-0.685940027	-1.19889998	240	227	0
0.686320007	-0.686529994	-1.19860005	240	227	0
0.686320007	-0.686819971	-1.19840002	240	227	0
0.685790002	-0.687219977	-1.19719994	240	227	0
0.685790002	-0.68829	-1.19659996	240	227	0
0.685790002	-0.688740015	-1.19630003	240	227	0
0.685790002	-0.688929975	-1.19620001	240	227	0
0.685790002	-0.689390004	-1.19589996	240	227	0
0.685790002	-0.689890027	-1.19560003	240	227	0
0.685790002	-0.690180004	-1.19550002	240	227	0
0.685249984	-0.689740002	-1.19480002	240	227	0
0.685249984	-0.689729989	-1.19480002	240	227	0
0.685249984	-0.689689994	-1.19480002	240	227	0
0.685249984	-0.689639986	-1.19480002	240	227	0
0.685249984	-0.689629972	-1.19480002	240	227	0
0.685249984	-0.689760029	-1.1947	240	227	0
0.685249984	-0.689119995	-1.19509995	240	227	0
0.685249984	-0.688660026	-1.1954	240	227	0
0.685249984	-0.688570023	-1.1954	240	227	0
0.685249984	-0.688440025	-1.19550002	240	227	0
0.685249984	-0.688120008	-1.19570005	240	227	0
0.685249984	-0.687860012	-1.19579995	240	227	0
0.68471998	-0.687489986	-1.19509995	240	227	0
0.68471998	-0.687439978	-1.19509995	240	227	0
0.68471998	-0.68720001	-1.19519997	240	227	0
0.68471998	-0.688030005	-1.19480002	240	227	0
0.68471998	-0.688030005	-1.19480002	240	227	0
0.68471998	-0.688069999	-1.1947	240	227	0
0.68471998	-0.688390017	-1.19459999	240	227	0
0.68471998	-0.688849986	-1.19430006	240	227	0
0.68471998	-0.689130008	-1.19410002	240	227	0
0.68471998	-0.689159989	-1.19410002	240	227	0
0.684189975	-0.688880026	-1.19330001	240	227	0
0.684189975	-0.688880026	-1.19330001	240	227	0
0.684189975	-0.688839972	-1.19330001	240	227	0
0.684189975	-0.688310027	-1.19360006	240	227	0
0.684189975	-0.687609971	-1.19400001	240	227	0
0.684189975	-0.687550008	-1.19410002	240	227	0
0.684189975	-0.687290013	-1.19420004	240	227	0
0.684189975	-0.687020004	-1.19439995	240	227	0
0.683650017	-0.686600029	-1.19360006	240	227	0
0.683120012	-0.686179996	-1.19289994	240	227	0
0.682579994	-0.685760021	-1.19219995	240	227	0
0.683120012	-0.687340021	-1.19219995	240	227	0
0.683650017	-0.688009977	-1.19280005	240	227	0
0.683650017	-0.688109994	-1.19280005	240	227	0
0.683650017	-0.688440025	-1.19260001	240	227	0
0.683650017	-0.688459992	-1.19260001	240	227	0
0.681490004	-0.689140022	-1.19369996	240	227	0
0.681490004	-0.689119995	-1.19379997	240	227	0
0.681490004	-0.689109981	-1.19379997	240	227	0
0.681490004	-0.689100027	-1.19379997	240	227	0
0.681490004	-0.688690007	-1.19400001	240	227	0
0.681490004	-0.688570023	-1.19410002	240	227	0
0.681490004	-0.687870026	-1.19449997	240	227	0
0.681490004	-0.687810004	-1.19449997	240	227	0
0.681490004	-0.687330008	-1.19480002	240	227	0
0.681490004	-0.687279999	-1.19480002	240	227	0
0.68096	-0.686860025	-1.19410002	240	227	0
0.68096	-0.687449992	-1.19369996	240	227	0
0.68096	-0.687960029	-1.19340003	240	227	0
0.68096	-0.688019991	-1.19340003	240	227	0
0.68096	-0.688260019	-1.19330001	240	227	0
0.68096	-0.688619971	-1.19309998	240	227	0
0.68096	-0.688719988	-1.19299996	240	227	0
0.68096	-0.688750029	-1.19299996	240	227	0
0.680429995	-0.687940001	-1.1925	240	227	0
0.680429995	-0.687380016	-1.19280005	240	227	0
0.680429995	-0.686439991	-1.19330001	240	227	0
0.678269982	-0.687110007	-1.19449997	240	227	0
0.678269982	-0.687699974	-1.19420004	240	227	0
0.678269982	-0.68791002	-1.19410002	240	227	0
0.678269982	-0.688210011	-1.19389999	240	227	0
0.678269982	-0.688279986	-1.19389999	240	227	0
0.678269982	-0.688759983	-1.19360006	240	227	0
0.678269982	-0.688910007	-1.19350004	240	227	0
0.678269982	-0.688950002	-1.19350004	240	227	0
0.678269982	-0.688970029	-1.19350004	240	227	0
0.678269982	-0.68900001	-1.19340003	240	227	0
0.677739978	-0.688449979	-1.19280005	240	227	0
0.677739978	-0.688549995	-1.19270003	240	227	0
0.677739978	-0.688220024	-1.19289994	240	227	0
0.677739978	-0.688199997	-1.19289994	240	227	0
0.677739978	-0.688090026	-1.19299996	240	227	0
0.677739978	-0.687629998	-1.19319999	240	227	0
0.677739978	-0.687479973	-1.19330001	240	227	0
0.677739978	-0.686689973	-1.19379997	240	227	0
0.677209973	-0.686269999	-1.19309998	240	227	0
0.676680028	-0.686429977	-1.19200003	240	227	0
0.678799987	-0.687529981	-1.19529998	240	227	0
0.678799987	-0.688059986	-1.19500005	240	227	0
0.678799987	-0.688790023	-1.19449997	240	227	0
0.678799987	-0.688950002	-1.19439995	240	227	0
0.678799987	-0.689350009	-1.19420004	240	227	0
0.678799987	-0.689360023	-1.19420004	240	227	0
0.678799987	-0.689419985	-1.19420004	240	227	0
0.679340005	-0.689819992	-1.19490004	240	227	0
0.679340005	-0.689729989	-1.19500005	240	227	0
0.679340005	-0.689559996	-1.19509995	240	227	0
0.679340005	-0.689249992	-1.19519997	240	227	0
0.679340005	-0.688979983	-1.1954	240	227	0
0.679340005	-0.688660026	-1.19560003	240	227	0
0.679340005	-0.688530028	-1.19570005	240	227	0
0.679340005	-0.687960029	-1.19599998	240	227	0
0.679870009	-0.688380003	-1.19669998	240	227	0
0.679870009	-0.688430011	-1.19669998	240	227	0
0.679870009	-0.688639998	-1.19659996	240	227	0
0.679870009	-0.688970029	-1.19640005	240	227	0
0.679870009	-0.689019978	-1.19640005	240	227	0
0.680400014	-0.689419985	-1.19710004	240	227	0
0.680400014	-0.689689994	-1.19690001	240	227	0
0.680400014	-0.689050019	-1.19729996	240	227	0
0.680400014	-0.688799977	-1.19749999	240	227	0
0.680400014	-0.688549995	-1.19760001	240	227	0
0.680400014	-0.688239992	-1.19780004	240	227	0
0.680930018	-0.688409984	-1.19869995	240	227	0
0.680930018	-0.689220011	-1.19819999	240	227	0
0.680930018	-0.68967998	-1.19790006	240	227	0
0.681460023	-0.689639986	-1.19889998	240	227	0
0.681990027	-0.690069973	-1.1997	240	227	0
0.682519972	-0.690490007	-1.20039999	240	227	0
0.681460023	-0.688319981	-1.1997	240	227	0
0.681460023	-0.687170029	-1.20039999	240	227	0
0.681460023	-0.68651998	-1.20070004	240	227	0
0.681460023	-0.685750008	-1.20120001	240	227	0
0.680930018	-0.684899986	-1.20070004	240	227	0
0.680930018	-0.684499979	-1.20089996	240	227	0
0.680930018	-0.684090018	-1.20109999	240	227	0
0.680930018	-0.686450005	-1.19980001	240	227	0
0.680930018	-0.687039971	-1.19939995	240	227	0
0.680400014	-0.686919987	-1.19850004	240	227	0
0.680400014	-0.687210023	-1.19840002	240	227	0
0.679870009	-0.68730998	-1.19729996	240	227	0
0.682030022	-0.687699974	-1.19550002	240	227	0
0.682030022	-0.687950015	-1.1954	240	227	0
0.682030022	-0.687969983	-1.1954	240	227	0
0.682030022	-0.68829	-1.19519997	240	227	0
0.682030022	-0.688350022	-1.19519997	240	227	0
0.682030022	-0.688489974	-1.19509995	240	227	0
0.682030022	-0.688960016	-1.19480002	240	227	0
0.682030022	-0.689499974	-1.19449997	240	227	0
0.682030022	-0.689559996	-1.19449997	240	227	0
0.682030022	-0.689580023	-1.19449997	240	227	0
0.682030022	-0.689589977	-1.19449997	240	227	0
0.682560027	-0.690020025	-1.19519997	240	227	0
0.682560027	-0.689899981	-1.19529998	240	227	0
0.682560027	-0.689840019	-1.19529998	240	227	0
0.682560027	-0.689809978	-1.19529998	240	227	0
0.682560027	-0.689729989	-1.1954	240	227	0
0.682560027	-0.689010024	-1.19579995	240	227	0
0.682560027	-0.688920021	-1.19579995	240	227	0
0.682560027	-0.688709974	-1.19589996	240	227	0
0.682560027	-0.68870002	-1.19599998	240	227	0
0.682560027	-0.688120008	-1.19630003	240	227	0
0.682560027	-0.687870026	-1.19640005	240	227	0
0.683089972	-0.688539982	-1.19700003	240	227	0
0.683089972	-0.68900001	-1.19679999	240	227	0
0.683089972	-0.689170003	-1.19669998	240	227	0
0.683089972	-0.689249992	-1.19659996	240	227	0
0.683089972	-0.68957001	-1.19640005	240	227	0
0.683089972	-0.690079987	-1.1961	240	227	0
0.683089972	-0.690199971	-1.1961	240	227	0
0.684159994	-0.691269994	-1.19739997	240	227	0
0.686320007	-0.690509975	-1.19630003	240	227	0
0.686860025	-0.690779984	-1.19710004	240	227	0
0.686860025	-0.691009998	-1.19700003	240	227	0
0.686860025	-0.690159976	-1.19739997	240	227	0
0.686320007	-0.689499974	-1.19679999	240	227	0
0.686320007	-0.688709974	-1.19729996	240	227	0
0.686860025	-0.689130008	-1.19799995	240	227	0
0.687390029	-0.689549983	-1.19879997	240	227	0
0.687929988	-0.689409971	-1.19980001	240	227	0
0.687929988	-0.689159989	-1.20000005	240	227	0
0.688459992	-0.689059973	-1.20099998	240	227	0
0.687390029	-0.687960029	-1.1997	240	227	0
0.687390029	-0.686420023	-1.20060003	240	227	0
0.687390029	-0.685649991	-1.20099998	240	227	0
0.686860025	-0.685649991	-1.20000005	240	227	0
0.689559996	-0.684970021	-1.19980001	240	227	0
0.690090001	-0.68581003	-1.20029998	240	227	0
0.690630019	-0.686580002	-1.20079994	240	227	0
0.690630019	-0.688120008	-1.20000005	240	227	0
0.690090001	-0.688220024	-1.19889998	240	227	0
0.690090001	-0.688470006	-1.19879997	240	227	0
0.690090001	-0.688730001	-1.19860005	240	227	0
0.690090001	-0.689289987	-1.1983	240	227	0
0.689559996	-0.688870013	-1.19760001	240	227	0
0.689559996	-0.688920021	-1.19749999	240	227	0
0.689559996	-0.68949002	-1.19719994	240	227	0
0.689559996	-0.689509988	-1.19719994	240	227	0
0.689559996	-0.689660013	-1.19710004	240	227	0
0.689559996	-0.689890027	-1.19700003	240	227	0
0.689559996	-0.690519989	-1.19659996	240	227	0
0.689019978	-0.690129995	-1.19589996	240	227	0
0.689019978	-0.690320015	-1.19579995	240	227	0
0.689019978	-0.689740002	-1.1961	240	227	0
0.689019978	-0.689040005	-1.19649994	240	227	0
0.689019978	-0.688899994	-1.19659996	240	227	0
0.689019978	-0.688449979	-1.19679999	240	227	0
0.68848002	-0.68829	-1.19599998	240	227	0
0.68848002	-0.688030005	-1.1961	240	227	0
0.68848002	-0.688560009	-1.19579995	240	227	0
0.68848002	-0.688610017	-1.19579995	240	227	0
0.68848002	-0.688820004	-1.19570005	240	227	0
0.68848002	-0.689130008	-1.19550002	240	227	0
0.68848002	-0.689279974	-1.1954	240	227	0
0.68848002	-0.689800024	-1.19509995	240	227	0
0.68848002	-0.689819992	-1.19509995	240	227	0
0.68848002	-0.689920008	-1.19500005	240	227	0
0.687950015	-0.689499974	-1.19430006	240	227	0
0.687950015	-0.689469993	-1.19430006	240	227	0
0.687950015	-0.689209998	-1.19449997	240	227	0
0.687950015	-0.689019978	-1.19459999	240	227	0
0.687950015	-0.689010024	-1.19459999	240	227	0
0.687950015	-0.688189983	-1.19500005	240	227	0
0.687950015	-0.688180029	-1.19509995	240	227	0
0.687950015	-0.687600017	-1.1954	240	227	0
0.687409997	-0.686940014	-1.19480002	240	227	0
0.687409997	-0.687179983	-1.19459999	240	227	0
0.687409997	-0.687439978	-1.19449997	240	227	0
0.687409997	-0.687770009	-1.19430006	240	227	0
0.687409997	-0.687889993	-1.19420004	240	227	0
0.687409997	-0.688130021	-1.19410002	240	227	0
0.687409997	-0.688350022	-1.19400001	240	227	0
0.687409997	-0.68888998	-1.19369996	240	227	0
0.687409997	-0.688950002	-1.19360006	240	227	0
0.687409997	-0.68900001	-1.19360006	240	227	0
0.687409997	-0.689010024	-1.19360006	240	227	0
0.687409997	-0.689040005	-1.19360006	240	227	0
0.687409997	-0.689059973	-1.19360006	240	227	0
0.687409997	-0.689069986	-1.19360006	240	227	0
0.686879992	-0.688619971	-1.19280005	240	227	0
0.686339974	-0.688199997	-1.19210005	240	227	0
0.686339974	-0.688180029	-1.19210005	240	227	0
0.68581003	-0.687430024	-1.19159997	240	227	0
0.68581003	-0.68592	-1.1925	240	227	0
0.686339974	-0.686339974	-1.19319999	240	227	0
0.686879992	-0.686760008	-1.19389999	240	227	0
0.686879992	-0.687349975	-1.19360006	240	227	0
0.68957001	-0.686500013	-1.19350004	240	227	0
0.690110028	-0.686919987	-1.19420004	240	227	0
0.690110028	-0.687510014	-1.19389999	240	227	0
0.690110028	-0.687629998	-1.19379997	240	227	0
0.690639973	-0.687870026	-1.19459999	240	227	0
0.690639973	-0.68791002	-1.19459999	240	227	0
0.690639973	-0.687929988	-1.19459999	240	227	0
0.690639973	-0.687340021	-1.19490004	240	227	0
0.691179991	-0.687759995	-1.19570005	240	227	0
0.691179991	-0.687510014	-1.19579995	240	227	0
0.691179991	-0.688350022	-1.19529998	240	227	0
0.691179991	-0.688350022	-1.19529998	240	227	0
0.691179991	-0.688549995	-1.19519997	240	227	0
0.691179991	-0.688709974	-1.19509995	240	227	0
0.691179991	-0.689180017	-1.19480002	240	227	0
0.691179991	-0.689369977	-1.1947	240	227	0
0.691179991	-0.689450026	-1.1947	240	227	0
0.691179991	-0.689580023	-1.19459999	240	227	0
0.691179991	-0.689610004	-1.19459999	240	227	0
0.691179991	-0.689639986	-1.19459999	240	227	0
0.690639973	-0.689199984	-1.19389999	240	227	0
0.690639973	-0.689109981	-1.19389999	240	227	0
0.690639973	-0.689220011	-1.19379997	240	227	0
0.690639973	-0.689230025	-1.19379997	240	227	0
0.690639973	-0.688750029	-1.19410002	240	227	0
0.690110028	-0.688629985	-1.19319999	240	227	0
0.690110028	-0.68878001	-1.19309998	240	227	0
0.690110028	-0.68878001	-1.19309998	240	227	0
0.690110028	-0.688809991	-1.19309998	240	227	0
0.68957001	-0.688319981	-1.19239998	240	227	0
0.68957001	-0.68829	-1.19239998	240	227	0
0.68957001	-0.688009977	-1.19260001	240	227	0
0.689029992	-0.687839985	-1.19169998	240	227	0
0.689029992	-0.687969983	-1.19159997	240	227	0
0.691179991	-0.687160015	-1.19050002	240	227	0
0.692260027	-0.687919974	-1.19200003	240	227	0
0.692260027	-0.687829971	-1.19210005	240	227	0
0.692260027	-0.688120008	-1.19190001	240	227	0
0.692799985	-0.688539982	-1.19260001	240	227	0
0.692799985	-0.688539982	-1.19260001	240	227	0
0.692799985	-0.688449979	-1.19270003	240	227	0
0.693340003	-0.688849986	-1.19340003	240	227	0
0.693340003	-0.688929975	-1.19340003	240	227	0
0.693340003	-0.688950002	-1.19340003	240	227	0
0.693340003	-0.688579977	-1.19360006	240	227	0
0.693340003	-0.68848002	-1.19360006	240	227	0
0.693880022	-0.689209998	-1.19420004	240	227	0
0.693880022	-0.689310014	-1.19410002	240	227	0
0.693880022	-0.689339995	-1.19410002	240	227	0
0.693880022	-0.689360023	-1.19410002	240	227	0
0.69441998	-0.68979001	-1.19480002	240	227	0
0.69441998	-0.689740002	-1.19490004	240	227	0
0.69441998	-0.68957001	-1.19500005	240	227	0
0.69441998	-0.689329982	-1.19509995	240	227	0
0.69441998	-0.689019978	-1.19529998	240	227	0
0.69441998	-0.688499987	-1.19560003	240	227	0
0.69441998	-0.688489974	-1.19560003	240	227	0
0.69441998	-0.68791002	-1.19589996	240	227	0
0.693880022	-0.687489986	-1.19519997	240	227	0
0.693880022	-0.687250018	-1.19529998	240	227	0
0.693880022	-0.686680019	-1.19570005	240	227	0
0.693340003	-0.687070012	-1.19449997	240	227	0
0.693880022	-0.687950015	-1.19490004	240	227	0
0.693880022	-0.688080013	-1.19490004	240	227	0
0.693880022	-0.688120008	-1.19480002	240	227	0
0.692799985	-0.687240005	-1.19340003	240	227	0
0.692799985	-0.687189996	-1.19340003	240	227	0
0.694949985	-0.687650025	-1.19159997	240	227	0
0.695490003	-0.68799001	-1.19229996	240	227	0
0.695490003	-0.688149989	-1.19219995	240	227	0
0.695490003	-0.688269973	-1.19219995	240	227	0
0.696039975	-0.688690007	-1.19289994	240	227	0
0.696039975	-0.688600004	-1.19299996	240	227	0
0.696039975	-0.688310027	-1.19309998	240	227	0
0.696579993	-0.688629985	-1.19389999	240	227	0
0.696579993	-0.688639998	-1.19389999	240	227	0
0.696579993	-0.688939989	-1.19369996	240	227	0
0.696579993	-0.689090014	-1.19360006	240	227	0
0.696579993	-0.689090014	-1.19360006	240	227	0
0.697120011	-0.689469993	-1.19439995	240	227	0
0.697120011	-0.689520001	-1.19439995	240	227	0
0.697120011	-0.689520001	-1.19439995	240	227	0
0.697660029	-0.689880013	-1.19509995	240	227	0
0.697660029	-0.689840019	-1.19519997	240	227	0
0.697660029	-0.689719975	-1.19519997	240	227	0
0.697660029	-0.689090014	-1.19560003	240	227	0
0.697660029	-0.688960016	-1.19570005	240	227	0
0.697660029	-0.688639998	-1.19589996	240	227	0
0.697660029	-0.688059986	-1.19620001	240	227	0
0.697660029	-0.687510014	-1.19649994	240	227	0
0.697660029	-0.687250018	-1.19659996	240	227	0
0.697660029	-0.686999977	-1.19679999	240	227	0
0.698199987	-0.686600029	-1.19799995	240	227	0
0.698740005	-0.68730998	-1.19860005	240	227	0
0.698740005	-0.688899994	-1.19760001	240	227	0
0.698740005	-0.688950002	-1.19760001	240	227	0
0.698740005	-0.689530015	-1.19729996	240	227	0
0.698740005	-0.689849973	-1.19710004	240	227	0
0.698740005	-0.690199971	-1.19690001	240	227	0
0.698740005	-0.69076997	-1.19659996	240	227	0
0.699280024	-0.691190004	-1.19729996	240	227	0
