-0.532249987	-0.365880013	-1.76339996	210	146	88
-0.533010006	-0.364679992	-1.76660001	210	146	88
-0.53591001	-0.364520013	-1.7658	210	146	88
-0.538810015	-0.364369988	-1.7651	210	146	88
-0.541700006	-0.365999997	-1.76390004	210	146	88
-0.54144001	-0.367579997	-1.76259995	210	146	88
-0.540929973	-0.368950009	-1.76040006	210	146	88
-0.540929973	-0.370689988	-1.75999999	210	146	88
-0.543560028	-0.372040004	-1.7579	210	146	88
-0.54697001	-0.372280002	-1.75909996	210	146	88
-0.547490001	-0.370970011	-1.76129997	210	146	88
-0.547230005	-0.369019985	-1.76069999	210	146	88
-0.550119996	-0.368860006	-1.75999999	210	146	88
-0.550390005	-0.370799989	-1.76049995	210	146	88
-0.553279996	-0.37064001	-1.75979996	210	146	88
-0.553009987	-0.368699998	-1.75919998	210	146	88
-0.553539991	-0.367330015	-1.76139998	210	146	88
-0.550909996	-0.367689997	-1.76320004	210	146	88
-0.551440001	-0.366299987	-1.76540005	210	146	88
-0.548539996	-0.366459996	-1.76619995	210	146	88
-0.548280001	-0.368050009	-1.76489997	210	146	88
-0.544860005	-0.367810011	-1.76380002	210	146	88
-0.545120001	-0.366230011	-1.7651	210	146	88
-0.544080019	-0.36897999	-1.76059997	210	146	88
-0.54460001	-0.37112999	-1.76209998	210	146	88
-0.556169987	-0.368730009	-1.75929999	210	146	88
-0.556429982	-0.370669991	-1.75989997	210	146	88
-0.559319973	-0.370510012	-1.75909996	210	146	88
-0.558790028	-0.371820003	-1.75689995	210	146	88
-0.558520019	-0.373349994	-1.75559998	210	146	88
-0.55825001	-0.374900013	-1.7543	210	146	88
-0.555360019	-0.371589988	-1.75580001	210	146	88
-0.552749991	-0.371950001	-1.75750005	210	146	88
-0.549329996	-0.371719986	-1.75639999	210	146	88
-0.561940014	-0.371850014	-1.75699997	210	146	88
-0.562210023	-0.37033999	-1.75829995	210	146	88
-0.562749982	-0.368990004	-1.76059997	210	146	88
-0.563300014	-0.367619991	-1.76279998	210	146	88
-0.562749982	-0.365460008	-1.76129997	210	146	88
-0.56013	-0.365819991	-1.76310003	210	146	88
-0.56013	-0.36759001	-1.76269996	210	146	88
-0.559859991	-0.369159997	-1.76139998	210	146	88
-0.557240009	-0.367760003	-1.76349998	210	146	88
-0.557240009	-0.365979999	-1.76390004	210	146	88
-0.558040023	-0.364780009	-1.76709998	210	146	88
-0.555400014	-0.365130007	-1.76880002	210	146	88
-0.555670023	-0.363599986	-1.7701	210	146	88
-0.555670023	-0.361900002	-1.77040005	210	146	88
-0.556200027	-0.360579997	-1.77269995	210	146	88
-0.556460023	-0.359059989	-1.77400005	210	146	88
-0.559369981	-0.360610008	-1.77279997	210	146	88
-0.55963999	-0.362509996	-1.77339995	210	146	88
-0.559909999	-0.364410013	-1.77400005	210	146	88
-0.563090026	-0.364439994	-1.77419996	210	146	88
-0.562820017	-0.362540007	-1.77359998	210	146	88
-0.562550008	-0.360639989	-1.773	210	146	88
-0.565729976	-0.362379998	-1.77279997	210	146	88
-0.565999985	-0.364279985	-1.77339995	210	146	88
-0.568910003	-0.364109993	-1.77260005	210	146	88
-0.568910003	-0.362410009	-1.77289999	210	146	88
-0.568910003	-0.360700011	-1.77330005	210	146	88
-0.571820021	-0.360540003	-1.77250004	210	146	88
-0.571269989	-0.361860007	-1.77020001	210	146	88
-0.571550012	-0.363750011	-1.77079999	210	146	88
-0.574180007	-0.363389999	-1.76909995	210	146	88
-0.573899984	-0.361499995	-1.76849997	210	146	88
-0.576810002	-0.361330003	-1.76769996	210	146	88
-0.577080011	-0.363220006	-1.76820004	210	146	88
-0.577359974	-0.365139991	-1.76880002	210	146	88
-0.577080011	-0.366739988	-1.76750004	210	146	88
-0.580540001	-0.366959989	-1.76859999	210	146	88
-0.580820024	-0.365359992	-1.76989996	210	146	88
-0.580540001	-0.363440007	-1.76929998	210	146	88
-0.583169997	-0.364800006	-1.76719999	210	146	88
-0.582889974	-0.366400003	-1.76590002	210	146	88
-0.585219979	-0.365830004	-1.76320004	210	146	88
-0.588400006	-0.365850002	-1.76329994	210	146	88
-0.589250028	-0.364650011	-1.76639998	210	146	88
-0.586070001	-0.364630014	-1.76629996	210	146	88
-0.586910009	-0.363480002	-1.76950002	210	146	88
-0.584010005	-0.363660008	-1.77040005	210	146	88
-0.581659973	-0.362509996	-1.77339995	210	146	88
-0.592149973	-0.366259992	-1.76520002	210	146	88
-0.592719972	-0.364859998	-1.76750004	210	146	88
-0.587549984	-0.367049992	-1.76010001	210	146	88
-0.587260008	-0.368609995	-1.75880003	210	146	88
-0.586690009	-0.36996001	-1.75650001	210	146	88
-0.586690009	-0.371670008	-1.75619996	210	146	88
-0.586130023	-0.372990012	-1.75390005	210	146	88
-0.588720024	-0.372610003	-1.75209999	210	146	88
-0.591600001	-0.37244001	-1.75129998	210	146	88
-0.589579999	-0.371490002	-1.75530005	210	146	88
-0.589860022	-0.369980007	-1.75660002	210	146	88
-0.592750013	-0.369800001	-1.75580001	210	146	88
-0.592750013	-0.371509999	-1.75539994	210	146	88
-0.595920026	-0.371529996	-1.75549996	210	146	88
-0.596210003	-0.370020002	-1.75680006	210	146	88
-0.596499979	-0.368470013	-1.75810003	210	146	88
-0.599680007	-0.36849001	-1.75820005	210	146	88
-0.59908998	-0.369839996	-1.75590003	210	146	88
-0.598800004	-0.37134999	-1.75460005	210	146	88
-0.598510027	-0.372869998	-1.75329995	210	146	88
-0.597930014	-0.374220014	-1.75109994	210	146	88
-0.601100028	-0.374240011	-1.75119996	210	146	88
-0.601390004	-0.372689992	-1.75250006	210	146	88
-0.601679981	-0.371170014	-1.75380003	210	146	88
-0.602270007	-0.36985001	-1.75600004	210	146	88
-0.602559984	-0.368310004	-1.75730002	210	146	88
-0.605740011	-0.370059997	-1.75699997	210	146	88
-0.606329978	-0.368710011	-1.75929999	210	146	88
-0.595340014	-0.372850001	-1.75329995	210	146	88
-0.590719998	-0.368829995	-1.75979996	210	146	88
-0.591009974	-0.367260009	-1.76110005	210	146	88
-0.582679987	-0.372770011	-1.7529	210	146	88
-0.580079973	-0.371419996	-1.755	210	146	88
-0.577189982	-0.371600002	-1.75580001	210	146	88
-0.576919973	-0.369690001	-1.75530005	210	146	88
-0.577470005	-0.368339986	-1.75750005	210	146	88
-0.574310005	-0.368319988	-1.75740004	210	146	88
-0.574029982	-0.369859993	-1.75610006	210	146	88
-0.573759973	-0.371369988	-1.75479996	210	146	88
-0.570869982	-0.37154001	-1.75559998	210	146	88
-0.571150005	-0.370029986	-1.75689995	210	146	88
-0.571150005	-0.368290007	-1.7572	210	146	88
-0.568260014	-0.36846	-1.75810003	210	146	88
-0.568260014	-0.370200008	-1.75769997	210	146	88
-0.567709982	-0.371520013	-1.75539994	210	146	88
-0.564559996	-0.371490002	-1.75530005	210	146	88
-0.565370023	-0.370370001	-1.75849998	210	146	88
-0.565649986	-0.368829995	-1.75979996	210	146	88
-0.566190004	-0.367460012	-1.76199996	210	146	88
-0.567009985	-0.366270006	-1.76520002	210	146	88
-0.567279994	-0.364670008	-1.76660001	210	146	88
-0.564649999	-0.365029991	-1.76830006	210	146	88
-0.570729971	-0.364899993	-1.76760006	210	146	88
-0.569899976	-0.366100013	-1.76440001	210	146	88
-0.573080003	-0.366129994	-1.76460004	210	146	88
-0.572250009	-0.367320001	-1.76139998	210	146	88
-0.575139999	-0.367150009	-1.76059997	210	146	88
-0.578310013	-0.367170006	-1.76069999	210	146	88
-0.580640018	-0.366609991	-1.75800002	210	146	88
-0.580919981	-0.368559986	-1.7586	210	146	88
-0.581200004	-0.370510012	-1.75909996	210	146	88
-0.584089994	-0.370330006	-1.75829995	210	146	88
-0.584089994	-0.368589997	-1.75870001	210	146	88
-0.583530009	-0.366439998	-1.7572	210	146	88
-0.583809972	-0.37184	-1.75699997	210	146	88
-0.568539977	-0.366899997	-1.75940001	210	146	88
-0.579240024	-0.372550011	-1.75179994	210	146	88
-0.576080024	-0.37252	-1.75170004	210	146	88
-0.57446003	-0.365310013	-1.76960003	210	146	88
-0.574729979	-0.36037001	-1.77160001	210	146	88
-0.578190029	-0.360590011	-1.77269995	210	146	88
-0.572640002	-0.359400004	-1.77559996	210	146	88
-0.569729984	-0.359560013	-1.77639997	210	146	88
-0.566269994	-0.361059994	-1.77499998	210	146	88
-0.55302	-0.358839989	-1.77289999	210	146	88
-0.552760005	-0.360359997	-1.77160001	210	146	88
-0.549589992	-0.360320002	-1.77139997	210	146	88
-0.549589992	-0.358610004	-1.77170002	210	146	88
-0.549329996	-0.361829996	-1.7701	210	146	88
-0.549589992	-0.363730013	-1.77069998	210	146	88
-0.549589992	-0.365460008	-1.77030003	210	146	88
-0.552760005	-0.36548999	-1.77049994	210	146	88
-0.55223	-0.363370001	-1.76900005	210	146	88
-0.551970005	-0.361479998	-1.76839995	210	146	88
-0.546679974	-0.363889992	-1.77149999	210	146	88
-0.546419978	-0.361990005	-1.77090001	210	146	88
-0.546940029	-0.36067	-1.77310002	210	146	88
-0.547200024	-0.359149992	-1.7744	210	146	88
-0.544290006	-0.359310001	-1.77520001	210	146	88
-0.544030011	-0.360830009	-1.77390003	210	146	88
-0.54351002	-0.362150013	-1.77160001	210	146	88
-0.543770015	-0.364039987	-1.77219999	210	146	88
-0.540610015	-0.364010006	-1.77209997	210	146	88
-0.541119993	-0.362690002	-1.77429998	210	146	88
-0.541119993	-0.360980004	-1.77460003	210	146	88
-0.541379988	-0.359459996	-1.77590001	210	146	88
-0.537699997	-0.36074999	-1.77349997	210	146	88
-0.537699997	-0.362459987	-1.77320004	210	146	88
-0.536930025	-0.363579988	-1.76999998	210	146	88
-0.542999983	-0.365189999	-1.76900005	210	146	88
-0.546159983	-0.365229994	-1.76919997	210	146	88
-0.555140018	-0.366730005	-1.76750004	210	146	88
-0.560400009	-0.364230007	-1.76440001	210	146	88
-0.525200009	-0.370480001	-1.75899994	210	146	88
-0.524450004	-0.371589988	-1.75580001	210	146	88
-0.523949981	-0.372909993	-1.75349998	210	146	88
-0.523699999	-0.374460012	-1.75220001	210	146	88
-0.523450017	-0.376020014	-1.75090003	210	146	88
-0.520820022	-0.374619991	-1.7529	210	146	88
-0.52056998	-0.372660011	-1.75240004	210	146	88
-0.520070016	-0.375770003	-1.74969995	210	146	88
-0.526069999	-0.373899996	-1.74960005	210	146	88
-0.525569975	-0.375259995	-1.74730003	210	146	88
-0.525059998	-0.376639992	-1.745	210	146	88
-0.525059998	-0.378399998	-1.74469995	210	146	88
-0.522199988	-0.378560007	-1.74539995	210	146	88
-0.522199988	-0.376800001	-1.74580002	210	146	88
-0.521440029	-0.379640013	-1.74220002	210	146	88
-0.520940006	-0.38093999	-1.73989999	210	146	88
-0.520690024	-0.382499993	-1.73860002	210	146	88
-0.520190001	-0.383830011	-1.73629999	210	146	88
-0.520190001	-0.38556999	-1.73590004	210	146	88
-0.522800028	-0.385199994	-1.73430002	210	146	88
-0.522800028	-0.383459985	-1.73459995	210	146	88
-0.523299992	-0.382129997	-1.73689997	210	146	88
-0.523800015	-0.380780011	-1.7392	210	146	88
-0.524309993	-0.379480004	-1.74150002	210	146	88
-0.527170002	-0.379319996	-1.74070001	210	146	88
-0.530030012	-0.379159987	-1.74000001	210	146	88
-0.530539989	-0.377880007	-1.74220002	210	146	88
-0.533150017	-0.377510011	-1.74059999	210	146	88
-0.532890022	-0.379000008	-1.7392	210	146	88
-0.532890022	-0.380710006	-1.73889995	210	146	88
-0.536270022	-0.380959988	-1.74000001	210	146	88
-0.536010027	-0.379040003	-1.73940003	210	146	88
-0.53678	-0.377959996	-1.74259996	210	146	88
-0.539390028	-0.379290015	-1.74059999	210	146	88
-0.538609982	-0.380389988	-1.73740005	210	146	88
-0.538609982	-0.382149994	-1.73699999	210	146	88
-0.538349986	-0.38369	-1.73570001	210	146	88
-0.538079977	-0.385219991	-1.73430002	210	146	88
-0.537819982	-0.386739999	-1.73300004	210	146	88
-0.53470999	-0.384959996	-1.73319995	210	146	88
-0.534200013	-0.386269987	-1.73090005	210	146	88
-0.531859994	-0.385129988	-1.73389995	210	146	88
-0.531859994	-0.383390009	-1.73430002	210	146	88
-0.531350017	-0.381229997	-1.73280001	210	146	88
-0.528500021	-0.381390005	-1.73360002	210	146	88
-0.528500021	-0.383139998	-1.73319995	210	146	88
-0.528500021	-0.384869993	-1.73280001	210	146	88
-0.525650024	-0.383300006	-1.73389995	210	146	88
-0.526160002	-0.381969988	-1.73619998	210	146	88
-0.526409984	-0.380419999	-1.73749995	210	146	88
-0.529519975	-0.380459994	-1.73769999	210	146	88
-0.535229981	-0.383650005	-1.73549998	210	146	88
-0.534969985	-0.381689996	-1.7349	210	146	88
-0.527930021	-0.378239989	-1.74389994	210	146	88
-0.527930021	-0.376480013	-1.74430001	210	146	88
-0.527930021	-0.374689996	-1.74469995	210	146	88
-0.527930021	-0.37292999	-1.74510002	210	146	88
-0.530799985	-0.372779995	-1.74430001	210	146	88
-0.530799985	-0.374529988	-1.74399996	210	146	88
-0.531310022	-0.376729995	-1.74549997	210	146	88
-0.534179986	-0.374779999	-1.74510002	210	146	88
-0.534179986	-0.373019993	-1.74549997	210	146	88
-0.537559986	-0.375019997	-1.74619997	210	146	88
-0.538079977	-0.377220005	-1.74769998	210	146	88
-0.54095	-0.378820002	-1.74660003	210	146	88
-0.541469991	-0.377469987	-1.74890006	210	146	88
-0.540690005	-0.375070006	-1.7464	210	146	88
-0.541209996	-0.373710006	-1.74870002	210	146	88
-0.538079977	-0.373670012	-1.74849999	210	146	88
-0.544350028	-0.373750001	-1.74890006	210	146	88
-0.543560028	-0.374900013	-1.7457	210	146	88
-0.543560028	-0.37669	-1.74530005	210	146	88
-0.543560028	-0.378450006	-1.74489999	210	146	88
-0.544080019	-0.380560011	-1.7464	210	146	88
-0.534690022	-0.376980007	-1.74660003	210	146	88
-0.517589986	-0.385939986	-1.73759997	210	146	88
-0.516839981	-0.381819993	-1.73549998	210	146	88
-0.516839981	-0.380059987	-1.73590004	210	146	88
-0.513740003	-0.380010009	-1.73570001	210	146	88
-0.513740003	-0.381770015	-1.73529994	210	146	88
-0.513740003	-0.383520007	-1.7349	210	146	88
-0.513979971	-0.385470003	-1.73549998	210	146	88
-0.513490021	-0.386779994	-1.73319995	210	146	88
-0.516340017	-0.386619985	-1.73249996	210	146	88
-0.51868999	-0.386040002	-1.7299	210	146	88
-0.518190026	-0.387340009	-1.72759998	210	146	88
-0.517939985	-0.388859987	-1.7263	210	146	88
-0.517440021	-0.390150011	-1.72399998	210	146	88
-0.514349997	-0.390100002	-1.72370005	210	146	88
-0.514599979	-0.388590008	-1.72510004	210	146	88
-0.512009978	-0.388960004	-1.72669995	210	146	88
-0.512009978	-0.387239993	-1.72710001	210	146	88
-0.509660006	-0.387820005	-1.72969997	210	146	88
-0.506569982	-0.387760013	-1.72950006	210	146	88
-0.506569982	-0.389490008	-1.72909999	210	146	88
-0.508920014	-0.388909996	-1.72650003	210	146	88
-0.508189976	-0.389990002	-1.72329998	210	146	88
-0.507939994	-0.39151001	-1.72189999	210	146	88
-0.504620016	-0.391240001	-1.72070003	210	146	88
-0.504620016	-0.389510006	-1.72109997	210	146	88
-0.501789987	-0.389670014	-1.72179997	210	146	88
-0.501299977	-0.390960008	-1.71949995	210	146	88
-0.501060009	-0.39249	-1.71819997	210	146	88
-0.500580013	-0.393779993	-1.71589994	210	146	88
-0.500329971	-0.395249993	-1.71459997	210	146	88
-0.497509986	-0.393720001	-1.71560001	210	146	88
-0.494690001	-0.39388001	-1.71630001	210	146	88
-0.494690001	-0.39557001	-1.71589994	210	146	88
-0.494690001	-0.392150015	-1.71669996	210	146	88
-0.495400012	-0.391059995	-1.72000003	210	146	88
-0.492570013	-0.39120999	-1.72060001	210	146	88
-0.49823001	-0.390899986	-1.71930003	210	146	88
-0.49823001	-0.392639995	-1.71889997	210	146	88
-0.498950005	-0.389820009	-1.72249997	210	146	88
-0.499430001	-0.388529986	-1.72479999	210	146	88
-0.499909997	-0.387230009	-1.72710001	210	146	88
-0.499909997	-0.385500014	-1.72749996	210	146	88
-0.502749979	-0.388799995	-1.72599995	210	146	88
-0.496120006	-0.388249993	-1.72360003	210	146	88
-0.496360004	-0.390190005	-1.72409999	210	146	88
-0.49138999	-0.395289987	-1.71469998	210	146	88
-0.490909994	-0.393159986	-1.71319997	210	146	88
-0.491149992	-0.391660005	-1.71459997	210	146	88
-0.488559991	-0.393750012	-1.71580005	210	146	88
-0.488559991	-0.395440012	-1.71539998	210	146	88
-0.503400028	-0.393620014	-1.71519995	210	146	88
-0.503400028	-0.391900003	-1.71560001	210	146	88
-0.506470025	-0.393680006	-1.7155	210	146	88
-0.505980015	-0.394939989	-1.71319997	210	146	88
-0.505490005	-0.396200001	-1.71089995	210	146	88
-0.505490005	-0.397929996	-1.7105	210	146	88
-0.508300006	-0.397769988	-1.7098	210	146	88
-0.508549988	-0.396259993	-1.7112	210	146	88
-0.50880003	-0.39478001	-1.71249998	210	146	88
-0.509540021	-0.393739998	-1.71570003	210	146	88
-0.510029972	-0.392439991	-1.71800005	210	146	88
-0.506959975	-0.392390013	-1.71780002	210	146	88
-0.51286	-0.394010007	-1.71689999	210	146	88
-0.512359977	-0.39526999	-1.71459997	210	146	88
-0.512109995	-0.396750003	-1.71329999	210	146	88
-0.511619985	-0.39805001	-1.71099997	210	146	88
-0.514429986	-0.397879988	-1.71029997	210	146	88
-0.517250001	-0.397720009	-1.70959997	210	146	88
-0.51801002	-0.396640003	-1.71280003	210	146	88
-0.518260002	-0.39515999	-1.7141	210	146	88
-0.518760026	-0.393900007	-1.71640003	210	146	88
-0.519010007	-0.392390013	-1.71780002	210	146	88
-0.519270003	-0.390859991	-1.7191	210	146	88
-0.522090018	-0.390700012	-1.7184	210	146	88
-0.522090018	-0.392439991	-1.71800005	210	146	88
-0.521839976	-0.393949986	-1.71659994	210	146	88
-0.521329999	-0.395209998	-1.71440005	210	146	88
-0.524670005	-0.395469993	-1.7155	210	146	88
-0.524670005	-0.393779993	-1.71589994	210	146	88
-0.52749002	-0.393610001	-1.71519995	210	146	88
-0.52749002	-0.395310014	-1.7148	210	146	88
-0.527230024	-0.396789998	-1.71350002	210	146	88
-0.525430024	-0.392699987	-1.7191	210	146	88
-0.525179982	-0.390749991	-1.71860003	210	146	88
-0.516690016	-0.391240001	-1.72080004	210	146	88
-0.513849974	-0.391400009	-1.72150004	210	146	88
-0.513360023	-0.39271	-1.71920002	210	146	88
-0.515940011	-0.392340004	-1.71749997	210	146	88
-0.515690029	-0.393839985	-1.71619999	210	146	88
-0.515439987	-0.395319998	-1.71490002	210	146	88
-0.515439987	-0.397029996	-1.71449995	210	146	88
-0.511269987	-0.391779989	-1.72309995	210	146	88
-0.511269987	-0.390049994	-1.72350001	210	146	88
-0.502430022	-0.396140009	-1.71070004	210	146	88
-0.50266999	-0.394659996	-1.71200001	210	146	88
-0.499370009	-0.396079987	-1.71039999	210	146	88
-0.496549994	-0.394540012	-1.71150005	210	146	88
-0.493250012	-0.395960003	-1.70990002	210	146	88
-0.49278	-0.397249997	-1.7076	210	146	88
-0.492300004	-0.398530006	-1.70529997	210	146	88
-0.492540002	-0.400460005	-1.70580006	210	146	88
-0.492060006	-0.401710004	-1.70350003	210	146	88
-0.489250004	-0.401870012	-1.70420003	210	146	88
-0.489250004	-0.400169998	-1.70459998	210	146	88
-0.489490002	-0.398689985	-1.70589995	210	146	88
-0.489960015	-0.397410005	-1.70819998	210	146	88
-0.489490002	-0.395240009	-1.70669997	210	146	88
-0.487390012	-0.397780001	-1.70990002	210	146	88
-0.487390012	-0.396050006	-1.71029997	210	146	88
-0.484340012	-0.394279987	-1.71039999	210	146	88
-0.48387	-0.395550013	-1.70809996	210	146	88
-0.48387	-0.397280008	-1.70770001	210	146	88
-0.48387	-0.398999989	-1.70729995	210	146	88
-0.483399987	-0.400260001	-1.70500004	210	146	88
-0.486209989	-0.400110006	-1.70430005	210	146	88
-0.48596999	-0.401580006	-1.70299995	210	146	88
-0.486680001	-0.39884001	-1.70659995	210	146	88
-0.480360001	-0.400189996	-1.70469999	210	146	88
-0.480589986	-0.398710012	-1.70599997	210	146	88
-0.47755	-0.400339991	-1.70529997	210	146	88
-0.481290013	-0.397650003	-1.70930004	210	146	88
-0.495350003	-0.400299996	-1.70510006	210	146	88
-0.495350003	-0.398600012	-1.70550001	210	146	88
-0.495350003	-0.396869987	-1.70589995	210	146	88
-0.495350003	-0.395150006	-1.70640004	210	146	88
-0.498400003	-0.396939993	-1.7062	210	146	88
-0.498160005	-0.398440003	-1.70490003	210	146	88
-0.498160005	-0.400139987	-1.70449996	210	146	88
-0.498400003	-0.402060002	-1.70500004	210	146	88
-0.501209974	-0.401899993	-1.70430005	210	146	88
-0.500959992	-0.399980009	-1.70379996	210	146	88
-0.500959992	-0.398279995	-1.70420003	210	146	88
-0.501209974	-0.396780014	-1.70550001	210	146	88
-0.504260004	-0.398559988	-1.70539999	210	146	88
-0.503769994	-0.39982	-1.70309997	210	146	88
-0.503279984	-0.401069999	-1.70079994	210	146	88
-0.503030002	-0.402520001	-1.69949996	210	146	88
-0.502789974	-0.403970003	-1.69809997	210	146	88
-0.499749988	-0.403910011	-1.69790006	210	146	88
-0.500230014	-0.402689993	-1.70019996	210	146	88
-0.502049983	-0.404949993	-1.69490004	210	146	88
-0.502049983	-0.406619996	-1.69449997	210	146	88
-0.495590001	-0.402220011	-1.70570004	210	146	88
-0.503960013	-0.388130009	-1.73109996	210	146	88
-0.503480017	-0.38598001	-1.72959995	210	146	88
-0.504209995	-0.384880006	-1.73280001	210	146	88
-0.504450023	-0.383359998	-1.7342	210	146	88
-0.507049978	-0.382999986	-1.73249996	210	146	88
-0.507049978	-0.384730011	-1.73210001	210	146	88
-0.507049978	-0.386460006	-1.73179996	210	146	88
-0.510389984	-0.386720002	-1.73290002	210	146	88
-0.510150015	-0.38477999	-1.73239994	210	146	88
-0.509899974	-0.382840008	-1.73179996	210	146	88
-0.515349984	-0.387499988	-1.72829998	210	146	88
-0.516589999	-0.383359998	-1.7342	210	146	88
-0.510879993	-0.381929994	-1.73599994	210	146	88
-0.510879993	-0.380169988	-1.73640001	210	146	88
-0.508270025	-0.38053	-1.73800004	210	146	88
-0.508270025	-0.382290006	-1.73759997	210	146	88
-0.518329978	-0.379590005	-1.74199998	210	146	88
-0.518830001	-0.378309995	-1.74419999	210	146	88
-0.51621002	-0.378670007	-1.74590003	210	146	88
-0.515959978	-0.376700014	-1.74530005	210	146	88
-0.515709996	-0.37470001	-1.74479997	210	146	88
-0.512849987	-0.378410012	-1.74469995	210	146	88
-0.512109995	-0.379489988	-1.74150002	210	146	88
-0.514729977	-0.379130006	-1.73979998	210	146	88
-0.518079996	-0.375930011	-1.74179995	210	146	88
-0.526830018	-0.372750014	-1.75279999	210	146	88
-0.529709995	-0.372599989	-1.75209999	210	146	88
-0.529959977	-0.371080011	-1.75339997	210	146	88
-0.532840014	-0.370920002	-1.75259995	210	146	88
-0.533100009	-0.372839987	-1.75320005	210	146	88
-0.535979986	-0.372680008	-1.75250006	210	146	88
-0.536230028	-0.371160001	-1.75380003	210	146	88
-0.533349991	-0.369610012	-1.75489998	210	146	88
-0.527589977	-0.371639997	-1.75600004	210	146	88
-0.551150024	-0.372480005	-1.75150001	210	146	88
-0.554030001	-0.372310013	-1.7507	210	146	88
-0.55430001	-0.374260008	-1.75129998	210	146	88
-0.554030001	-0.375820011	-1.75	210	146	88
-0.557169974	-0.375860006	-1.75010002	210	146	88
-0.56032002	-0.375889987	-1.75030005	210	146	88
-0.560050011	-0.373930007	-1.74969995	210	146	88
-0.56032002	-0.372379988	-1.75100005	210	146	88
-0.559780002	-0.377279997	-1.74800003	210	146	88
-0.562919974	-0.377310008	-1.74820006	210	146	88
-0.562110007	-0.37845999	-1.745	210	146	88
-0.561559975	-0.379750013	-1.74269998	210	146	88
-0.561020017	-0.381060004	-1.74039996	210	146	88
-0.557879984	-0.381029993	-1.74030006	210	146	88
-0.554750025	-0.380989999	-1.74010003	210	146	88
-0.555289984	-0.379689991	-1.74240005	210	146	88
-0.555830002	-0.378399998	-1.74460006	210	146	88
-0.55637002	-0.377039999	-1.74689996	210	146	88
-0.553229988	-0.377009988	-1.74679995	210	146	88
-0.550090015	-0.375180006	-1.74699998	210	146	88
-0.550090015	-0.37342	-1.74730003	210	146	88
-0.549290001	-0.376359999	-1.74380004	210	146	88
-0.549290001	-0.378120005	-1.74339998	210	146	88
-0.549030006	-0.379610002	-1.7421	210	146	88
-0.548759997	-0.381119996	-1.74070001	210	146	88
-0.548229992	-0.382470012	-1.7385	210	146	88
-0.547959983	-0.384020001	-1.73720002	210	146	88
-0.544579983	-0.383769989	-1.73599994	210	146	88
-0.544319987	-0.38530001	-1.73469996	210	146	88
-0.552160025	-0.381370008	-1.74189997	210	146	88
-0.552160025	-0.379649997	-1.74220002	210	146	88
-0.552160025	-0.377950013	-1.74259996	210	146	88
-0.558969975	-0.378430009	-1.74479997	210	146	88
-0.558700025	-0.37992999	-1.74349999	210	146	88
-0.544250011	-0.391440004	-1.72169995	210	146	88
-0.54707998	-0.391270012	-1.72090006	210	146	88
-0.549910009	-0.391099989	-1.72010005	210	146	88
-0.552200019	-0.392230004	-1.71710002	210	146	88
-0.551389992	-0.39331001	-1.71389997	210	146	88
-0.550849974	-0.394569993	-1.71159995	210	146	88
-0.550580025	-0.396050006	-1.71029997	210	146	88
-0.550040007	-0.397350013	-1.70799994	210	146	88
-0.549759984	-0.398849994	-1.70669997	210	146	88
-0.552850008	-0.398889989	-1.70679998	210	146	88
-0.553390026	-0.397610009	-1.70910001	210	146	88
-0.553390026	-0.395880014	-1.70949996	210	146	88
-0.553939998	-0.394609988	-1.71179998	210	146	88
-0.554480016	-0.393350005	-1.71399999	210	146	88
-0.55675	-0.392740011	-1.71140003	210	146	88
-0.55675	-0.394430012	-1.71099997	210	146	88
-0.55647999	-0.395909995	-1.70969999	210	146	88
-0.556209981	-0.397430003	-1.70829999	210	146	88
-0.555930018	-0.398930013	-1.70700002	210	146	88
-0.555379987	-0.400200009	-1.70469999	210	146	88
-0.558189988	-0.40000999	-1.70389998	210	146	88
-0.56099999	-0.399830014	-1.70309997	210	146	88
-0.563520014	-0.399419993	-1.70140004	210	146	88
-0.563239992	-0.400900006	-1.70009995	210	146	88
-0.563799977	-0.403019994	-1.70159996	210	146	88
-0.563239992	-0.404240012	-1.69930005	210	146	88
-0.560440004	-0.404430002	-1.70009995	210	146	88
-0.560440004	-0.402759999	-1.70050001	210	146	88
-0.557640016	-0.402949989	-1.70130002	210	146	88
-0.557359993	-0.401050001	-1.70070004	210	146	88
-0.557359993	-0.404399991	-1.69990003	210	146	88
-0.556540012	-0.405389994	-1.69669998	210	146	88
-0.555710018	-0.406379998	-1.69350004	210	146	88
-0.553189993	-0.406789988	-1.69519997	210	146	88
-0.552919984	-0.404900014	-1.6947	210	146	88
-0.550119996	-0.403430015	-1.69589996	210	146	88
-0.550670028	-0.402209997	-1.69809997	210	146	88
-0.551209986	-0.400970012	-1.70039999	210	146	88
-0.554009974	-0.400790006	-1.69959998	210	146	88
-0.553740025	-0.402240008	-1.6983	210	146	88
-0.554009974	-0.404139996	-1.69879997	210	146	88
-0.552030027	-0.399940014	-1.70360005	210	146	88
-0.549579978	-0.404639989	-1.69360006	210	146	88
-0.549579978	-0.406300008	-1.69319999	210	146	88
-0.548759997	-0.40733999	-1.69000006	210	146	88
-0.548219979	-0.408600003	-1.68770003	210	146	88
-0.547950029	-0.410079986	-1.68630004	210	146	88
-0.547950029	-0.411769986	-1.68589997	210	146	88
-0.545159996	-0.410259992	-1.68710005	210	146	88
-0.545430005	-0.408780009	-1.68850005	210	146	88
-0.545430005	-0.407070011	-1.68889999	210	146	88
-0.551270008	-0.412039995	-1.68700004	210	146	88
-0.551549971	-0.410569996	-1.68840003	210	146	88
-0.551549971	-0.408859998	-1.68879998	210	146	88
-0.552100003	-0.407609999	-1.6911	210	146	88
-0.554610014	-0.407189995	-1.68939996	210	146	88
-0.554610014	-0.408899993	-1.68900001	210	146	88
-0.554059982	-0.410160005	-1.68669999	210	146	88
-0.553780019	-0.411630005	-1.68529999	210	146	88
-0.556840003	-0.411659986	-1.68550003	210	146	88
-0.557389975	-0.410420001	-1.68780005	210	146	88
-0.560169995	-0.410230011	-1.68700004	210	146	88
-0.562390029	-0.411280006	-1.6839	210	146	88
-0.565450013	-0.411309987	-1.68410003	210	146	88
-0.564890027	-0.412519991	-1.68180001	210	146	88
-0.564320028	-0.413729995	-1.67949998	210	146	88
-0.564320028	-0.415430009	-1.67910004	210	146	88
-0.563759983	-0.416660011	-1.67680001	210	146	88
-0.566529989	-0.416469991	-1.676	210	146	88
-0.567089975	-0.41523999	-1.67830002	210	146	88
-0.567659974	-0.413989991	-1.68060005	210	146	88
-0.56795001	-0.412550002	-1.68190002	210	146	88
-0.568229973	-0.411119998	-1.68330002	210	146	88
-0.571290016	-0.414490014	-1.68260002	210	146	88
-0.574069977	-0.414290011	-1.68180001	210	146	88
-0.574069977	-0.412609994	-1.68219995	210	146	88
-0.574360013	-0.41117999	-1.68350005	210	146	88
-0.576839983	-0.412420005	-1.68139994	210	146	88
-0.576259971	-0.413630009	-1.67910004	210	146	88
-0.576259971	-0.415329993	-1.67869997	210	146	88
-0.573490024	-0.415529996	-1.67949998	210	146	88
-0.570429981	-0.415499985	-1.67939997	210	146	88
-0.579029977	-0.415129989	-1.67789996	210	146	88
-0.578740001	-0.413199991	-1.67739999	210	146	88
-0.581799984	-0.413230002	-1.67750001	210	146	88
-0.581799984	-0.414920002	-1.67700005	210	146	88
-0.581799984	-0.416619986	-1.67659998	210	146	88
-0.584569991	-0.416409999	-1.67579997	210	146	88
-0.584860027	-0.414950013	-1.67709994	210	146	88
-0.584569991	-0.413020015	-1.67659998	210	146	88
-0.585160017	-0.411810011	-1.6789	210	146	88
-0.58239001	-0.412010014	-1.67970002	210	146	88
-0.57960999	-0.412220001	-1.68050003	210	146	88
-0.580200016	-0.411009997	-1.68280005	210	146	88
-0.578000009	-0.411659986	-1.68550003	210	146	88
-0.578159988	-0.416130006	-1.67470002	210	146	88
-0.577579975	-0.41734001	-1.6724	210	146	88
-0.577289999	-0.418760002	-1.671	210	146	88
-0.576709986	-0.4199	-1.6688	210	146	88
-0.579750001	-0.41832	-1.66929996	210	146	88
-0.580049992	-0.420170009	-1.66980004	210	146	88
-0.582799971	-0.418350011	-1.66939998	210	146	88
-0.583100021	-0.41692999	-1.67069995	210	146	88
-0.580340028	-0.417129993	-1.67159998	210	146	88
-0.583389997	-0.420430005	-1.67089999	210	146	88
-0.579169989	-0.421099991	-1.66659999	210	146	88
-0.581629992	-0.420659989	-1.66489995	210	146	88
-0.574819982	-0.417540014	-1.67320001	210	146	88
-0.575399995	-0.41633001	-1.67550004	210	146	88
-0.571770012	-0.417510003	-1.67309999	210	146	88
-0.571770012	-0.41584	-1.67349994	210	146	88
-0.569289982	-0.416269988	-1.67519999	210	146	88
-0.572149992	-0.411830008	-1.68620002	210	146	88
-0.572430015	-0.410369992	-1.6875	210	146	88
-0.572430015	-0.408659995	-1.68789995	210	146	88
-0.572430015	-0.406949997	-1.68840003	210	146	88
-0.569369972	-0.406919986	-1.6882	210	146	88
-0.569369972	-0.408630013	-1.68780005	210	146	88
-0.569649994	-0.410560012	-1.68830001	210	146	88
-0.566579998	-0.410530001	-1.6882	210	146	88
-0.566869974	-0.409049988	-1.68949997	210	146	88
-0.566299975	-0.406890005	-1.68809998	210	146	88
-0.566579998	-0.405400008	-1.68939996	210	146	88
-0.569649994	-0.405429989	-1.68959999	210	146	88
-0.56408	-0.405820012	-1.69120002	210	146	88
-0.563520014	-0.407079995	-1.68889999	210	146	88
-0.56408	-0.409240007	-1.69029999	210	146	88
-0.563799977	-0.410719991	-1.68900001	210	146	88
-0.561290026	-0.409429997	-1.6911	210	146	88
-0.56072998	-0.407270014	-1.68970001	210	146	88
-0.561290026	-0.406010002	-1.69200003	210	146	88
-0.558780015	-0.406419992	-1.69369996	210	146	88
-0.55795002	-0.407460004	-1.69050002	210	146	88
-0.558499992	-0.409619987	-1.69190001	210	146	88
-0.572430015	-0.413729995	-1.68669999	210	146	88
-0.560710013	-0.41494	-1.67709994	210	146	88
-0.56042999	-0.416399986	-1.67569995	210	146	88
-0.557380021	-0.416359991	-1.67560005	210	146	88
-0.557380021	-0.414669991	-1.676	210	146	88
-0.557940006	-0.413430005	-1.67830002	210	146	88
-0.558220029	-0.411989987	-1.6796	210	146	88
-0.55517	-0.411949992	-1.67949998	210	146	88
-0.55517	-0.413619995	-1.67910004	210	146	88
-0.554899991	-0.415089995	-1.67770004	210	146	88
-0.554620028	-0.41655001	-1.67639995	210	146	88
-0.553789973	-0.41753	-1.67309999	210	146	88
-0.556270003	-0.417100012	-1.67139995	210	146	88
-0.558749974	-0.418330014	-1.66929996	210	146	88
-0.558459997	-0.419699997	-1.66799998	210	146	88
-0.557900012	-0.420870006	-1.66569996	210	146	88
-0.560940027	-0.420899987	-1.66589999	210	146	88
-0.56121999	-0.419510007	-1.66719997	210	146	88
-0.56121999	-0.417899996	-1.66760004	210	146	88
-0.561779976	-0.416709989	-1.66989994	210	146	88
-0.564540029	-0.418170005	-1.66869998	210	146	88
-0.565110028	-0.416979998	-1.67089999	210	146	88
-0.567860007	-0.416779995	-1.67019999	210	146	88
-0.563970029	-0.419310004	-1.66639996	210	146	88
-0.563970029	-0.420940012	-1.66600001	210	146	88
-0.564249992	-0.422910005	-1.66649997	210	146	88
-0.567290008	-0.422939986	-1.66659999	210	146	88
-0.566720009	-0.420740008	-1.6652	210	146	88
-0.56615001	-0.418639988	-1.6638	210	146	88
-0.566720009	-0.417499989	-1.66600001	210	146	88
-0.559589982	-0.417369992	-1.67250001	210	146	88
-0.550750017	-0.415820003	-1.67340004	210	146	88
-0.550199986	-0.417019993	-1.67110002	210	146	88
-0.549650013	-0.41821	-1.6688	210	146	88
-0.549090028	-0.419349998	-1.66659999	210	146	88
-0.552399993	-0.415509999	-1.67939997	210	146	88
-0.551850021	-0.413349986	-1.67799997	210	146	88
-0.552399993	-0.412140012	-1.6803	210	146	88
-0.549359977	-0.415470004	-1.67929995	210	146	88
-0.559059978	-0.411020011	-1.68280005	210	146	88
-0.561550021	-0.412259996	-1.68069994	210	146	88
-0.561550021	-0.413929999	-1.6803	210	146	88
-0.559889972	-0.40564999	-1.69780004	210	146	88
-0.562409997	-0.405229986	-1.6961	210	146	88
-0.565479994	-0.40527001	-1.69620001	210	146	88
-0.559610009	-0.40042001	-1.69809997	210	146	88
-0.566609979	-0.404500008	-1.70039999	210	146	88
-0.566609979	-0.402830005	-1.70079994	210	146	88
-0.566320002	-0.399239987	-1.70060003	210	146	88
-0.565479994	-0.400269985	-1.69739997	210	146	88
-0.561829984	-0.398779988	-1.70630002	210	146	88
-0.562110007	-0.397280008	-1.70770001	210	146	88
-0.559289992	-0.397460014	-1.70850003	210	146	88
-0.559019983	-0.398970008	-1.70710003	210	146	88
-0.559849977	-0.396160007	-1.71070004	210	146	88
-0.560119987	-0.394679993	-1.71210003	210	146	88
-0.548030019	-0.396450013	-1.71200001	210	146	88
-0.548030019	-0.394749999	-1.71239996	210	146	88
-0.548839986	-0.393700004	-1.71560001	210	146	88
-0.548839986	-0.391979992	-1.71599996	210	146	88
-0.546010017	-0.392150015	-1.71669996	210	146	88
-0.545740008	-0.393660009	-1.71539998	210	146	88
-0.542649984	-0.393620014	-1.71519995	210	146	88
-0.543179989	-0.392329991	-1.71749997	210	146	88
-0.540620029	-0.392720014	-1.71920002	210	146	88
-0.537530005	-0.392670006	-1.71899998	210	146	88
-0.534699976	-0.391099989	-1.72010005	210	146	88
-0.539300025	-0.393359989	-1.7141	210	146	88
-0.52463001	-0.384200007	-1.72969997	210	146	88
-0.523639977	-0.399769992	-1.71060002	210	146	88
-0.522109985	-0.400150001	-1.70449996	210	146	88
-0.521600008	-0.4014	-1.70220006	210	146	88
-0.520829976	-0.402410001	-1.699	210	146	88
-0.520579994	-0.403860003	-1.69770002	210	146	88
-0.517780006	-0.402359992	-1.69879997	210	146	88
-0.518289983	-0.401129991	-1.70109999	210	146	88
-0.515479982	-0.401300013	-1.70179999	210	146	88
-0.514980018	-0.402530015	-1.69949996	210	146	88
-0.514219999	-0.403530002	-1.69630003	210	146	88
-0.514479995	-0.405409992	-1.69679999	210	146	88
-0.511430025	-0.40535	-1.69659996	210	146	88
-0.510930002	-0.406569988	-1.69430006	210	146	88
-0.513469994	-0.406179994	-1.69270003	210	146	88
-0.515749991	-0.405550003	-1.69009995	210	146	88
-0.515500009	-0.40704	-1.68869996	210	146	88
-0.515999973	-0.409200013	-1.69019997	210	146	88
-0.515500009	-0.410450011	-1.68789995	210	146	88
-0.518280029	-0.410279989	-1.68719995	210	146	88
-0.518019974	-0.411749989	-1.68579996	210	146	88
-0.517260015	-0.412719995	-1.68260002	210	146	88
-0.514230013	-0.411000013	-1.68280005	210	146	88
-0.513970017	-0.412429988	-1.68139994	210	146	88
-0.511200011	-0.410950005	-1.6825	210	146	88
-0.518790007	-0.40902999	-1.68949997	210	146	88
-0.518530011	-0.407090008	-1.68889999	210	146	88
-0.518530011	-0.405380011	-1.68939996	210	146	88
-0.512459993	-0.410400003	-1.68770003	210	146	88
-0.512960017	-0.409139991	-1.69000006	210	146	88
-0.512459993	-0.406980008	-1.68850005	210	146	88
-0.507889986	-0.406509995	-1.69410002	210	146	88
-0.508379996	-0.405299991	-1.69630003	210	146	88
-0.517530024	-0.405470014	-1.69710004	210	146	88
-0.517019987	-0.403360009	-1.69560003	210	146	88
-0.519810021	-0.404839993	-1.69449997	210	146	88
-0.525430024	-0.40042001	-1.70570004	210	146	88
-0.512700021	-0.412950009	-1.67630005	210	146	88
-0.512700021	-0.414640009	-1.67589998	210	146	88
-0.512960017	-0.416570008	-1.67639995	210	146	88
-0.51797998	-0.419079989	-1.67229998	210	146	88
-0.518230021	-0.417659998	-1.67369998	210	146	88
-0.518490016	-0.416220009	-1.67499995	210	146	88
-0.518230021	-0.414290011	-1.67449999	210	146	88
-0.52125001	-0.416040003	-1.67429996	210	146	88
-0.52177	-0.414810002	-1.67659998	210	146	88
-0.524540007	-0.416319996	-1.67540002	210	146	88
-0.525059998	-0.415100008	-1.67770004	210	146	88
-0.525059998	-0.413399994	-1.67820001	210	146	88
-0.525319993	-0.411960006	-1.67949998	210	146	88
-0.52809	-0.41178	-1.67879999	210	146	88
-0.527830005	-0.413219988	-1.67739999	210	146	88
-0.530589998	-0.413040012	-1.6767	210	146	88
-0.530860007	-0.411599994	-1.67799997	210	146	88
-0.531379998	-0.415430009	-1.67910004	210	146	88
-0.528609991	-0.415609986	-1.67980003	210	146	88
-0.52809	-0.416839987	-1.67750001	210	146	88
-0.52809	-0.418520004	-1.67709994	210	146	88
-0.525319993	-0.41870001	-1.67780006	210	146	88
-0.522029996	-0.418410003	-1.6767	210	146	88
-0.52125001	-0.419369996	-1.67349994	210	146	88
-0.524280012	-0.419420004	-1.67369998	210	146	88
-0.526780009	-0.419	-1.67200005	210	146	88
-0.52651	-0.420379996	-1.67069995	210	146	88
-0.528869987	-0.410809994	-1.68200004	210	146	88
-0.529399991	-0.409579992	-1.68429995	210	146	88
-0.531910002	-0.410860002	-1.68219995	210	146	88
-0.534950018	-0.41091001	-1.68239999	210	146	88
-0.52609998	-0.409299999	-1.68309999	210	146	88
-0.52609998	-0.41099	-1.68270004	210	146	88
-0.523320019	-0.411170006	-1.68350005	210	146	88
-0.523320019	-0.409480006	-1.6839	210	146	88
-0.522809982	-0.412369996	-1.68120003	210	146	88
-0.522809982	-0.414039999	-1.68079996	210	146	88
-0.530789971	-0.401549995	-1.70290005	210	146	88
-0.543609977	-0.400480002	-1.70589995	210	146	88
-0.543609977	-0.398770005	-1.70630002	210	146	88
-0.550740004	-0.423269987	-1.66079998	210	146	88
-0.588810027	-0.412290007	-1.68089998	210	146	88
-0.591579974	-0.412090003	-1.67999995	210	146	88
-0.59495002	-0.412330002	-1.68099999	210	146	88
-0.597720027	-0.412129998	-1.68019998	210	146	88
-0.582520008	-0.407709986	-1.69149995	210	146	88
-0.579150021	-0.407449991	-1.69050002	210	146	88
-0.58002001	-0.406410009	-1.69369996	210	146	88
-0.580600023	-0.405189991	-1.69589996	210	146	88
-0.578090012	-0.405609995	-1.69770002	210	146	88
-0.578379989	-0.402500004	-1.69939995	210	146	88
-0.578949988	-0.401270002	-1.70169997	210	146	88
-0.57615	-0.401459992	-1.70249999	210	146	88
-0.575580001	-0.402700007	-1.70019996	210	146	88
-0.572210014	-0.402449995	-1.69920003	210	146	88
-0.572210014	-0.400770009	-1.69949996	210	146	88
-0.577009976	-0.40042001	-1.70570004	210	146	88
-0.576430023	-0.398279995	-1.70420003	210	146	88
-0.577009976	-0.397000015	-1.70650005	210	146	88
-0.577859998	-0.395920008	-1.70969999	210	146	88
-0.577859998	-0.394219995	-1.71010005	210	146	88
-0.580969989	-0.395940006	-1.7098	210	146	88
-0.580389977	-0.397240013	-1.70749998	210	146	88
-0.579530001	-0.398310006	-1.70430005	210	146	88
-0.5801	-0.400449991	-1.70580006	210	146	88
-0.582910001	-0.400249988	-1.70500004	210	146	88
-0.582910001	-0.398550004	-1.70539999	210	146	88
-0.585430026	-0.398140013	-1.70360005	210	146	88
-0.584559977	-0.399190009	-1.70039999	210	146	88
-0.584559977	-0.400880009	-1.70000005	210	146	88
-0.582050025	-0.401289999	-1.70179999	210	146	88
-0.583689988	-0.40189001	-1.69679999	210	146	88
-0.583100021	-0.403120011	-1.69459999	210	146	88
-0.579729974	-0.402869999	-1.69350004	210	146	88
-0.57694	-0.403070003	-1.69430006	210	146	88
-0.58089	-0.402090013	-1.69760001	210	146	88
-0.588819981	-0.398380011	-1.70459998	210	146	88
-0.591629982	-0.398180008	-1.70379996	210	146	88
-0.591329992	-0.399670005	-1.70249999	210	146	88
-0.593840003	-0.400950015	-1.70029998	210	146	88
-0.583779991	-0.397480011	-1.70860004	210	146	88
-0.573909998	-0.400389999	-1.70550001	210	146	88
-0.573059976	-0.398030013	-1.70309997	210	146	88
-0.556930006	-0.390080005	-1.72370005	210	146	88
-0.557200015	-0.388570011	-1.72500002	210	146	88
-0.579859972	-0.390560001	-1.71780002	210	146	88
-0.588050008	-0.394930005	-1.71319997	210	146	88
-0.591159999	-0.394959986	-1.71329999	210	146	88
-0.58585	-0.385800004	-1.72880006	210	146	88
-0.579859972	-0.360020012	-1.77869999	210	146	88
-0.580410004	-0.358550012	-1.78100002	210	146	88
-0.577489972	-0.358709991	-1.78180003	210	146	88
-0.578040004	-0.357140005	-1.78410006	210	146	88
-0.578040004	-0.355320007	-1.78439999	210	146	88
-0.580969989	-0.355159998	-1.78359997	210	146	88
-0.581239998	-0.357169986	-1.78419995	210	146	88
-0.574840009	-0.355300009	-1.78429997	210	146	88
-0.574289978	-0.356739998	-1.78209996	210	146	88
-0.574010015	-0.358500004	-1.78069997	210	146	88
-0.571089983	-0.358660012	-1.78149998	210	146	88
-0.570819974	-0.356530011	-1.78100002	210	146	88
-0.567629993	-0.3565	-1.78079998	210	146	88
-0.564429998	-0.356469989	-1.78069997	210	146	88
-0.564970016	-0.358799994	-1.78219998	210	146	88
-0.561779976	-0.358770013	-1.78209996	210	146	88
-0.561240017	-0.356440008	-1.78059995	210	146	88
-0.557789981	-0.356220007	-1.77950001	210	146	88
-0.557529986	-0.357980013	-1.77810001	210	146	88
-0.554080009	-0.357749999	-1.77699995	210	146	88
-0.554610014	-0.356189996	-1.77929997	210	146	88
-0.551429987	-0.356160015	-1.77909994	210	146	88
-0.550899982	-0.357719988	-1.77680004	210	146	88
-0.54825002	-0.358069986	-1.77859998	210	146	88
-0.54825002	-0.35611999	-1.77900004	210	146	88
-0.545589983	-0.356469989	-1.78069997	210	146	88
-0.545329988	-0.358220011	-1.77929997	210	146	88
-0.542410016	-0.358370006	-1.78009999	210	146	88
-0.54610002	-0.35503	-1.78289998	210	146	88
-0.549290001	-0.355060011	-1.78310001	210	146	88
-0.552470028	-0.355100006	-1.78330004	210	146	88
-0.552999973	-0.353709996	-1.78550005	210	146	88
-0.550069988	-0.353870004	-1.78629994	210	146	88
-0.556190014	-0.353740007	-1.78569996	210	146	88
-0.555400014	-0.354939997	-1.78250003	210	146	88
-0.559390008	-0.355540007	-1.78550005	210	146	88
-0.562579989	-0.355569988	-1.78559995	210	146	88
-0.562579989	-0.353799999	-1.78600001	210	146	88
-0.563380003	-0.352589995	-1.78919995	210	146	88
-0.566850007	-0.352800012	-1.79030001	210	146	88
-0.566590011	-0.354400009	-1.78900003	210	146	88
-0.566049993	-0.355780005	-1.78670001	210	146	88
-0.568979979	-0.355619997	-1.7859	210	146	88
-0.568710029	-0.353670001	-1.78530002	210	146	88
-0.568979979	-0.352079988	-1.78659999	210	146	88
-0.571910024	-0.355459988	-1.78509998	210	146	88
-0.560710013	-0.354710013	-1.79059994	210	146	88
-0.561240017	-0.353300005	-1.79279995	210	146	88
-0.561510026	-0.351689994	-1.79410005	210	146	88
-0.562039971	-0.350239992	-1.79639995	210	146	88
-0.56230998	-0.348580003	-1.79770005	210	146	88
-0.56230998	-0.34672001	-1.79799998	210	146	88
-0.565519989	-0.348610014	-1.79779994	210	146	88
-0.565249979	-0.350270003	-1.79649997	210	146	88
-0.564719975	-0.351720005	-1.79429996	210	146	88
-0.567929983	-0.351749986	-1.79439998	210	146	88
-0.568199992	-0.350109994	-1.79569995	210	146	88
-0.56874001	-0.348630011	-1.79799998	210	146	88
-0.569010019	-0.346960008	-1.79929996	210	146	88
-0.569540024	-0.345450014	-1.80149996	210	146	88
-0.566590011	-0.345609993	-1.80229998	210	146	88
-0.566060007	-0.347110003	-1.80009997	210	146	88
-0.563629985	-0.345759988	-1.80309999	210	146	88
-0.563629985	-0.343989998	-1.80350006	210	146	88
-0.560679972	-0.345910013	-1.8039	210	146	88
-0.57277	-0.345479995	-1.80159998	210	146	88
-0.573580027	-0.344249994	-1.80480003	210	146	88
-0.573580027	-0.342510015	-1.80509996	210	146	88
-0.57062	-0.342669994	-1.80599999	210	146	88
-0.570349991	-0.344229996	-1.80470002	210	146	88
-0.567390025	-0.342640013	-1.80579996	210	146	88
-0.567929983	-0.344740003	-1.80739999	210	146	88
-0.567929983	-0.341230005	-1.80809999	210	146	88
-0.567659974	-0.339269996	-1.80739999	210	146	88
-0.568459988	-0.338010013	-1.81060004	210	146	88
-0.571699977	-0.338039994	-1.81079996	210	146	88
-0.572229981	-0.336600006	-1.81299996	210	146	88
-0.571160018	-0.339469999	-1.80850005	210	146	88
-0.571160018	-0.341250002	-1.8082	210	146	88
-0.574660003	-0.339670002	-1.8096	210	146	88
-0.574930012	-0.341639996	-1.81019998	210	146	88
-0.578440011	-0.341839999	-1.81130004	210	146	88
-0.578440011	-0.340050012	-1.81159997	210	146	88
-0.578719974	-0.338440001	-1.81289995	210	146	88
-0.57573998	-0.338589996	-1.81369996	210	146	88
-0.582229972	-0.338640004	-1.81400001	210	146	88
-0.581960022	-0.340249985	-1.81270003	210	146	88
-0.581409991	-0.34167999	-1.81050003	210	146	88
-0.581409991	-0.343459994	-1.81009996	210	146	88
-0.584659994	-0.343479991	-1.81019998	210	146	88
-0.584100008	-0.344859987	-1.80799997	210	146	88
-0.587069988	-0.344700009	-1.80719995	210	146	88
-0.587339997	-0.343140006	-1.80840003	210	146	88
-0.587899983	-0.341720015	-1.81070006	210	146	88
-0.588180006	-0.340110004	-1.81200004	210	146	88
-0.588180006	-0.338330001	-1.81229997	210	146	88
-0.591419995	-0.338340014	-1.81239998	210	146	88
-0.591149986	-0.339949995	-1.81110001	210	146	88
-0.591149986	-0.341740012	-1.81079996	210	146	88
-0.59059	-0.343160003	-1.80850005	210	146	88
-0.593829989	-0.343180001	-1.80859995	210	146	88
-0.594110012	-0.341580003	-1.80990005	210	146	88
-0.594389975	-0.339969993	-1.81120002	210	146	88
-0.594669998	-0.338360012	-1.8125	210	146	88
-0.597639978	-0.338200003	-1.81159997	210	146	88
-0.600899994	-0.33822	-1.81169999	210	146	88
-0.60145998	-0.340359986	-1.81330001	210	146	88
-0.600899994	-0.341789991	-1.81099999	210	146	88
-0.597930014	-0.341949999	-1.81190002	210	146	88
-0.59849	-0.340519994	-1.81410003	210	146	88
-0.604439974	-0.34198001	-1.81200004	210	146	88
-0.604439974	-0.340189993	-1.81239998	210	146	88
-0.604149997	-0.338230014	-1.8118	210	146	88
-0.6074	-0.340030015	-1.81149995	210	146	88
-0.6074	-0.341820002	-1.81120002	210	146	88
-0.610660017	-0.341829985	-1.81120002	210	146	88
-0.610949993	-0.340220004	-1.8125	210	146	88
-0.611240029	-0.338609993	-1.81379998	210	146	88
-0.611819983	-0.337170005	-1.81599998	210	146	88
-0.612110019	-0.335509986	-1.81729996	210	146	88
-0.608839989	-0.335500002	-1.81719995	210	146	88
-0.608550012	-0.337150007	-1.81589997	210	146	88
-0.607980013	-0.338589996	-1.81369996	210	146	88
-0.605579972	-0.33732	-1.8168	210	146	88
-0.606149971	-0.335839987	-1.81900001	210	146	88
-0.603169978	-0.335999995	-1.81990004	210	146	88
-0.602599978	-0.337480009	-1.81770003	210	146	88
-0.599340022	-0.337460011	-1.81760001	210	146	88
-0.599619985	-0.335810006	-1.81889999	210	146	88
-0.599619985	-0.33397001	-1.81920004	210	146	88
-0.600189984	-0.332500011	-1.82149994	210	146	88
-0.600750029	-0.331050009	-1.82369995	210	146	88
-0.597199976	-0.33265999	-1.82229996	210	146	88
-0.594219983	-0.332819998	-1.82319999	210	146	88
-0.596360028	-0.333950013	-1.81910002	210	146	88
-0.596080005	-0.335619986	-1.81789994	210	146	88
-0.596360028	-0.33761999	-1.81850004	210	146	88
-0.593100011	-0.337610006	-1.81840003	210	146	88
-0.593100011	-0.335779995	-1.81869996	210	146	88
-0.593100011	-0.333939999	-1.81910002	210	146	88
-0.589559972	-0.33375001	-1.81799996	210	146	88
-0.589839995	-0.335759997	-1.81860006	210	146	88
-0.586860001	-0.335920006	-1.81949997	210	146	88
-0.587140024	-0.33792001	-1.82009995	210	146	88
-0.584150016	-0.336250007	-1.82130003	210	146	88
-0.584699988	-0.334749997	-1.82350004	210	146	88
-0.581439972	-0.334729999	-1.82340002	210	146	88
-0.581709981	-0.333090007	-1.82459998	210	146	88
-0.581439972	-0.331120014	-1.824	210	146	88
-0.578989983	-0.331609994	-1.82679999	210	146	88
-0.579530001	-0.333759993	-1.8283	210	146	88
-0.578450024	-0.334879994	-1.82420003	210	146	88
-0.58089	-0.33623001	-1.8211	210	146	88
-0.587960005	-0.33296001	-1.82389998	210	146	88
-0.59066999	-0.33811	-1.8211	210	146	88
-0.586579978	-0.333900005	-1.81889999	210	146	88
-0.60402	-0.334679991	-1.82309997	210	146	88
-0.604300022	-0.333039999	-1.82439995	210	146	88
-0.604589999	-0.331409991	-1.82560003	210	146	88
-0.604589999	-0.32949999	-1.82599998	210	146	88
-0.607860029	-0.329519987	-1.82599998	210	146	88
-0.60729003	-0.33107999	-1.82379997	210	146	88
-0.607580006	-0.333050013	-1.82439995	210	146	88
-0.60729003	-0.334690005	-1.82319999	210	146	88
-0.609990001	-0.33434999	-1.82130003	210	146	88
-0.610570014	-0.332890004	-1.82350004	210	146	88
-0.610849977	-0.331259996	-1.82480001	210	146	88
-0.613839984	-0.331099987	-1.82389998	210	146	88
-0.613550007	-0.332729995	-1.82270002	210	146	88
-0.612969995	-0.334190011	-1.8204	210	146	88
-0.615670025	-0.33386001	-1.81860006	210	146	88
-0.615670025	-0.335700005	-1.81830001	210	146	88
-0.615369976	-0.337350011	-1.81700003	210	146	88
-0.617770016	-0.336840004	-1.81420004	210	146	88
-0.617770016	-0.338629991	-1.81389999	210	146	88
-0.617470026	-0.340240002	-1.81260002	210	146	88
-0.613919973	-0.340050012	-1.81159997	210	146	88
-0.613629997	-0.338090003	-1.81099999	210	146	88
-0.61334002	-0.34149	-1.80939996	210	146	88
-0.61601001	-0.341140002	-1.80760002	210	146	88
-0.618969977	-0.342739999	-1.80639994	210	146	88
-0.61868	-0.344300002	-1.80509996	210	146	88
-0.621640027	-0.344130009	-1.80420005	210	146	88
-0.62105	-0.345539987	-1.80200005	210	146	88
-0.624300003	-0.345550001	-1.80200005	210	146	88
-0.624599993	-0.343959987	-1.80330002	210	146	88
-0.62549001	-0.342759997	-1.80639994	210	146	88
-0.628449976	-0.342579991	-1.80550003	210	146	88
-0.628149986	-0.344150007	-1.80429995	210	146	88
-0.627849996	-0.345730007	-1.80299997	210	146	88
-0.631410003	-0.344150007	-1.80429995	210	146	88
-0.631410003	-0.342409998	-1.8046	210	146	88
-0.632309973	-0.341170013	-1.80780005	210	146	88
-0.629639983	-0.341520011	-1.8096	210	146	88
-0.630540013	-0.340270013	-1.81280005	210	146	88
-0.627569973	-0.340440005	-1.81369996	210	146	88
