-0.177499995	0.364499986	-1.27110004	14	198	96
-0.17757	0.364769995	-1.27209997	14	198	96
-0.177630007	0.36500001	-1.273	14	198	96
-0.177630007	0.365049988	-1.273	14	198	96
-0.177699998	0.365319997	-1.27400005	14	198	96
-0.177699998	0.364960015	-1.27409995	14	198	96
-0.177699998	0.364259988	-1.27429998	14	198	96
-0.177770004	0.364179999	-1.27530003	14	198	96
-0.177770004	0.364369988	-1.27530003	14	198	96
-0.177770004	0.364960015	-1.27509999	14	198	96
-0.177770004	0.365319997	-1.27499998	14	198	96
-0.177770004	0.36559999	-1.27489996	14	198	96
-0.177839994	0.365869999	-1.27590001	14	198	96
-0.17791	0.365949988	-1.27690005	14	198	96
-0.17791	0.366059989	-1.27690005	14	198	96
-0.17791	0.366149992	-1.27690005	14	198	96
-0.17791	0.365700006	-1.27699995	14	198	96
-0.17791	0.365379989	-1.27709997	14	198	96
-0.17791	0.365249991	-1.27709997	14	198	96
-0.177970007	0.365880013	-1.278	14	198	96
-0.177970007	0.366420001	-1.27779996	14	198	96
-0.178039998	0.366659999	-1.27880001	14	198	96
-0.178039998	0.366699994	-1.27880001	14	198	96
-0.178110003	0.366939992	-1.27970004	14	198	96
-0.178110003	0.366970003	-1.27970004	14	198	96
-0.178179994	0.367249995	-1.28069997	14	198	96
-0.17825	0.367520005	-1.2816	14	198	96
-0.178320006	0.367799997	-1.28260005	14	198	96
-0.178379998	0.368070006	-1.28359997	14	198	96
-0.17825	0.365159988	-1.2823	14	198	96
-0.178179994	0.364549994	-1.28149998	14	198	96
-0.178110003	0.363950014	-1.28059995	14	198	96
-0.178039998	0.364859998	-1.27929997	14	198	96
-0.177970007	0.364800006	-1.27830005	14	198	96
-0.17791	0.364089996	-1.27740002	14	198	96
-0.17791	0.362830013	-1.27779996	14	198	96
-0.17791	0.362569988	-1.27789998	14	198	96
-0.177839994	0.362100005	-1.27699995	14	198	96
-0.177839994	0.36184001	-1.27699995	14	198	96
-0.177839994	0.361530006	-1.27709997	14	198	96
-0.17577	0.361559987	-1.2773	14	198	96
-0.17577	0.36214	-1.27709997	14	198	96
-0.175699994	0.362069994	-1.27610004	14	198	96
-0.175699994	0.362320006	-1.27600002	14	198	96
-0.17577	0.36322999	-1.27680004	14	198	96
-0.175840005	0.363169998	-1.27779996	14	198	96
-0.175840005	0.36383	-1.27769995	14	198	96
-0.175899997	0.364399999	-1.27849996	14	198	96
-0.175840005	0.365119994	-1.2773	14	198	96
-0.173769996	0.364800006	-1.27750003	14	198	96
-0.173830003	0.365269989	-1.27839994	14	198	96
-0.173889995	0.365150005	-1.27950001	14	198	96
-0.173889995	0.364419997	-1.27970004	14	198	96
-0.173830003	0.363810003	-1.27880001	14	198	96
-0.173769996	0.363209993	-1.278	14	198	96
-0.173769996	0.362910002	-1.27810001	14	198	96
-0.173769996	0.361869991	-1.27839994	14	198	96
-0.173830003	0.360489994	-1.27980006	14	198	96
-0.173889995	0.361290008	-1.28059995	14	198	96
-0.173889995	0.361730009	-1.28050005	14	198	96
-0.173889995	0.362040013	-1.28040004	14	198	96
-0.173889995	0.363189995	-1.28009999	14	198	96
-0.17396	0.363000005	-1.28110003	14	198	96
-0.174020007	0.363539994	-1.28199995	14	198	96
-0.174020007	0.365480006	-1.28149998	14	198	96
-0.174020007	0.366259992	-1.28129995	14	198	96
-0.174020007	0.366420001	-1.28120005	14	198	96
-0.174020007	0.367229998	-1.28100002	14	198	96
-0.174020007	0.367309988	-1.28100002	14	198	96
-0.174020007	0.367320001	-1.28100002	14	198	96
-0.174089998	0.367599994	-1.28190005	14	198	96
-0.174150005	0.367870003	-1.28289998	14	198	96
-0.174280003	0.368420005	-1.28480005	14	198	96
-0.172130004	0.368189991	-1.28400004	14	198	96
-0.172069997	0.367909998	-1.28299999	14	198	96
-0.172010005	0.367639989	-1.28199995	14	198	96
-0.171949998	0.367359996	-1.28110003	14	198	96
-0.171949998	0.367320001	-1.28110003	14	198	96
-0.171949998	0.366459996	-1.28129995	14	198	96
-0.171880007	0.365859985	-1.28050005	14	198	96
-0.17182	0.365189999	-1.27960002	14	198	96
-0.17182	0.364450008	-1.27980006	14	198	96
-0.17182	0.363029987	-1.2802	14	198	96
-0.171880007	0.36304	-1.28129995	14	198	96
-0.17182	0.361319989	-1.28069997	14	198	96
-0.171759993	0.361490011	-1.27960002	14	198	96
-0.171690002	0.36153999	-1.27859998	14	198	96
-0.171690002	0.361909986	-1.27849996	14	198	96
-0.171629995	0.362410009	-1.2773	14	198	96
-0.171629995	0.363299996	-1.27709997	14	198	96
-0.171629995	0.364149988	-1.27680004	14	198	96
-0.171629995	0.364569992	-1.27670002	14	198	96
-0.171690002	0.364199996	-1.27779996	14	198	96
-0.171690002	0.365619987	-1.27740002	14	198	96
-0.171690002	0.365720004	-1.27740002	14	198	96
-0.171690002	0.366259992	-1.27719998	14	198	96
-0.171629995	0.365990013	-1.27629995	14	198	96
-0.171629995	0.365960002	-1.27629995	14	198	96
-0.171570003	0.365590006	-1.27540004	14	198	96
-0.171570003	0.36570999	-1.27530003	14	198	96
-0.171570003	0.365350008	-1.27540004	14	198	96
-0.171509996	0.364989996	-1.27450001	14	198	96
-0.171509996	0.365399987	-1.2744	14	198	96
-0.171509996	0.365429997	-1.2744	14	198	96
-0.171440005	0.365159988	-1.27339995	14	198	96
-0.171440005	0.364879996	-1.27349997	14	198	96
-0.171379998	0.364690006	-1.27250004	14	198	96
-0.171379998	0.364879996	-1.27240002	14	198	96
-0.171320006	0.364609987	-1.27149999	14	198	96
-0.171250001	0.364329994	-1.27049994	14	198	96
-0.171130002	0.363779992	-1.26859999	14	198	96
-0.169070005	0.363819987	-1.2687	14	198	96
-0.169129997	0.364089996	-1.26970005	14	198	96
-0.169259995	0.364639997	-1.27160001	14	198	96
-0.169320002	0.36473	-1.27260005	14	198	96
-0.169320002	0.36491999	-1.27260005	14	198	96
-0.169379994	0.365200013	-1.27349997	14	198	96
-0.169379994	0.364749998	-1.2737	14	198	96
-0.169440001	0.36541	-1.27450001	14	198	96
-0.169440001	0.365460008	-1.27450001	14	198	96
-0.169440001	0.365469992	-1.27450001	14	198	96
-0.169499993	0.365750015	-1.27540004	14	198	96
-0.169499993	0.365460008	-1.27550006	14	198	96
-0.16956	0.365660012	-1.27649999	14	198	96
-0.16956	0.365379989	-1.2766	14	198	96
-0.16956	0.366019994	-1.27639997	14	198	96
-0.169620007	0.366169989	-1.27740002	14	198	96
-0.169620007	0.366270006	-1.27740002	14	198	96
-0.169620007	0.366299987	-1.27740002	14	198	96
-0.169620007	0.365750015	-1.27750003	14	198	96
-0.169620007	0.365530014	-1.27760005	14	198	96
-0.169679999	0.365339994	-1.27869999	14	198	96
-0.169750005	0.36522001	-1.27980006	14	198	96
-0.169750005	0.364789993	-1.27989995	14	198	96
-0.169809997	0.365280002	-1.28079998	14	198	96
-0.169809997	0.366059989	-1.28059995	14	198	96
-0.169809997	0.366219997	-1.28050005	14	198	96
-0.169809997	0.367089987	-1.28030002	14	198	96
-0.169809997	0.367119998	-1.2802	14	198	96
-0.169750005	0.366849989	-1.27929997	14	198	96
-0.169679999	0.366479993	-1.27839994	14	198	96
-0.169679999	0.366530001	-1.27830005	14	198	96
-0.169679999	0.366540015	-1.27830005	14	198	96
-0.169679999	0.366569996	-1.27830005	14	198	96
-0.167610005	0.366609991	-1.27839994	14	198	96
-0.167610005	0.366589993	-1.27849996	14	198	96
-0.167610005	0.366569996	-1.27849996	14	198	96
-0.167610005	0.366239995	-1.27859998	14	198	96
-0.167610005	0.365839988	-1.27869999	14	198	96
-0.167610005	0.365539998	-1.27880001	14	198	96
-0.167610005	0.364989996	-1.27890003	14	198	96
-0.167610005	0.364769995	-1.27900004	14	198	96
-0.167549998	0.363970011	-1.27820003	14	198	96
-0.167490005	0.363999993	-1.27709997	14	198	96
-0.167429999	0.364360005	-1.27600002	14	198	96
-0.167429999	0.365240008	-1.27569997	14	198	96
-0.167429999	0.365330011	-1.27569997	14	198	96
-0.167429999	0.365779996	-1.27559996	14	198	96
-0.167490005	0.366050005	-1.27649999	14	198	96
-0.167490005	0.365929991	-1.2766	14	198	96
-0.167490005	0.36541	-1.27670002	14	198	96
-0.167549998	0.365099996	-1.27779996	14	198	96
-0.167549998	0.366290003	-1.27750003	14	198	96
-0.167549998	0.366299987	-1.27750003	14	198	96
-0.167549998	0.366329998	-1.27750003	14	198	96
-0.167669997	0.36688	-1.27939999	14	198	96
-0.167730004	0.367119998	-1.28040004	14	198	96
-0.167730004	0.367159992	-1.28040004	14	198	96
-0.167789996	0.367430001	-1.28129995	14	198	96
-0.167850003	0.367709994	-1.2823	14	198	96
-0.165769994	0.367740005	-1.28240001	14	198	96
-0.165710002	0.367460012	-1.28139997	14	198	96
-0.165649995	0.367190003	-1.28050005	14	198	96
-0.165649995	0.367159992	-1.28050005	14	198	96
-0.165649995	0.367139995	-1.28050005	14	198	96
-0.165600002	0.366910011	-1.27950001	14	198	96
-0.165600002	0.366270006	-1.27970004	14	198	96
-0.165600002	0.366140008	-1.27970004	14	198	96
-0.165539995	0.365579993	-1.27890003	14	198	96
-0.165539995	0.364800006	-1.27909994	14	198	96
-0.165480003	0.364010006	-1.27830005	14	198	96
-0.165480003	0.36333999	-1.27849996	14	198	96
-0.165480003	0.363050014	-1.27859998	14	198	96
-0.165480003	0.362589985	-1.27869999	14	198	96
-0.165480003	0.36232999	-1.27880001	14	198	96
-0.165480003	0.362010002	-1.27880001	14	198	96
-0.165419996	0.362509996	-1.27769995	14	198	96
-0.165419996	0.364030004	-1.27719998	14	198	96
-0.165419996	0.364470005	-1.27709997	14	198	96
-0.165419996	0.364859998	-1.27699995	14	198	96
-0.165370002	0.364399999	-1.27610004	14	198	96
-0.165309995	0.364989996	-1.27489996	14	198	96
-0.165309995	0.365090013	-1.27489996	14	198	96
-0.165309995	0.365449995	-1.27479994	14	198	96
-0.165309995	0.365539998	-1.27470005	14	198	96
-0.165250003	0.365260005	-1.27380002	14	198	96
-0.165250003	0.364980012	-1.27380002	14	198	96
-0.165250003	0.364360005	-1.27400005	14	198	96
-0.165189996	0.364930004	-1.27279997	14	198	96
-0.165189996	0.364989996	-1.27279997	14	198	96
-0.165130004	0.364710003	-1.27180004	14	198	96
-0.165079996	0.364439994	-1.27090001	14	198	96
-0.165020004	0.364160001	-1.26989996	14	198	96
-0.162959993	0.364190012	-1.26999998	14	198	96
-0.16302	0.364470005	-1.27100003	14	198	96
-0.163069993	0.364740014	-1.27199996	14	198	96
-0.16313	0.365020007	-1.27289999	14	198	96
-0.163179994	0.3653	-1.27390003	14	198	96
-0.163179994	0.365009993	-1.27400005	14	198	96
-0.163240001	0.365570009	-1.27479994	14	198	96
-0.163240001	0.365029991	-1.27499998	14	198	96
-0.163240001	0.36451	-1.27509999	14	198	96
-0.163240001	0.364340007	-1.27520001	14	198	96
-0.163179994	0.363880008	-1.27429998	14	198	96
-0.161119998	0.36443001	-1.27419996	14	198	96
-0.161119998	0.365330011	-1.27400005	14	198	96
-0.161170006	0.36559999	-1.27489996	14	198	96
-0.161170006	0.365509987	-1.27499998	14	198	96
-0.161170006	0.365319997	-1.27499998	14	198	96
-0.161170006	0.364540011	-1.27530003	14	198	96
-0.161229998	0.365330011	-1.27610004	14	198	96
-0.161229998	0.365429997	-1.27600002	14	198	96
-0.161229998	0.365880013	-1.27590001	14	198	96
-0.161280006	0.36609	-1.27690005	14	198	96
-0.161280006	0.366120011	-1.27690005	14	198	96
-0.161280006	0.366149992	-1.27690005	14	198	96
-0.161280006	0.365790009	-1.27699995	14	198	96
-0.161280006	0.365379989	-1.27709997	14	198	96
-0.161280006	0.36491999	-1.27719998	14	198	96
-0.161280006	0.36473	-1.2773	14	198	96
-0.161229998	0.364259988	-1.27639997	14	198	96
-0.161339998	0.364589989	-1.27839994	14	198	96
-0.161390007	0.364340007	-1.27950001	14	198	96
-0.161390007	0.364010006	-1.27960002	14	198	96
-0.161339998	0.363409996	-1.27869999	14	198	96
-0.161339998	0.363110006	-1.27880001	14	198	96
-0.161339998	0.36285001	-1.27880001	14	198	96
-0.161280006	0.362379998	-1.27789998	14	198	96
-0.161229998	0.361849993	-1.27709997	14	198	96
-0.161170006	0.361259997	-1.27620006	14	198	96
-0.163240001	0.361229986	-1.27610004	14	198	96
-0.163299993	0.361809999	-1.27690005	14	198	96
-0.163409993	0.362819999	-1.27869999	14	198	96
-0.163409993	0.362619996	-1.27880001	14	198	96
-0.163409993	0.363079995	-1.27869999	14	198	96
-0.163460001	0.364309996	-1.27939999	14	198	96
-0.163460001	0.364609987	-1.27929997	14	198	96
-0.163519993	0.364250004	-1.28040004	14	198	96
-0.163519993	0.363920003	-1.28050005	14	198	96
-0.163519993	0.362210006	-1.28100002	14	198	96
-0.163519993	0.361900002	-1.28110003	14	198	96
-0.163519993	0.36146	-1.28120005	14	198	96
-0.163460001	0.359519988	-1.28069997	14	198	96
-0.163409993	0.359670013	-1.27960002	14	198	96
-0.163409993	0.360029995	-1.27950001	14	198	96
-0.163409993	0.360379994	-1.27939999	14	198	96
-0.165480003	0.359629989	-1.27950001	14	198	96
-0.165480003	0.358880013	-1.27970004	14	198	96
-0.165480003	0.358460009	-1.27980006	14	198	96
-0.165539995	0.359490007	-1.28059995	14	198	96
-0.165539995	0.360619992	-1.28030002	14	198	96
-0.165539995	0.361149997	-1.28009999	14	198	96
-0.165539995	0.361589998	-1.27999997	14	198	96
-0.167610005	0.361559987	-1.27989995	14	198	96
-0.167549998	0.361600012	-1.27880001	14	198	96
-0.167549998	0.361979991	-1.27869999	14	198	96
-0.167549998	0.362289995	-1.27859998	14	198	96
-0.167610005	0.362830013	-1.27950001	14	198	96
-0.167669997	0.363860011	-1.28030002	14	198	96
-0.167669997	0.364190012	-1.2802	14	198	96
-0.165600002	0.364219993	-1.28030002	14	198	96
-0.165539995	0.366519988	-1.27859998	14	198	96
-0.165539995	0.366609991	-1.27859998	14	198	96
-0.165539995	0.366640002	-1.27859998	14	198	96
-0.165480003	0.366360009	-1.27760005	14	198	96
-0.165480003	0.366349995	-1.27760005	14	198	96
-0.165419996	0.366059989	-1.27670002	14	198	96
-0.165419996	0.36609	-1.2766	14	198	96
-0.165419996	0.365889996	-1.27670002	14	198	96
-0.165370002	0.365810007	-1.27569997	14	198	96
-0.163299993	0.365810007	-1.27579999	14	198	96
-0.163299993	0.365850002	-1.27579999	14	198	96
-0.163299993	0.365480006	-1.27590001	14	198	96
-0.163299993	0.365200013	-1.27600002	14	198	96
-0.163350001	0.36522001	-1.27699995	14	198	96
-0.163350001	0.365669996	-1.27690005	14	198	96
-0.163350001	0.365929991	-1.27680004	14	198	96
-0.163350001	0.366030008	-1.27680004	14	198	96
-0.163350001	0.366059989	-1.27680004	14	198	96
-0.163350001	0.366120011	-1.27680004	14	198	96
-0.163409993	0.366400003	-1.27769995	14	198	96
-0.163409993	0.366270006	-1.27779996	14	198	96
-0.163460001	0.366640002	-1.27869999	14	198	96
-0.163460001	0.366670012	-1.27869999	14	198	96
-0.163519993	0.366930008	-1.27960002	14	198	96
-0.163519993	0.366950005	-1.27960002	14	198	96
-0.163519993	0.366180003	-1.27989995	14	198	96
-0.16358	0.36717999	-1.28059995	14	198	96
-0.16358	0.367190003	-1.28059995	14	198	96
-0.16358	0.367220014	-1.28059995	14	198	96
-0.163629994	0.367500007	-1.2816	14	198	96
-0.163690001	0.367769986	-1.28250003	14	198	96
-0.16155	0.367529988	-1.28170002	14	198	96
-0.161500007	0.367249995	-1.28069997	14	198	96
-0.161500007	0.367210001	-1.28069997	14	198	96
-0.16144	0.366970003	-1.27980006	14	198	96
-0.16144	0.366979986	-1.27970004	14	198	96
-0.161390007	0.366699994	-1.27880001	14	198	96
-0.161390007	0.366670012	-1.27880001	14	198	96
-0.161390007	0.366580009	-1.27880001	14	198	96
-0.161339998	0.366230011	-1.27789998	14	198	96
-0.161339998	0.366400003	-1.27779996	14	198	96
-0.161339998	0.366430014	-1.27779996	14	198	96
-0.161339998	0.365779996	-1.278	14	198	96
-0.159260005	0.366409987	-1.27789998	14	198	96
-0.159260005	0.366450012	-1.27789998	14	198	96
-0.159260005	0.366459996	-1.27789998	14	198	96
-0.159209996	0.366180003	-1.27699995	14	198	96
-0.159209996	0.366120011	-1.27699995	14	198	96
-0.159209996	0.366059989	-1.27699995	14	198	96
-0.159209996	0.36590001	-1.27709997	14	198	96
-0.159160003	0.36570999	-1.27610004	14	198	96
-0.159160003	0.365819991	-1.27600002	14	198	96
-0.159160003	0.365869999	-1.27600002	14	198	96
-0.159160003	0.365909994	-1.27600002	14	198	96
-0.159160003	0.365539998	-1.27610004	14	198	96
-0.159160003	0.365460008	-1.27610004	14	198	96
-0.159160003	0.365359992	-1.27620006	14	198	96
-0.159160003	0.364679992	-1.27639997	14	198	96
-0.159109995	0.364569992	-1.27540004	14	198	96
-0.159109995	0.36473	-1.27530003	14	198	96
-0.159109995	0.364859998	-1.27530003	14	198	96
-0.159109995	0.364989996	-1.27520001	14	198	96
-0.159109995	0.36559999	-1.27509999	14	198	96
-0.159109995	0.365630001	-1.27509999	14	198	96
-0.159050003	0.365359992	-1.27409995	14	198	96
-0.158999994	0.365079999	-1.27310002	14	198	96
-0.158950001	0.36480999	-1.27219999	14	198	96
-0.161009997	0.364780009	-1.27209997	14	198	96
-0.161070004	0.365049988	-1.273	14	198	96
-0.160960004	0.364499986	-1.27110004	14	198	96
-0.162850007	0.36364001	-1.26810002	14	198	96
-0.15704	0.365379989	-1.27520001	14	198	96
-0.15704	0.365630001	-1.27520001	14	198	96
-0.15704	0.365660012	-1.27520001	14	198	96
-0.15704	0.364760011	-1.27540004	14	198	96
-0.15704	0.364600003	-1.27550006	14	198	96
-0.157089993	0.36432001	-1.2766	14	198	96
-0.157089993	0.363880008	-1.27670002	14	198	96
-0.157089993	0.363579988	-1.27680004	14	198	96
-0.157140002	0.364380002	-1.27760005	14	198	96
-0.157140002	0.364789993	-1.27750003	14	198	96
-0.157140002	0.364980012	-1.27740002	14	198	96
-0.157140002	0.365440011	-1.2773	14	198	96
-0.157140002	0.365570009	-1.2773	14	198	96
-0.157140002	0.365669996	-1.27719998	14	198	96
-0.157140002	0.365759999	-1.27719998	14	198	96
-0.157140002	0.365850002	-1.27719998	14	198	96
-0.157140002	0.366019994	-1.27709997	14	198	96
-0.157140002	0.366149992	-1.27709997	14	198	96
-0.157140002	0.366210014	-1.27709997	14	198	96
-0.157189995	0.366439998	-1.278	14	198	96
-0.157189995	0.366479993	-1.278	14	198	96
-0.157189995	0.366490006	-1.278	14	198	96
-0.157189995	0.366400003	-1.27810001	14	198	96
-0.157240003	0.366730005	-1.27900004	14	198	96
-0.157240003	0.366759986	-1.27900004	14	198	96
-0.157289997	0.366910011	-1.27999997	14	198	96
-0.157289997	0.367040008	-1.27999997	14	198	96
-0.157389998	0.36759001	-1.28190005	14	198	96
-0.155269995	0.367339998	-1.28100002	14	198	96
-0.155220002	0.367069989	-1.28009999	14	198	96
-0.155169994	0.366600007	-1.27919996	14	198	96
-0.155169994	0.366699994	-1.27909994	14	198	96
-0.155169994	0.366789997	-1.27909994	14	198	96
-0.155169994	0.366430014	-1.27919996	14	198	96
-0.155169994	0.365889996	-1.27939999	14	198	96
-0.155169994	0.365729988	-1.27939999	14	198	96
-0.15512	0.365289986	-1.27849996	14	198	96
-0.15512	0.365090013	-1.27849996	14	198	96
-0.15512	0.364899993	-1.27859998	14	198	96
-0.15512	0.364459991	-1.27869999	14	198	96
-0.15512	0.36383	-1.27890003	14	198	96
-0.15512	0.363489985	-1.27900004	14	198	96
-0.15512	0.362940013	-1.27919996	14	198	96
-0.155169994	0.363469988	-1.27999997	14	198	96
-0.155169994	0.36443001	-1.27980006	14	198	96
-0.155070007	0.364410013	-1.27769995	14	198	96
-0.155070007	0.365469992	-1.27740002	14	198	96
-0.155070007	0.36559999	-1.27740002	14	198	96
-0.155070007	0.365700006	-1.2773	14	198	96
-0.155070007	0.366180003	-1.27719998	14	198	96
-0.155070007	0.3662	-1.27719998	14	198	96
-0.155070007	0.366210014	-1.27719998	14	198	96
-0.155070007	0.366230011	-1.27719998	14	198	96
-0.155070007	0.366239995	-1.27719998	14	198	96
-0.15512	0.366519988	-1.27810001	14	198	96
-0.15512	0.36638999	-1.27820003	14	198	96
-0.15512	0.366230011	-1.27820003	14	198	96
-0.15512	0.366070002	-1.27830005	14	198	96
-0.153050005	0.36609	-1.27839994	14	198	96
-0.153050005	0.365999997	-1.27839994	14	198	96
-0.153050005	0.365770012	-1.27849996	14	198	96
-0.153050005	0.365640014	-1.27849996	14	198	96
-0.153050005	0.365119994	-1.27859998	14	198	96
-0.153050005	0.36491999	-1.27869999	14	198	96
-0.153050005	0.364190012	-1.27890003	14	198	96
-0.153050005	0.363849998	-1.27900004	14	198	96
-0.153050005	0.363519996	-1.27909994	14	198	96
-0.15309	0.363499999	-1.28009999	14	198	96
-0.15309	0.364980012	-1.27970004	14	198	96
-0.15309	0.365590006	-1.27950001	14	198	96
-0.15309	0.365759999	-1.27950001	14	198	96
-0.15309	0.366450012	-1.27929997	14	198	96
-0.15309	0.366730005	-1.27919996	14	198	96
-0.15309	0.366820008	-1.27919996	14	198	96
-0.153139994	0.366899997	-1.2802	14	198	96
-0.153139994	0.366970003	-1.2802	14	198	96
-0.153139994	0.367089987	-1.2802	14	198	96
-0.153190002	0.367370009	-1.28110003	14	198	96
-0.153229997	0.367639989	-1.28209996	14	198	96
-0.153280005	0.367920011	-1.28299999	14	198	96
-0.15106	0.367119998	-1.2802	14	198	96
-0.151020005	0.366849989	-1.27929997	14	198	96
-0.151020005	0.366820008	-1.27929997	14	198	96
-0.151020005	0.366809994	-1.27929997	14	198	96
-0.151020005	0.366479993	-1.27939999	14	198	96
-0.151020005	0.366400003	-1.27939999	14	198	96
-0.150969997	0.366030008	-1.27849996	14	198	96
-0.150969997	0.365929991	-1.27849996	14	198	96
-0.150969997	0.365799993	-1.27849996	14	198	96
-0.150969997	0.365669996	-1.27859998	14	198	96
-0.150969997	0.365509987	-1.27859998	14	198	96
-0.150969997	0.365150005	-1.27869999	14	198	96
-0.150969997	0.36421001	-1.27900004	14	198	96
-0.150969997	0.363550007	-1.27919996	14	198	96
-0.150969997	0.363249987	-1.27929997	14	198	96
-0.150969997	0.362989992	-1.27929997	14	198	96
-0.150969997	0.36184001	-1.27970004	14	198	96
-0.151020005	0.361799985	-1.28069997	14	198	96
-0.151020005	0.361360013	-1.28079998	14	198	96
-0.151020005	0.360469997	-1.28110003	14	198	96
-0.151020005	0.360110015	-1.28120005	14	198	96
-0.150969997	0.36056	-1.27999997	14	198	96
-0.150969997	0.358660012	-1.28059995	14	198	96
-0.151020005	0.358500004	-1.2816	14	198	96
-0.15106	0.358269989	-1.28269994	14	198	96
-0.151109993	0.358029991	-1.28390002	14	198	96
-0.151199996	0.358049989	-1.2859	14	198	96
-0.151199996	0.357529998	-1.28610003	14	198	96
-0.151199996	0.355960011	-1.28649998	14	198	96
-0.151109993	0.355989993	-1.28439999	14	198	96
-0.15106	0.354579985	-1.28380001	14	198	96
-0.151020005	0.353709996	-1.28299999	14	198	96
-0.150969997	0.352829993	-1.28219998	14	198	96
-0.15106	0.352800012	-1.28429997	14	198	96
-0.151109993	0.352539986	-1.28540003	14	198	96
-0.15106	0.351639986	-1.28460002	14	198	96
-0.15106	0.350919992	-1.28480005	14	198	96
-0.15106	0.350250006	-1.28499997	14	198	96
-0.153139994	0.350219995	-1.28489995	14	198	96
-0.15309	0.349310011	-1.28410006	14	198	96
-0.15309	0.351350009	-1.28349996	14	198	96
-0.15309	0.352510005	-1.28320003	14	198	96
-0.153139994	0.353329986	-1.28400004	14	198	96
-0.153229997	0.354479998	-1.28579998	14	198	96
-0.153229997	0.352780014	-1.28620005	14	198	96
-0.153190002	0.35115999	-1.28569996	14	198	96
-0.155269995	0.351130009	-1.28559995	14	198	96
-0.155269995	0.350459993	-1.28569996	14	198	96
-0.155220002	0.349539995	-1.28499997	14	198	96
-0.157289997	0.350169986	-1.28470004	14	198	96
-0.157240003	0.349260002	-1.28390002	14	198	96
-0.157240003	0.348619998	-1.28410006	14	198	96
-0.157240003	0.348010004	-1.28419995	14	198	96
-0.157289997	0.347559988	-1.28540003	14	198	96
-0.157289997	0.346789986	-1.28559995	14	198	96
-0.157240003	0.345779985	-1.28480005	14	198	96
-0.157289997	0.345310003	-1.28600001	14	198	96
-0.157289997	0.344559997	-1.28620005	14	198	96
-0.157289997	0.343809992	-1.28639996	14	198	96
-0.157289997	0.343019992	-1.28659999	14	198	96
-0.157389998	0.342739999	-1.28869998	14	198	96
-0.157389998	0.341949999	-1.28900003	14	198	96
-0.157389998	0.341159999	-1.28919995	14	198	96
-0.157440007	0.340550005	-1.29040003	14	198	96
-0.157499999	0.339920014	-1.29159999	14	198	96
-0.157550007	0.339329988	-1.29270005	14	198	96
-0.15546	0.339359999	-1.29279995	14	198	96
-0.155410007	0.339949995	-1.29170001	14	198	96
-0.155310005	0.340319991	-1.2895	14	198	96
-0.155310005	0.341179997	-1.28929996	14	198	96
-0.155359998	0.342229992	-1.28999996	14	198	96
-0.155410007	0.343279988	-1.29079998	14	198	96
-0.155410007	0.344080001	-1.29059994	14	198	96
-0.155410007	0.344870001	-1.29040003	14	198	96
-0.153280005	0.343050003	-1.28989995	14	198	96
-0.153229997	0.342000008	-1.28919995	14	198	96
-0.153229997	0.343589991	-1.28869998	14	198	96
-0.153229997	0.344379991	-1.28849995	14	198	96
-0.153190002	0.344870001	-1.28740001	14	198	96
-0.155269995	0.34483999	-1.28729999	14	198	96
-0.155220002	0.346069992	-1.2859	14	198	96
-0.155269995	0.347070009	-1.28670001	14	198	96
-0.155310005	0.34810999	-1.28740001	14	198	96
-0.153139994	0.347609997	-1.28559995	14	198	96
-0.153139994	0.346839994	-1.28579998	14	198	96
-0.15309	0.345099986	-1.2852	14	198	96
-0.150969997	0.344859987	-1.28429997	14	198	96
-0.15106	0.34612	-1.28610003	14	198	96
-0.15106	0.344639987	-1.28649998	14	198	96
-0.148939997	0.344399989	-1.28559995	14	198	96
-0.148939997	0.345149994	-1.28540003	14	198	96
-0.148900002	0.345620006	-1.28419995	14	198	96
-0.148939997	0.346630007	-1.28499997	14	198	96
-0.148990005	0.347660005	-1.28579998	14	198	96
-0.148939997	0.348729998	-1.28439999	14	198	96
-0.148900002	0.347849995	-1.28359997	14	198	96
-0.148859993	0.349480003	-1.28219998	14	198	96
-0.148900002	0.350419998	-1.28289998	14	198	96
-0.148900002	0.352299988	-1.28240001	14	198	96
-0.148859993	0.352589995	-1.28129995	14	198	96
-0.146870002	0.353139997	-1.28330004	14	198	96
-0.146909997	0.35284999	-1.28439999	14	198	96
-0.146950006	0.352589995	-1.28550005	14	198	96
-0.146950006	0.35194999	-1.28569996	14	198	96
-0.146990001	0.350820005	-1.28709996	14	198	96
-0.146990001	0.350169986	-1.28719997	14	198	96
-0.149069995	0.350140005	-1.28719997	14	198	96
-0.148990005	0.351660013	-1.28470004	14	198	96
-0.14903	0.352569997	-1.28550005	14	198	96
-0.148990005	0.354000002	-1.28400004	14	198	96
-0.148990005	0.354600012	-1.28390002	14	198	96
-0.148990005	0.355190009	-1.28369999	14	198	96
-0.148939997	0.355479985	-1.28260005	14	198	96
-0.148900002	0.35571	-1.28149998	14	198	96
-0.148900002	0.356209993	-1.28129995	14	198	96
-0.148900002	0.356730014	-1.28120005	14	198	96
-0.148859993	0.358420014	-1.27970004	14	198	96
-0.148859993	0.359180003	-1.27950001	14	198	96
-0.148809999	0.358559996	-1.27859998	14	198	96
-0.150879994	0.358539999	-1.27849996	14	198	96
-0.150839999	0.358610004	-1.27750003	14	198	96
-0.152950004	0.358859986	-1.27830005	14	198	96
-0.152999997	0.358779997	-1.27939999	14	198	96
-0.153050005	0.358630002	-1.28050005	14	198	96
-0.153050005	0.358200014	-1.28059995	14	198	96
-0.153050005	0.357710004	-1.28069997	14	198	96
-0.153050005	0.357199997	-1.2809	14	198	96
-0.152999997	0.355390012	-1.28030002	14	198	96
-0.153050005	0.354600012	-1.2816	14	198	96
-0.153050005	0.35402	-1.28180003	14	198	96
-0.15309	0.355430007	-1.28240001	14	198	96
-0.153139994	0.357219994	-1.28289998	14	198	96
-0.153190002	0.356970012	-1.28400004	14	198	96
-0.155269995	0.356940001	-1.28400004	14	198	96
-0.155220002	0.356169999	-1.28310001	14	198	96
-0.155169994	0.355399996	-1.2823	14	198	96
-0.155169994	0.356920004	-1.28190005	14	198	96
-0.15512	0.357169986	-1.28079998	14	198	96
-0.15512	0.357679993	-1.28059995	14	198	96
-0.155070007	0.357910007	-1.27950001	14	198	96
-0.155070007	0.358339995	-1.27939999	14	198	96
-0.155070007	0.358749986	-1.27929997	14	198	96
-0.15512	0.359369993	-1.2802	14	198	96
-0.155169994	0.360049993	-1.28100002	14	198	96
-0.155169994	0.360419989	-1.2809	14	198	96
-0.15512	0.360500008	-1.27980006	14	198	96
-0.15512	0.361030012	-1.27970004	14	198	96
-0.155169994	0.361739993	-1.28050005	14	198	96
-0.15309	0.361770004	-1.28059995	14	198	96
-0.15309	0.361330003	-1.28079998	14	198	96
-0.15309	0.360799998	-1.2809	14	198	96
-0.15309	0.36045	-1.28100002	14	198	96
-0.153050005	0.359809995	-1.28009999	14	198	96
-0.153050005	0.361809999	-1.27960002	14	198	96
-0.152999997	0.361919999	-1.27849996	14	198	96
-0.152950004	0.362419993	-1.2773	14	198	96
-0.152899995	0.36195001	-1.27639997	14	198	96
-0.152860001	0.361409992	-1.27550006	14	198	96
-0.150790006	0.361440003	-1.27559996	14	198	96
-0.150839999	0.361970007	-1.27649999	14	198	96
-0.150879994	0.361669987	-1.27760005	14	198	96
-0.148770005	0.361739993	-1.27670002	14	198	96
-0.148809999	0.362729996	-1.27740002	14	198	96
-0.148859993	0.363299996	-1.27830005	14	198	96
-0.148859993	0.362540007	-1.27849996	14	198	96
-0.148859993	0.361970007	-1.27869999	14	198	96
-0.148900002	0.361869991	-1.27980006	14	198	96
-0.148900002	0.361550003	-1.27980006	14	198	96
-0.148900002	0.363020003	-1.27939999	14	198	96
-0.148900002	0.364239991	-1.27909994	14	198	96
-0.148900002	0.365170002	-1.27880001	14	198	96
-0.148900002	0.365689993	-1.27869999	14	198	96
-0.148900002	0.365830004	-1.27859998	14	198	96
-0.148900002	0.366560012	-1.27839994	14	198	96
-0.148900002	0.366569996	-1.27839994	14	198	96
-0.148900002	0.366580009	-1.27839994	14	198	96
-0.148900002	0.366600007	-1.27839994	14	198	96
-0.148859993	0.366320014	-1.27750003	14	198	96
-0.148859993	0.366230011	-1.27750003	14	198	96
-0.148859993	0.366129994	-1.27750003	14	198	96
-0.148809999	0.366039991	-1.27649999	14	198	96
-0.148809999	0.365999997	-1.27649999	14	198	96
-0.148809999	0.365979999	-1.27649999	14	198	96
-0.148809999	0.365920007	-1.27649999	14	198	96
-0.148809999	0.365680009	-1.2766	14	198	96
-0.148770005	0.365319997	-1.27569997	14	198	96
-0.148770005	0.365770012	-1.27550006	14	198	96
-0.148729995	0.36548999	-1.27460003	14	198	96
-0.148680001	0.36522001	-1.27359998	14	198	96
-0.146620005	0.365240008	-1.2737	14	198	96
-0.14666	0.36552	-1.27470005	14	198	96
-0.14666	0.365069985	-1.27479994	14	198	96
-0.14666	0.364289999	-1.27499998	14	198	96
-0.14666	0.363900006	-1.27509999	14	198	96
-0.14666	0.363689989	-1.27520001	14	198	96
-0.146699995	0.363739997	-1.27620006	14	198	96
-0.146699995	0.36473	-1.27590001	14	198	96
-0.146699995	0.365429997	-1.27569997	14	198	96
-0.146699995	0.365509987	-1.27569997	14	198	96
-0.146699995	0.36559999	-1.27569997	14	198	96
-0.146699995	0.365729988	-1.27559996	14	198	96
-0.146699995	0.365790009	-1.27559996	14	198	96
-0.146740004	0.365949988	-1.2766	14	198	96
-0.146740004	0.366019994	-1.2766	14	198	96
-0.146740004	0.366039991	-1.2766	14	198	96
-0.146740004	0.366070002	-1.2766	14	198	96
-0.146779999	0.366340011	-1.27750003	14	198	96
-0.146779999	0.366250008	-1.27760005	14	198	96
-0.146830007	0.366589993	-1.27849996	14	198	96
-0.146830007	0.366620004	-1.27849996	14	198	96
-0.146830007	0.365979999	-1.27869999	14	198	96
-0.146870002	0.365990013	-1.27970004	14	198	96
-0.146870002	0.366120011	-1.27970004	14	198	96
-0.146870002	0.366869986	-1.27950001	14	198	96
-0.146870002	0.36688	-1.27950001	14	198	96
-0.146870002	0.366899997	-1.27950001	14	198	96
-0.146909997	0.367170006	-1.28040004	14	198	96
-0.146909997	0.366620004	-1.28059995	14	198	96
-0.144830003	0.366129994	-1.28079998	14	198	96
-0.144830003	0.365960002	-1.2809	14	198	96
-0.144789994	0.36601001	-1.27980006	14	198	96
-0.144789994	0.366910011	-1.27950001	14	198	96
-0.144789994	0.366919994	-1.27950001	14	198	96
-0.144749999	0.366640002	-1.27859998	14	198	96
-0.144749999	0.366609991	-1.27859998	14	198	96
-0.144749999	0.366549999	-1.27859998	14	198	96
-0.144749999	0.366519988	-1.27859998	14	198	96
-0.144749999	0.366450012	-1.27859998	14	198	96
-0.144710004	0.36609	-1.27769995	14	198	96
-0.144710004	0.36631	-1.27760005	14	198	96
-0.144710004	0.366320014	-1.27760005	14	198	96
-0.144710004	0.366329998	-1.27760005	14	198	96
-0.144710004	0.366369992	-1.27760005	14	198	96
-0.144710004	0.365819991	-1.27779996	14	198	96
-0.144710004	0.365720004	-1.27779996	14	198	96
-0.144710004	0.36559999	-1.27779996	14	198	96
-0.144710004	0.364950001	-1.278	14	198	96
-0.144710004	0.364749998	-1.27810001	14	198	96
-0.144669995	0.363739997	-1.2773	14	198	96
-0.14463	0.363759995	-1.27629995	14	198	96
-0.144590005	0.363709986	-1.27530003	14	198	96
-0.14463	0.365370005	-1.27579999	14	198	96
-0.14463	0.365449995	-1.27579999	14	198	96
-0.14463	0.365819991	-1.27569997	14	198	96
-0.144669995	0.36609	-1.27670002	14	198	96
-0.1426	0.366079986	-1.27670002	14	198	96
-0.1426	0.366100013	-1.27670002	14	198	96
-0.1426	0.366109997	-1.27670002	14	198	96
-0.1426	0.366070002	-1.27680004	14	198	96
-0.1426	0.365669996	-1.27690005	14	198	96
-0.1426	0.365570009	-1.27690005	14	198	96
-0.1426	0.36469999	-1.27709997	14	198	96
-0.1426	0.364279985	-1.2773	14	198	96
-0.1426	0.363759995	-1.27740002	14	198	96
-0.1426	0.363429993	-1.27750003	14	198	96
-0.142639995	0.363370001	-1.27859998	14	198	96
-0.142639995	0.362809986	-1.27869999	14	198	96
-0.142639995	0.362610012	-1.27880001	14	198	96
-0.142680004	0.36263001	-1.27980006	14	198	96
-0.142680004	0.361939996	-1.27999997	14	198	96
-0.142719999	0.361449987	-1.28120005	14	198	96
-0.142759994	0.362159997	-1.28199995	14	198	96
-0.142759994	0.36285001	-1.28180003	14	198	96
-0.142759994	0.363889992	-1.28149998	14	198	96
-0.140640005	0.36364001	-1.28059995	14	198	96
-0.140640005	0.362919986	-1.28079998	14	198	96
-0.140640005	0.361909986	-1.28110003	14	198	96
-0.140640005	0.360940009	-1.28139997	14	198	96
-0.14068	0.36085999	-1.28250003	14	198	96
-0.14068	0.360489994	-1.28260005	14	198	96
-0.140719995	0.360350013	-1.28359997	14	198	96
-0.140719995	0.360000014	-1.28369999	14	198	96
-0.14068	0.358390003	-1.28320003	14	198	96
-0.14068	0.357870013	-1.28330004	14	198	96
-0.140640005	0.359039992	-1.28190005	14	198	96
-0.140609995	0.358339995	-1.28110003	14	198	96
-0.138530001	0.35879001	-1.28100002	14	198	96
-0.138569996	0.358139992	-1.2823	14	198	96
-0.138569996	0.357620001	-1.28240001	14	198	96
-0.138569996	0.356590003	-1.28269994	14	198	96
-0.138569996	0.356090009	-1.28279996	14	198	96
-0.138569996	0.355589986	-1.28299999	14	198	96
-0.138569996	0.354449987	-1.28330004	14	198	96
-0.138640001	0.355560005	-1.28509998	14	198	96
-0.138710007	0.354900002	-1.28729999	14	198	96
-0.138740003	0.354000002	-1.28859997	14	198	96
-0.138779998	0.354809999	-1.28939998	14	198	96
-0.136720002	0.355100006	-1.29040003	14	198	96
-0.136659995	0.354009986	-1.28869998	14	198	96
-0.13662	0.35492	-1.28740001	14	198	96
-0.136659995	0.355800003	-1.28820002	14	198	96
-0.134570003	0.355809987	-1.28820002	14	198	96
-0.134540007	0.354939997	-1.28740001	14	198	96
-0.134509996	0.354059994	-1.28670001	14	198	96
-0.13448	0.353240013	-1.28579998	14	198	96
-0.13448	0.352710009	-1.28600001	14	198	96
-0.134509996	0.351610005	-1.28729999	14	198	96
-0.134509996	0.350939989	-1.28750002	14	198	96
-0.134540007	0.349920005	-1.2888	14	198	96
-0.134570003	0.350809991	-1.28960001	14	198	96
-0.132489994	0.350829989	-1.28970003	14	198	96
-0.132459998	0.349929988	-1.28890002	14	198	96
-0.132459998	0.349319994	-1.28910005	14	198	96
-0.130380005	0.349330008	-1.28910005	14	198	96
-0.130380005	0.349949986	-1.28890002	14	198	96
-0.130380005	0.351240009	-1.28859997	14	198	96
-0.130380005	0.351909995	-1.28840005	14	198	96
-0.130380005	0.352629989	-1.28820002	14	198	96
-0.130349994	0.353009999	-1.28709996	14	198	96
-0.130319998	0.353269994	-1.28600001	14	198	96
-0.130319998	0.353819996	-1.28579998	14	198	96
-0.132400006	0.353810012	-1.28579998	14	198	96
-0.132400006	0.35326001	-1.2859	14	198	96
-0.132400006	0.352730006	-1.28600001	14	198	96
-0.132430002	0.352349997	-1.28719997	14	198	96
-0.132430002	0.350959986	-1.28760004	14	198	96
-0.132489994	0.352160007	-1.28929996	14	198	96
-0.134540007	0.352600008	-1.2881	14	198	96
-0.136590004	0.350919992	-1.28740001	14	198	96
-0.136559993	0.351330012	-1.28629994	14	198	96
-0.136559993	0.352699995	-1.2859	14	198	96
-0.136490002	0.351529986	-1.28419995	14	198	96
-0.138600007	0.351770014	-1.28509998	14	198	96
-0.138640001	0.351310015	-1.28620005	14	198	96
-0.138640001	0.352679998	-1.2859	14	198	96
-0.140719995	0.35266	-1.28579998	14	198	96
-0.14068	0.352919996	-1.28470004	14	198	96
-0.140640005	0.351489991	-1.28400004	14	198	96
-0.140719995	0.351300001	-1.28620005	14	198	96
-0.142800003	0.351990014	-1.2859	14	198	96
-0.142800003	0.353159994	-1.28559995	14	198	96
-0.142829999	0.353980005	-1.28639996	14	198	96
-0.142800003	0.354330003	-1.2852	14	198	96
-0.142759994	0.355260015	-1.28390002	14	198	96
-0.142800003	0.356579989	-1.28460002	14	198	96
-0.142829999	0.357349992	-1.28540003	14	198	96
-0.142829999	0.356350005	-1.28569996	14	198	96
-0.140750006	0.355809987	-1.28600001	14	198	96
-0.140750006	0.35462001	-1.28629994	14	198	96
-0.140750006	0.354000002	-1.28649998	14	198	96
-0.142759994	0.352369994	-1.28470004	14	198	96
-0.144869998	0.352620006	-1.28559995	14	198	96
-0.144869998	0.353139997	-1.28550005	14	198	96
-0.144909993	0.353960007	-1.28629994	14	198	96
-0.144869998	0.351969987	-1.28579998	14	198	96
-0.144830003	0.350989997	-1.28499997	14	198	96
-0.144830003	0.348419994	-1.28569996	14	198	96
-0.144830003	0.346929997	-1.28610003	14	198	96
-0.144869998	0.346450001	-1.28729999	14	198	96
-0.144909993	0.345970005	-1.28849995	14	198	96
-0.144909993	0.34522	-1.28869998	14	198	96
-0.144909993	0.344469994	-1.28890002	14	198	96
-0.144909993	0.343690008	-1.28910005	14	198	96
-0.144950002	0.34314999	-1.29030001	14	198	96
-0.144909993	0.342090011	-1.2895	14	198	96
-0.144869998	0.341049999	-1.28869998	14	198	96
-0.142800003	0.341069996	-1.2888	14	198	96
-0.142869994	0.340719998	-1.29100001	14	198	96
-0.142869994	0.339830011	-1.29120004	14	198	96
-0.142869994	0.338990003	-1.29139996	14	198	96
-0.142869994	0.338169992	-1.29170001	14	198	96
-0.142910004	0.337550014	-1.29279995	14	198	96
-0.142910004	0.336650014	-1.2931	14	198	96
-0.142949998	0.335979998	-1.29429996	14	198	96
-0.142989993	0.335299999	-1.29550004	14	198	96
-0.142989993	0.333330005	-1.296	14	198	96
-0.142949998	0.332109988	-1.29530001	14	198	96
-0.142949998	0.331149995	-1.29550004	14	198	96
-0.145030007	0.331129998	-1.29550004	14	198	96
-0.145070001	0.332340002	-1.29620004	14	198	96
-0.145030007	0.333059996	-1.29499996	14	198	96
-0.144950002	0.333550006	-1.29279995	14	198	96
-0.142869994	0.333570004	-1.29279995	14	198	96
-0.140860006	0.334089994	-1.29489994	14	198	96
-0.140900001	0.333350003	-1.29610002	14	198	96
-0.140900001	0.332379997	-1.29630005	14	198	96
-0.140860006	0.331169993	-1.29560006	14	198	96
-0.138809994	0.331440002	-1.2967	14	198	96
-0.138809994	0.332399994	-1.29639995	14	198	96
-0.138779998	0.333119988	-1.29519999	14	198	96
-0.138779998	0.334109992	-1.29489994	14	198	96
-0.138809994	0.335330009	-1.29560006	14	198	96
-0.136720002	0.335350007	-1.29569995	14	198	96
-0.136720002	0.336290002	-1.29550004	14	198	96
-0.136759996	0.337460011	-1.29620004	14	198	96
-0.134639993	0.336309999	-1.29550004	14	198	96
-0.134639993	0.335370004	-1.29579997	14	198	96
-0.134639993	0.334390014	-1.296	14	198	96
-0.134670004	0.333649993	-1.29729998	14	198	96
-0.134639993	0.332430005	-1.29649997	14	198	96
-0.134639993	0.331470013	-1.29680002	14	198	96
-0.136720002	0.331449986	-1.2967	14	198	96
-0.136690006	0.333130002	-1.29530001	14	198	96
-0.136690006	0.334129989	-1.29499996	14	198	96
-0.136659995	0.331919998	-1.29449999	14	198	96
-0.138740003	0.335770011	-1.29349995	14	198	96
-0.138740003	0.336690009	-1.29320002	14	198	96
-0.138710007	0.338209987	-1.29180002	14	198	96
-0.138669997	0.337080002	-1.29110003	14	198	96
-0.140829995	0.337570012	-1.29289997	14	198	96
-0.140829995	0.338440001	-1.29270005	14	198	96
-0.140790001	0.33901	-1.29149997	14	198	96
-0.140750006	0.339599997	-1.29030001	14	198	96
-0.140750006	0.34048	-1.29009998	14	198	96
-0.138669997	0.340499997	-1.2902	14	198	96
-0.138669997	0.341360003	-1.28989995	14	198	96
-0.138710007	0.342409998	-1.29069996	14	198	96
-0.138740003	0.343459994	-1.29139996	14	198	96
-0.138779998	0.344520003	-1.29219997	14	198	96
-0.138809994	0.345560014	-1.29299998	14	198	96
-0.136690006	0.34683001	-1.29170001	14	198	96
-0.13662	0.347050011	-1.2895	14	198	96
-0.136590004	0.347530007	-1.28840005	14	198	96
-0.138669997	0.348289996	-1.2881	14	198	96
-0.138640001	0.348740011	-1.28690004	14	198	96
-0.138640001	0.347250015	-1.28729999	14	198	96
-0.138640001	0.346509993	-1.28750002	14	198	96
-0.138669997	0.346029997	-1.28869998	14	198	96
-0.138669997	0.345279992	-1.28890002	14	198	96
-0.136559993	0.345039994	-1.28799999	14	198	96
-0.13448	0.345059991	-1.2881	14	198	96
-0.134540007	0.344819993	-1.2902	14	198	96
-0.134540007	0.346329987	-1.28980005	14	198	96
-0.134540007	0.34781	-1.28939998	14	198	96
-0.134599999	0.347579986	-1.29149997	14	198	96
-0.132489994	0.347339988	-1.29059994	14	198	96
-0.132489994	0.346599996	-1.29079998	14	198	96
-0.132430002	0.345340014	-1.28910005	14	198	96
-0.132430002	0.344579995	-1.28929996	14	198	96
-0.132459998	0.34325999	-1.29069996	14	198	96
-0.132459998	0.342460006	-1.29089999	14	198	96
-0.132459998	0.341670007	-1.29110003	14	198	96
-0.134540007	0.341650009	-1.29100001	14	198	96
-0.134540007	0.340790004	-1.29130006	14	198	96
-0.134509996	0.342189997	-1.28989995	14	198	96
-0.134540007	0.343239993	-1.29059994	14	198	96
-0.13662	0.343219995	-1.29059994	14	198	96
-0.13662	0.342429996	-1.29079998	14	198	96
-0.136590004	0.34138	-1.28999996	14	198	96
-0.136559993	0.340270013	-1.28929996	14	198	96
-0.138740003	0.340119988	-1.29229999	14	198	96
-0.138779998	0.339529991	-1.29349995	14	198	96
-0.136659995	0.338479996	-1.29279995	14	198	96
-0.136659995	0.337599993	-1.2931	14	198	96
-0.134570003	0.33761999	-1.2931	14	198	96
-0.134570003	0.338490009	-1.29289997	14	198	96
-0.134570003	0.336730003	-1.29340005	14	198	96
-0.132520005	0.337889999	-1.29419994	14	198	96
-0.132550001	0.339020014	-1.29489994	14	198	96
-0.132579997	0.340090007	-1.29560006	14	198	96
-0.132579997	0.340939999	-1.29540002	14	198	96
-0.132550001	0.34156999	-1.29419994	14	198	96
-0.134639993	0.34066999	-1.29439998	14	198	96
-0.134670004	0.340079993	-1.29560006	14	198	96
-0.136759996	0.340059996	-1.29550004	14	198	96
-0.136720002	0.340649992	-1.29429996	14	198	96
-0.132579997	0.337500006	-1.29630005	14	198	96
-0.132609993	0.33682999	-1.29750001	14	198	96
-0.132550001	0.334410012	-1.29610002	14	198	96
-0.132520005	0.335130006	-1.29489994	14	198	96
-0.130429998	0.335150003	-1.29489994	14	198	96
-0.130400002	0.335839987	-1.29369998	14	198	96
-0.130400002	0.336760014	-1.29349995	14	198	96
-0.130429998	0.337900013	-1.29419994	14	198	96
-0.130459994	0.339029998	-1.29499996	14	198	96
-0.130459994	0.339859992	-1.29470003	14	198	96
-0.130490005	0.340950012	-1.29550004	14	198	96
-0.130520001	0.342099994	-1.29620004	14	198	96
-0.130490005	0.342709988	-1.29499996	14	198	96
-0.128419995	0.341219991	-1.29649997	14	198	96
-0.128480002	0.342619985	-1.29820001	14	198	96
-0.1285	0.343739986	-1.29890001	14	198	96
-0.128450006	0.344029993	-1.29680002	14	198	96
-0.128450006	0.34562999	-1.29639995	14	198	96
-0.128419995	0.346159995	-1.29519999	14	198	96
-0.128450006	0.347180009	-1.296	14	198	96
-0.128419995	0.34841001	-1.29460001	14	198	96
-0.128399998	0.350389987	-1.29299998	14	198	96
-0.128419995	0.353240013	-1.29330003	14	198	96
-0.128370002	0.353439987	-1.29120004	14	198	96
-0.128370002	0.354079992	-1.29100001	14	198	96
-0.128370002	0.355159998	-1.29069996	14	198	96
-0.128340006	0.354350001	-1.28989995	14	198	96
-0.130429998	0.355500013	-1.2895	14	198	96
-0.130400002	0.355850011	-1.28840005	14	198	96
-0.130380005	0.356169999	-1.28719997	14	198	96
-0.130349994	0.356460005	-1.28610003	14	198	96
-0.130319998	0.35668999	-1.28499997	14	198	96
-0.130349994	0.358500004	-1.28559995	14	198	96
-0.130380005	0.359290004	-1.28639996	14	198	96
-0.130400002	0.358520001	-1.28760004	14	198	96
-0.130380005	0.357730001	-1.28680003	14	198	96
-0.132430002	0.358480006	-1.28550005	14	198	96
-0.132400006	0.35769999	-1.28470004	14	198	96
-0.132400006	0.358729988	-1.28439999	14	198	96
-0.132400006	0.359219998	-1.28429997	14	198	96
-0.132430002	0.359930009	-1.28509998	14	198	96
-0.132430002	0.360350013	-1.28499997	14	198	96
-0.132369995	0.360150009	-1.28299999	14	198	96
-0.132369995	0.360570014	-1.28279996	14	198	96
-0.132339999	0.361990005	-1.28139997	14	198	96
-0.132339999	0.362300009	-1.28129995	14	198	96
-0.132339999	0.363249987	-1.28100002	14	198	96
-0.132339999	0.363449991	-1.28100002	14	198	96
-0.132310003	0.363440007	-1.27989995	14	198	96
-0.132280007	0.362450004	-1.27919996	14	198	96
-0.132280007	0.362129986	-1.27929997	14	198	96
-0.132280007	0.361000001	-1.27960002	14	198	96
-0.132280007	0.360469997	-1.27970004	14	198	96
-0.132310003	0.360390007	-1.28079998	14	198	96
-0.134379998	0.360379994	-1.28069997	14	198	96
-0.134379998	0.360729992	-1.28059995	14	198	96
-0.134379998	0.361699998	-1.28040004	14	198	96
-0.134419993	0.362289995	-1.28120005	14	198	96
-0.134419993	0.363240004	-1.28100002	14	198	96
-0.134419993	0.363700002	-1.28079998	14	198	96
-0.134419993	0.363999993	-1.28079998	14	198	96
-0.134450004	0.364600003	-1.2816	14	198	96
-0.134450004	0.364930004	-1.28149998	14	198	96
-0.134450004	0.365460008	-1.28139997	14	198	96
-0.134450004	0.366070002	-1.28120005	14	198	96
-0.134419993	0.366120011	-1.2802	14	198	96
-0.134419993	0.365960002	-1.2802	14	198	96
-0.134419993	0.366250008	-1.28009999	14	198	96
-0.134419993	0.366380006	-1.28009999	14	198	96
-0.134419993	0.366739988	-1.27999997	14	198	96
-0.134419993	0.366899997	-1.27989995	14	198	96
-0.134419993	0.366959989	-1.27989995	14	198	96
-0.134419993	0.36699	-1.27989995	14	198	96
-0.134419993	0.367020011	-1.27989995	14	198	96
-0.134379998	0.366699994	-1.27900004	14	198	96
-0.134379998	0.366659999	-1.27900004	14	198	96
-0.134379998	0.366549999	-1.27900004	14	198	96
-0.134379998	0.366710007	-1.27890003	14	198	96
-0.134379998	0.366750002	-1.27890003	14	198	96
-0.134350002	0.366470009	-1.278	14	198	96
-0.134350002	0.366459996	-1.278	14	198	96
-0.134350002	0.366439998	-1.278	14	198	96
-0.134350002	0.366019994	-1.27810001	14	198	96
-0.134320006	0.365649998	-1.27719998	14	198	96
-0.134320006	0.366189986	-1.27699995	14	198	96
-0.134289995	0.365920007	-1.27610004	14	198	96
-0.13222	0.36590001	-1.27610004	14	198	96
-0.13222	0.365940005	-1.27610004	14	198	96
-0.132190004	0.365660012	-1.27520001	14	198	96
-0.132249996	0.366169989	-1.27709997	14	198	96
-0.132249996	0.366180003	-1.27709997	14	198	96
-0.132249996	0.366210014	-1.27709997	14	198	96
-0.132280007	0.366459996	-1.278	14	198	96
-0.132280007	0.366490006	-1.278	14	198	96
-0.132280007	0.366290003	-1.27810001	14	198	96
-0.132280007	0.366210014	-1.27810001	14	198	96
-0.132310003	0.366640002	-1.27900004	14	198	96
-0.132310003	0.366750002	-1.27900004	14	198	96
-0.132310003	0.366759986	-1.27900004	14	198	96
-0.132339999	0.366950005	-1.27999997	14	198	96
-0.132339999	0.366979986	-1.27999997	14	198	96
-0.132339999	0.367040008	-1.27999997	14	198	96
-0.132339999	0.366670012	-1.28009999	14	198	96
-0.132339999	0.36638999	-1.28009999	14	198	96
-0.132339999	0.366129994	-1.2802	14	198	96
-0.132369995	0.366540015	-1.28110003	14	198	96
-0.132369995	0.366769999	-1.28110003	14	198	96
-0.132369995	0.366860002	-1.28100002	14	198	96
-0.132369995	0.367309988	-1.2809	14	198	96
-0.132400006	0.36759001	-1.28190005	14	198	96
-0.132369995	0.366079986	-1.28129995	14	198	96
-0.132400006	0.365750015	-1.28240001	14	198	96
-0.132400006	0.365530014	-1.28250003	14	198	96
-0.132400006	0.364560008	-1.28269994	14	198	96
-0.132369995	0.36462	-1.28170002	14	198	96
-0.132310003	0.365139991	-1.27950001	14	198	96
-0.132310003	0.365339994	-1.27939999	14	198	96
-0.132310003	0.365700006	-1.27929997	14	198	96
-0.132280007	0.36412999	-1.27869999	14	198	96
-0.130239993	0.36274001	-1.2802	14	198	96
-0.130260006	0.363270015	-1.28110003	14	198	96
-0.130290002	0.362589985	-1.2823	14	198	96
-0.130319998	0.363240004	-1.28320003	14	198	96
-0.130349994	0.362819999	-1.28429997	14	198	96
-0.130380005	0.362650007	-1.28540003	14	198	96
-0.130319998	0.361570001	-1.28369999	14	198	96
-0.130319998	0.360850006	-1.28390002	14	198	96
-0.130319998	0.360089988	-1.28410006	14	198	96
-0.130319998	0.359239995	-1.28429997	14	198	96
-0.130290002	0.360170007	-1.28299999	14	198	96
-0.130260006	0.359129995	-1.2823	14	198	96
-0.130260006	0.360680014	-1.28180003	14	198	96
-0.128209993	0.359840006	-1.28320003	14	198	96
-0.12827	0.35995999	-1.2852	14	198	96
-0.128340006	0.360329986	-1.28820002	14	198	96
-0.128340006	0.359320015	-1.28849995	14	198	96
-0.128370002	0.358040005	-1.28989995	14	198	96
-0.128340006	0.357270002	-1.28910005	14	198	96
-0.128340006	0.356709987	-1.28919995	14	198	96
-0.128399998	0.356660008	-1.29130006	14	198	96
-0.128419995	0.356319994	-1.2924	14	198	96
-0.128480002	0.359620005	-1.29359996	14	198	96
-0.1285	0.360410005	-1.29439998	14	198	96
-0.128419995	0.360650003	-1.29120004	14	198	96
-0.128399998	0.362069994	-1.28980005	14	198	96
-0.128399998	0.363220006	-1.2895	14	198	96
-0.128419995	0.365159988	-1.28999996	14	198	96
-0.128480002	0.365009993	-1.29209995	14	198	96
-0.128480002	0.364560008	-1.29219997	14	198	96
-0.128480002	0.363299996	-1.29260004	14	198	96
-0.128480002	0.366490006	-1.29170001	14	198	96
-0.128480002	0.366750002	-1.29159999	14	198	96
-0.128480002	0.367049992	-1.29149997	14	198	96
-0.128480002	0.368250012	-1.29120004	14	198	96
-0.128450006	0.367749989	-1.29030001	14	198	96
-0.128450006	0.368389994	-1.29009998	14	198	96
-0.128480002	0.370099992	-1.29059994	14	198	96
-0.1285	0.370249987	-1.29159999	14	198	96
-0.1285	0.370380014	-1.29159999	14	198	96
-0.128529996	0.370649993	-1.29260004	14	198	96
-0.128549993	0.370929986	-1.29349995	14	198	96
-0.128580004	0.371199995	-1.29449999	14	198	96
-0.12861	0.371479988	-1.29540002	14	198	96
-0.128629997	0.371719986	-1.29639995	14	198	96
-0.128629997	0.371740013	-1.29639995	14	198	96
-0.128629997	0.371749997	-1.29639995	14	198	96
