0.30618	0.10469	-1.17159998	112	78	220
0.30509001	0.106169999	-1.17400002	112	78	220
0.30509001	0.107330002	-1.17390001	112	78	220
0.304729998	0.108319998	-1.17289996	112	78	220
0.302920014	0.108379997	-1.17359996	112	78	220
0.302920014	0.106150001	-1.17379999	112	78	220
0.300760001	0.104869999	-1.17369998	112	78	220
0.300399989	0.106040001	-1.17260003	112	78	220
0.298229992	0.106020004	-1.1724	112	78	220
0.297879994	0.10469	-1.17159998	112	78	220
0.295720011	0.104659997	-1.17130005	112	78	220
0.296429992	0.106080003	-1.17309999	112	78	220
0.294259995	0.106059998	-1.17279994	112	78	220
0.293909997	0.107129999	-1.17180002	112	78	220
0.292109996	0.107199997	-1.17250001	112	78	220
0.292459995	0.106119998	-1.17349994	112	78	220
0.289950013	0.106009997	-1.17229998	112	78	220
0.28779	0.10599	-1.17209995	112	78	220
0.287440002	0.104659997	-1.17120004	112	78	220
0.289249986	0.104599997	-1.17060006	112	78	220
0.291049987	0.104539998	-1.16989994	112	78	220
0.292849988	0.10447	-1.16919994	112	78	220
0.293940008	0.103019997	-1.16680002	112	78	220
0.295740008	0.101750001	-1.16620004	112	78	220
0.297890007	0.101769999	-1.16649997	112	78	220
0.300040007	0.101790003	-1.16670001	112	78	220
0.301479995	0.10165	-1.16509998	112	78	220
0.303629994	0.101669997	-1.16530001	112	78	220
0.305790007	0.101690002	-1.16550004	112	78	220
0.30794999	0.101709999	-1.16579998	112	78	220
0.307220012	0.100409999	-1.16400003	112	78	220
0.309009999	0.10035	-1.16330004	112	78	220
0.310799986	0.0991830006	-1.16270006	112	78	220
0.312220007	0.0990429968	-1.16110003	112	78	220
0.314370006	0.0990609974	-1.16129994	112	78	220
0.313329995	0.100380003	-1.16369998	112	78	220
0.315490007	0.100400001	-1.16390002	112	78	220
0.314440012	0.101769999	-1.16639996	112	78	220
0.314819992	0.10306	-1.16719997	112	78	220
0.312649995	0.103040002	-1.16700006	112	78	220
0.312649995	0.101829998	-1.16709995	112	78	220
0.310479999	0.101810001	-1.16690004	112	78	220
0.310479999	0.103019997	-1.16680002	112	78	220
0.309049994	0.10317	-1.16840005	112	78	220
0.306519985	0.103069998	-1.16729999	112	78	220
0.304360002	0.103050001	-1.16709995	112	78	220
0.302560002	0.10311	-1.16779995	112	78	220
0.303290009	0.104500003	-1.16949999	112	78	220
0.301479995	0.104560003	-1.17019999	112	78	220
0.298610002	0.103150003	-1.16820002	112	78	220
0.296810001	0.103210002	-1.16890001	112	78	220
0.299320012	0.102839999	-1.16470003	112	78	220
0.311910003	0.10052	-1.16540003	112	78	220
0.316610008	0.101790003	-1.16659999	112	78	220
0.313259989	0.0976909995	-1.15859997	112	78	220
0.315039992	0.097631	-1.15789998	112	78	220
0.315039992	0.0987640023	-1.15779996	112	78	220
0.316819996	0.0975700021	-1.15719998	112	78	220
0.31821999	0.0974309966	-1.15550005	112	78	220
0.319990009	0.0962160006	-1.15489995	112	78	220
0.322149992	0.096231997	-1.15509999	112	78	220
0.321379989	0.0949169993	-1.15330005	112	78	220
0.323159993	0.0948569998	-1.15260005	112	78	220
0.323159993	0.0960180014	-1.15250003	112	78	220
0.325690001	0.0961100012	-1.15359998	112	78	220
0.326689988	0.0947360024	-1.15110004	112	78	220
0.327080011	0.0936440006	-1.15219998	112	78	220
0.324930012	0.0936300009	-1.15199995	112	78	220
0.323769987	0.0922920033	-1.14929998	112	78	220
0.321619987	0.0922759995	-1.14909995	112	78	220
0.32201001	0.0934650004	-1.14989996	112	78	220
0.319860011	0.0934489965	-1.14970005	112	78	220
0.318089992	0.0946730003	-1.15040004	112	78	220
0.315950006	0.0946559981	-1.15020001	112	78	220
0.314179987	0.0947149992	-1.15090001	112	78	220
0.314179987	0.0958750024	-1.15079999	112	78	220
0.312409997	0.0947740003	-1.1516	112	78	220
0.310640007	0.0948320031	-1.1523	112	78	220
0.308129996	0.0947379991	-1.15120006	112	78	220
0.308129996	0.0935719982	-1.15129995	112	78	220
0.308499992	0.0925310031	-1.1523	112	78	220
0.306360006	0.0925130025	-1.15209997	112	78	220
0.30599001	0.0935539976	-1.15100002	112	78	220
0.305620015	0.0946440026	-1.14999998	112	78	220
0.304589987	0.0948539972	-1.15260005	112	78	220
0.304589987	0.0936859995	-1.15269995	112	78	220
0.303860009	0.0924210027	-1.15090001	112	78	220
0.302089989	0.093592003	-1.15149999	112	78	220
0.302460015	0.0948349983	-1.1523	112	78	220
0.300680012	0.0948920026	-1.153	112	78	220
0.300680012	0.0937239975	-1.15310001	112	78	220
0.299950004	0.0924580023	-1.15139997	112	78	220
0.301360011	0.0923269987	-1.14970005	112	78	220
0.303119987	0.0911919996	-1.14909995	112	78	220
0.304879993	0.0911369994	-1.14839995	112	78	220
0.306650013	0.0910810009	-1.14769995	112	78	220
0.308780015	0.0910990015	-1.148	112	78	220
0.30915001	0.0922510028	-1.14880002	112	78	220
0.308780015	0.0932890028	-1.14779997	112	78	220
0.310539991	0.0932319984	-1.14709997	112	78	220
0.310169995	0.0920460001	-1.14619994	112	78	220
0.309789985	0.0908960029	-1.14540005	112	78	220
0.312299997	0.0909859985	-1.14649999	112	78	220
0.312299997	0.0920630023	-1.14649999	112	78	220
0.312299997	0.0931740031	-1.14639997	112	78	220
0.314060003	0.0920059979	-1.14569998	112	78	220
0.314819992	0.0932660028	-1.14750004	112	78	220
0.316579998	0.0920969993	-1.14690006	112	78	220
0.318720013	0.0921130031	-1.14709997	112	78	220
0.31795001	0.0908889994	-1.14530003	112	78	220
0.31505999	0.0907260031	-1.14330006	112	78	220
0.312929988	0.0907099992	-1.14310002	112	78	220
0.313540012	0.0893289968	-1.13970006	112	78	220
0.309670001	0.0893680006	-1.14020002	112	78	220
0.308670014	0.0895679966	-1.14269996	112	78	220
0.320859998	0.091049999	-1.14740002	112	78	220
0.322620004	0.0909930021	-1.14660001	112	78	220
0.317339987	0.0933580026	-1.14859998	112	78	220
0.30061999	0.0910999998	-1.148	112	78	220
0.298500001	0.0910810009	-1.14769995	112	78	220
0.297100008	0.0912090018	-1.1494	112	78	220
0.29745999	0.0923639983	-1.15020001	112	78	220
0.297820002	0.0935539976	-1.15100002	112	78	220
0.29569	0.0935340002	-1.15079999	112	78	220
0.293929994	0.0947559997	-1.15139997	112	78	220
0.291799992	0.0947349966	-1.15110004	112	78	220
0.29144001	0.0934929997	-1.15030003	112	78	220
0.291079998	0.0923039988	-1.1494	112	78	220
0.292849988	0.0922489986	-1.14880002	112	78	220
0.29321	0.0934379995	-1.14960003	112	78	220
0.294609994	0.0921949968	-1.14810002	112	78	220
0.293520004	0.0908949971	-1.14540005	112	78	220
0.291770011	0.0909489989	-1.14610004	112	78	220
0.288599998	0.092207998	-1.14830005	112	78	220
0.288599998	0.093321003	-1.14820004	112	78	220
0.286839992	0.0933749974	-1.14880002	112	78	220
0.28648001	0.0921870023	-1.148	112	78	220
0.284720004	0.0933540016	-1.14859998	112	78	220
0.283309996	0.093483001	-1.15020001	112	78	220
0.281890005	0.0936129987	-1.15180004	112	78	220
0.281890005	0.0947789997	-1.15170002	112	78	220
0.284009993	0.0948019996	-1.15190005	112	78	220
0.286139995	0.0948240012	-1.15219998	112	78	220
0.286839992	0.0961399972	-1.15400004	112	78	220
0.284720004	0.0961180031	-1.15369999	112	78	220
0.284720004	0.0972710028	-1.15359998	112	78	220
0.283289999	0.0974059999	-1.1552	112	78	220
0.28294	0.0961730033	-1.15439999	112	78	220
0.281520009	0.0974610001	-1.1559	112	78	220
0.279740006	0.0975169986	-1.15649998	112	78	220
0.279390007	0.0962830037	-1.15569997	112	78	220
0.280470014	0.0949100032	-1.15330005	112	78	220
0.280470014	0.0937419981	-1.15339994	112	78	220
0.282220006	0.0987519994	-1.15760005	112	78	220
0.283989996	0.0986950025	-1.15699995	112	78	220
0.282559991	0.0965389982	-1.15880001	112	78	220
0.280779988	0.0988880023	-1.15919995	112	78	220
0.279689997	0.100199997	-1.16170001	112	78	220
0.281819999	0.100230001	-1.16190004	112	78	220
0.283960015	0.100249998	-1.16219997	112	78	220
0.284999996	0.101640001	-1.16489995	112	78	220
0.283210009	0.1017	-1.16559994	112	78	220
0.281760007	0.101839997	-1.16719997	112	78	220
0.280310005	0.103189997	-1.16869998	112	78	220
0.280990005	0.10458	-1.17040002	112	78	220
0.283140004	0.103380002	-1.17079997	112	78	220
0.285640001	0.103479996	-1.17200005	112	78	220
0.28599	0.104800001	-1.17279994	112	78	220
0.285640001	0.105959997	-1.17180002	112	78	220
0.28599	0.107210003	-1.17260003	112	78	220
0.28599	0.108280003	-1.17250001	112	78	220
0.28452	0.108429998	-1.17410004	112	78	220
0.282370001	0.108410001	-1.17379999	112	78	220
0.282370001	0.107330002	-1.17390001	112	78	220
0.280900002	0.108549997	-1.17540002	112	78	220
0.281580001	0.109849997	-1.17719996	112	78	220
0.284090012	0.109970003	-1.17840004	112	78	220
0.28659001	0.110079996	-1.1796	112	78	220
0.288410008	0.110019997	-1.17900002	112	78	220
0.290580004	0.108910002	-1.17929995	112	78	220
0.290930003	0.110129997	-1.18009996	112	78	220
0.292750001	0.108929999	-1.1796	112	78	220
0.294220001	0.108790003	-1.17799997	112	78	220
0.294919997	0.110090002	-1.17970002	112	78	220
0.293449998	0.110239998	-1.18130004	112	78	220
0.292320013	0.11169	-1.18379998	112	78	220
0.292320013	0.112910002	-1.18369997	112	78	220
0.29084	0.113059998	-1.18529999	112	78	220
0.290490001	0.111759998	-1.18439996	112	78	220
0.288320005	0.112939999	-1.18410003	112	78	220
0.28797999	0.111639999	-1.1832	112	78	220
0.28580001	0.111620001	-1.18299997	112	78	220
0.286150008	0.112920001	-1.18379998	112	78	220
0.283980012	0.112889998	-1.18350005	112	78	220
0.283980012	0.111680001	-1.18359995	112	78	220
0.282489985	0.113049999	-1.18509996	112	78	220
0.28215	0.11417	-1.18410003	112	78	220
0.280660003	0.114320002	-1.18570006	112	78	220
0.281679988	0.11705	-1.1882	112	78	220
0.282020003	0.115910001	-1.18929994	112	78	220
0.284189999	0.115939997	-1.18959999	112	78	220
0.284189999	0.117169999	-1.18939996	112	78	220
0.285349995	0.114469998	-1.18719995	112	78	220
0.28786999	0.114579998	-1.18840003	112	78	220
0.29005	0.114610001	-1.18859994	112	78	220
0.291880012	0.114540003	-1.18789995	112	78	220
0.29440999	0.114660002	-1.18910003	112	78	220
0.295899987	0.113289997	-1.18760002	112	78	220
0.298090011	0.113310002	-1.18789995	112	78	220
0.299919993	0.113240004	-1.18719995	112	78	220
0.299569994	0.114370003	-1.18610001	112	78	220
0.301400006	0.113090001	-1.18560004	112	78	220
0.302870005	0.11293	-1.18400002	112	78	220
0.304699987	0.11287	-1.18330002	112	78	220
0.306879997	0.112889998	-1.18350005	112	78	220
0.307240009	0.114189997	-1.18429995	112	78	220
0.305420011	0.114260003	-1.18499994	112	78	220
0.30430001	0.11451	-1.18760002	112	78	220
0.302819997	0.114660002	-1.18920004	112	78	220
0.303530008	0.116070002	-1.19089997	112	78	220
0.305720001	0.11609	-1.19120002	112	78	220
0.306080014	0.117420003	-1.19200003	112	78	220
0.306439996	0.118709996	-1.19280005	112	78	220
0.304949999	0.118869998	-1.19439995	112	78	220
0.304239988	0.117490001	-1.19270003	112	78	220
0.302040011	0.118660003	-1.19229996	112	78	220
0.300199986	0.118730001	-1.19299996	112	78	220
0.298000008	0.118709996	-1.19280005	112	78	220
0.297650009	0.117420003	-1.19190001	112	78	220
0.297300011	0.11609	-1.1911	112	78	220
0.297300011	0.114859998	-1.19130003	112	78	220
0.299140006	0.114799999	-1.19060004	112	78	220
0.299140006	0.116020001	-1.1904	112	78	220
0.299490005	0.117349997	-1.19130003	112	78	220
0.300980002	0.117190003	-1.18959999	112	78	220
0.300980002	0.115960002	-1.18980002	112	78	220
0.295810014	0.116250001	-1.19270003	112	78	220
0.293960005	0.11631	-1.19340003	112	78	220
0.294310004	0.117650002	-1.19420004	112	78	220
0.293960005	0.118749999	-1.19319999	112	78	220
0.291770011	0.118720002	-1.19289994	112	78	220
0.289929986	0.118790001	-1.19360006	112	78	220
0.290270001	0.117689997	-1.1947	112	78	220
0.290270001	0.116449997	-1.19480002	112	78	220
0.29212001	0.116379999	-1.19410002	112	78	220
0.292459995	0.117710002	-1.19490004	112	78	220
0.287739992	0.117569998	-1.19350004	112	78	220
0.287059993	0.116149999	-1.19169998	112	78	220
0.289110005	0.119139999	-1.19710004	112	78	220
0.28944999	0.120379999	-1.19790006	112	78	220
0.287259996	0.120360002	-1.19760001	112	78	220
0.287259996	0.119199999	-1.19780004	112	78	220
0.285059988	0.120329998	-1.19739997	112	78	220
0.285400003	0.121619999	-1.19819999	112	78	220
0.285739988	0.122979999	-1.199	112	78	220
0.283549994	0.121689998	-1.19879997	112	78	220
0.282869995	0.120300002	-1.19710004	112	78	220
0.28035	0.121380001	-1.19579995	112	78	220
0.281859994	0.118869998	-1.19439995	112	78	220
0.283710003	0.118799999	-1.19369996	112	78	220
0.282359987	0.123209998	-1.20120001	112	78	220
0.28490001	0.123340003	-1.20249999	112	78	220
0.287939996	0.121739998	-1.19939995	112	78	220
0.290479988	0.121870004	-1.20060003	112	78	220
0.290820003	0.123230003	-1.20140004	112	78	220
0.28896001	0.123290002	-1.20210004	112	78	220
0.28896001	0.124480002	-1.20190001	112	78	220
0.291500002	0.124609999	-1.20309997	112	78	220
0.293359995	0.124540001	-1.20249999	112	78	220
0.293709993	0.123439997	-1.20350003	112	78	220
0.295230001	0.12201	-1.20200002	112	78	220
0.297430009	0.122040004	-1.20229995	112	78	220
0.297780007	0.123400003	-1.20309997	112	78	220
0.297430009	0.12449	-1.20200002	112	78	220
0.296259999	0.124760002	-1.20459998	112	78	220
0.296609998	0.123659998	-1.20560002	112	78	220
0.295430005	0.12624	-1.20790005	112	78	220
0.29321	0.126210004	-1.20770001	112	78	220
0.290659994	0.126090005	-1.20650005	112	78	220
0.289469987	0.126350001	-1.20899999	112	78	220
0.287589997	0.126420006	-1.20969999	112	78	220
0.285719991	0.126489997	-1.21039999	112	78	220
0.283170015	0.127529994	-1.20899999	112	78	220
0.282840014	0.126269996	-1.20819998	112	78	220
0.282169998	0.124949999	-1.20650005	112	78	220
0.28470999	0.125080004	-1.20770001	112	78	220
0.286579996	0.125009999	-1.20700002	112	78	220
0.288109988	0.124839999	-1.20539999	112	78	220
0.281630009	0.127700001	-1.21060002	112	78	220
0.284509987	0.129150003	-1.21270001	112	78	220
0.286720008	0.129179999	-1.21290004	112	78	220
0.287059993	0.128049999	-1.21399999	112	78	220
0.288940012	0.127979994	-1.21329999	112	78	220
0.288599998	0.129109994	-1.21229994	112	78	220
0.290820003	0.129140005	-1.21249998	112	78	220
0.290820003	0.127910003	-1.21270001	112	78	220
0.292360008	0.127739996	-1.21109998	112	78	220
0.292360008	0.128969997	-1.21089995	112	78	220
0.294580013	0.128989995	-1.2112	112	78	220
0.294239998	0.127670005	-1.21039999	112	78	220
0.296110004	0.127599999	-1.20969999	112	78	220
0.296799988	0.129020005	-1.21140003	112	78	220
0.297140002	0.130360007	-1.21220005	112	78	220
0.299019992	0.130290002	-1.21150005	112	78	220
0.299710006	0.129250005	-1.21350002	112	78	220
0.299710006	0.128020003	-1.21370006	112	78	220
0.300559998	0.127649993	-1.21019995	112	78	220
0.302430004	0.127580002	-1.20949996	112	78	220
0.30430001	0.127499998	-1.20879996	112	78	220
0.306879997	0.127629995	-1.21000004	112	78	220
0.308759987	0.127550006	-1.20930004	112	78	220
0.299510002	0.126190007	-1.20749998	112	78	220
0.297989994	0.126359999	-1.20910001	112	78	220
0.300689995	0.125929996	-1.20500004	112	78	220
0.300339997	0.124710001	-1.20410001	112	78	220
0.300339997	0.123520002	-1.20430005	112	78	220
0.302549988	0.124739997	-1.20439994	112	78	220
0.302899987	0.125949994	-1.20519996	112	78	220
0.302899987	0.123640001	-1.20539999	112	78	220
0.304069996	0.123379998	-1.20290005	112	78	220
0.305929989	0.12331	-1.20220006	112	78	220
0.302639991	0.129470006	-1.21570003	112	78	220
0.302980006	0.130809993	-1.21650004	112	78	220
0.305570006	0.130940005	-1.21759999	112	78	220
0.30746001	0.129620001	-1.21710002	112	78	220
0.308160007	0.131060004	-1.21879995	112	78	220
0.304170012	0.129299998	-1.21399999	112	78	220
0.294919997	0.130329996	-1.21200001	112	78	220
0.293720007	0.130610004	-1.21449995	112	78	220
0.292180002	0.130779997	-1.21609998	112	78	220
0.289950013	0.13075	-1.21589994	112	78	220
0.287730008	0.130720004	-1.21560001	112	78	220
0.285840005	0.130799994	-1.21630001	112	78	220
0.283289999	0.129419997	-1.21519995	112	78	220
0.282400012	0.131040007	-1.21850002	112	78	220
0.282730013	0.132410005	-1.21930003	112	78	220
0.284949988	0.131170005	-1.2198	112	78	220
0.285279989	0.132540002	-1.22060001	112	78	220
0.286839992	0.132359996	-1.21899998	112	78	220
0.283719987	0.133919999	-1.222	112	78	220
0.284379989	0.135279998	-1.22379994	112	78	220
0.283140004	0.135560006	-1.2263	112	78	220
0.283470005	0.136859998	-1.22710001	112	78	220
0.285369992	0.136790007	-1.22650003	112	78	220
0.286940008	0.136610001	-1.22490001	112	78	220
0.286940008	0.135409996	-1.22500002	112	78	220
0.287279993	0.13436	-1.22609997	112	78	220
0.288850009	0.135340005	-1.22430003	112	78	220
0.288509995	0.134079993	-1.22350001	112	78	220
0.290410012	0.132799998	-1.22300005	112	78	220
0.292650014	0.132829994	-1.22319996	112	78	220
0.292309999	0.133939996	-1.22220004	112	78	220
0.294550002	0.133959994	-1.22239995	112	78	220
0.294209987	0.132650003	-1.22160006	112	78	220
0.295760006	0.132479995	-1.22000003	112	78	220
0.297320008	0.132300004	-1.2184	112	78	220
0.299210012	0.132229999	-1.2177	112	78	220
0.296790004	0.133990005	-1.2227	112	78	220
0.299030006	0.134020001	-1.22290003	112	78	220
0.299710006	0.135370001	-1.22469997	112	78	220
0.301609993	0.135299996	-1.22399998	112	78	220
0.301959991	0.13425	-1.22500002	112	78	220
0.303860009	0.134169996	-1.22430003	112	78	220
0.303860009	0.135319993	-1.22420001	112	78	220
0.306450009	0.135450006	-1.22539997	112	78	220
0.306450009	0.134299994	-1.22549999	112	78	220
0.307150006	0.136859998	-1.22710001	112	78	220
0.307489991	0.138239995	-1.22790003	112	78	220
0.309399992	0.138160005	-1.22720003	112	78	220
0.309399992	0.136889994	-1.22730005	112	78	220
0.311659992	0.136910006	-1.22759998	112	78	220
0.31426999	0.137040004	-1.22870004	112	78	220
0.316179991	0.13696	-1.22800004	112	78	220
0.318800002	0.138359994	-1.22899997	112	78	220
0.320349991	0.138180003	-1.22730005	112	78	220
0.322620004	0.1382	-1.22759998	112	78	220
0.324880004	0.138219997	-1.2277	112	78	220
0.326790005	0.138139993	-1.227	112	78	220
0.329059988	0.138160005	-1.22720003	112	78	220
0.32942	0.136989996	-1.22829998	112	78	220
0.330969989	0.136800006	-1.22660005	112	78	220
0.331330001	0.138180003	-1.22739995	112	78	220
0.317589998	0.13865	-1.23160005	112	78	220
0.315679997	0.138740003	-1.23230004	112	78	220
0.316379994	0.140220001	-1.23399997	112	78	220
0.318650007	0.140239999	-1.2342	112	78	220
0.318650007	0.141509995	-1.23409998	112	78	220
0.317079991	0.1417	-1.23570001	112	78	220
0.315160006	0.141780004	-1.23640001	112	78	220
0.312889993	0.141749993	-1.23619998	112	78	220
0.310959995	0.141839996	-1.23689997	112	78	220
0.308690012	0.14181	-1.23670006	112	78	220
0.30904001	0.143179998	-1.23749995	112	78	220
0.307110012	0.143260002	-1.23819995	112	78	220
0.307799995	0.144730002	-1.23989999	112	78	220
0.309729993	0.144649997	-1.2392	112	78	220
0.312000006	0.143419996	-1.23959994	112	78	220
0.314630002	0.143549994	-1.24070001	112	78	220
0.314630002	0.144810006	-1.24059999	112	78	220
0.31498	0.146149993	-1.2414	112	78	220
0.316909999	0.146070004	-1.24070001	112	78	220
0.316909999	0.144830003	-1.24080002	112	78	220
0.316210002	0.143360004	-1.23909998	112	78	220
0.317790002	0.143169999	-1.23740005	112	78	220
0.31814	0.144529998	-1.23819995	112	78	220
0.320069999	0.144449994	-1.23749995	112	78	220
0.319709986	0.143089995	-1.23670006	112	78	220
0.321640015	0.143000007	-1.23599994	112	78	220
0.324629992	0.143240005	-1.23810005	112	78	220
0.327270001	0.143370003	-1.2392	112	78	220
0.3292	0.143289998	-1.23839998	112	78	220
0.33149001	0.143309996	-1.23860002	112	78	220
0.331849992	0.144669995	-1.23940003	112	78	220
0.330280006	0.144869998	-1.24109995	112	78	220
0.328350008	0.144950002	-1.24179995	112	78	220
0.326409996	0.145040005	-1.24249995	112	78	220
0.326770008	0.146380007	-1.24329996	112	78	220
0.324479997	0.146359995	-1.24310005	112	78	220
0.323249996	0.147870004	-1.24559999	112	78	220
0.321310014	0.147960007	-1.24629998	112	78	220
0.318659991	0.147829995	-1.24520004	112	78	220
0.31637001	0.147799999	-1.245	112	78	220
0.314779997	0.148000002	-1.24660003	112	78	220
0.312830001	0.148080006	-1.24730003	112	78	220
0.312830001	0.149340004	-1.24720001	112	78	220
0.310550004	0.149309993	-1.24689996	112	78	220
0.310200006	0.147939995	-1.24619997	112	78	220
0.308259994	0.148029998	-1.24689996	112	78	220
0.308939993	0.149499997	-1.24860001	112	78	220
0.306659997	0.14948	-1.24829996	112	78	220
0.305629998	0.147890002	-1.2457	112	78	220
0.303350002	0.147860005	-1.24549997	112	78	220
0.301750004	0.148049995	-1.2471	112	78	220
0.299129993	0.147909999	-1.24590003	112	78	220
0.296860009	0.147880003	-1.2457	112	78	220
0.294580013	0.147850007	-1.24539995	112	78	220
0.292640001	0.147929996	-1.24609995	112	78	220
0.290039986	0.14779	-1.24489999	112	78	220
0.287449986	0.147650003	-1.24370003	112	78	220
0.287449986	0.148900002	-1.24349999	112	78	220
0.285510004	0.147729993	-1.24430001	112	78	220
0.284859985	0.146290004	-1.24259996	112	78	220
0.282599986	0.146259993	-1.24230003	112	78	220
0.282920003	0.147579998	-1.24310005	112	78	220
0.28323999	0.148939997	-1.24389994	112	78	220
0.281309992	0.149020001	-1.24460006	112	78	220
0.286159992	0.149200007	-1.24609995	112	78	220
0.281630009	0.144700006	-1.23959994	112	78	220
0.283560008	0.144620001	-1.23899996	112	78	220
0.285809994	0.144649997	-1.23930001	112	78	220
0.287739992	0.143319994	-1.23870003	112	78	220
0.289999992	0.143350005	-1.23899996	112	78	220
0.290329993	0.144720003	-1.23979998	112	78	220
0.288399994	0.144789994	-1.24049997	112	78	220
0.289059997	0.146249995	-1.24220002	112	78	220
0.290989995	0.146170005	-1.24150002	112	78	220
0.292919993	0.144859999	-1.24100006	112	78	220
0.295190006	0.144889995	-1.24129999	112	78	220
0.297120005	0.144810006	-1.24059999	112	78	220
0.299389988	0.144840002	-1.24080002	112	78	220
0.301319987	0.144759998	-1.24010003	112	78	220
0.303250015	0.144679993	-1.23940003	112	78	220
0.305519998	0.144700006	-1.23969996	112	78	220
0.305869997	0.146039993	-1.24049997	112	78	220
0.303930014	0.146129996	-1.24119997	112	78	220
0.301999986	0.14621	-1.24189997	112	78	220
0.300399989	0.146400005	-1.24349999	112	78	220
0.298130006	0.146369994	-1.24319994	112	78	220
0.295859993	0.146339998	-1.24300003	112	78	220
0.293590009	0.146310002	-1.24269998	112	78	220
0.308829993	0.146290004	-1.24259996	112	78	220
0.31110999	0.14632	-1.2428	112	78	220
0.313389987	0.146339998	-1.24300003	112	78	220
0.313039988	0.144999996	-1.24220002	112	78	220
0.302569985	0.143199995	-1.23769999	112	78	220
0.300639987	0.143279999	-1.23839998	112	78	220
0.300309986	0.14192	-1.23759997	112	78	220
0.298379987	0.141990006	-1.23829997	112	78	220
0.298379987	0.143260002	-1.23819995	112	78	220
0.296119988	0.143230006	-1.23790002	112	78	220
0.296449989	0.142069995	-1.23899996	112	78	220
0.293850005	0.143199995	-1.23769999	112	78	220
0.29192999	0.143279999	-1.23829997	112	78	220
0.292849988	0.141609997	-1.23500001	112	78	220
0.30381	0.142910004	-1.23520005	112	78	220
0.303469986	0.140279993	-1.23450005	112	78	220
0.30539	0.140200004	-1.23380005	112	78	220
0.307309985	0.14012	-1.23310006	112	78	220
0.30923	0.140039995	-1.23239994	112	78	220
0.311140001	0.139960006	-1.23169994	112	78	220
0.313410014	0.139980003	-1.23189998	112	78	220
0.313059986	0.138610005	-1.23109996	112	78	220
0.304699987	0.141249999	-1.23179996	112	78	220
0.302789986	0.141330004	-1.23249996	112	78	220
0.302100003	0.138579994	-1.23090005	112	78	220
0.304360002	0.138610005	-1.23119998	112	78	220
0.305929989	0.138420001	-1.22950006	112	78	220
0.305240005	0.136940002	-1.22780001	112	78	220
0.303669989	0.137119994	-1.22940004	112	78	220
0.300740004	0.136889994	-1.22730005	112	78	220
0.298489988	0.136859998	-1.22710001	112	78	220
0.298150003	0.135550007	-1.2263	112	78	220
0.295899987	0.135529995	-1.22599995	112	78	220
0.293660015	0.135499999	-1.22580004	112	78	220
0.291079998	0.135360003	-1.22459996	112	78	220
0.291079998	0.134210005	-1.22469997	112	78	220
0.290410012	0.136360005	-1.22259998	112	78	220
0.288179994	0.136329994	-1.22230005	112	78	220
0.291420013	0.137940004	-1.22520006	112	78	220
0.289510012	0.138019994	-1.22590005	112	78	220
0.287609994	0.13809	-1.22660005	112	78	220
0.288610011	0.139679998	-1.22930002	112	78	220
0.290520012	0.139599994	-1.22860003	112	78	220
0.293099999	0.139740005	-1.22979999	112	78	220
0.294669986	0.137009993	-1.22850001	112	78	220
0.296920002	0.137040004	-1.22870004	112	78	220
0.297930002	0.138630003	-1.23140001	112	78	220
0.296020001	0.138710007	-1.23210001	112	78	220
0.296020001	0.139980003	-1.23189998	112	78	220
0.298610002	0.140110001	-1.23310006	112	78	220
0.300529987	0.13876	-1.23259997	112	78	220
0.299510002	0.139719993	-1.22959995	112	78	220
0.299510002	0.140980005	-1.22950006	112	78	220
0.289600015	0.141259998	-1.23189998	112	78	220
0.287019998	0.139860004	-1.23090005	112	78	220
0.287019998	0.138589993	-1.23099995	112	78	220
0.284779996	0.139829993	-1.2306	112	78	220
0.284119993	0.138349995	-1.22889996	112	78	220
0.281879991	0.138319999	-1.22860003	112	78	220
0.282209992	0.139689997	-1.22940004	112	78	220
0.283850014	0.141489998	-1.23389995	112	78	220
0.28193	0.141570002	-1.23459995	112	78	220
0.282579988	0.143040001	-1.23629999	112	78	220
0.284500003	0.142959997	-1.23559999	112	78	220
0.2861	0.141519994	-1.2342	112	78	220
0.288679987	0.141660005	-1.23539996	112	78	220
0.287120014	0.146329999	-1.24290001	112	78	220
0.291359991	0.149489999	-1.24849999	112	78	220
0.323410004	0.144800007	-1.24049997	112	78	220
0.321130008	0.146009997	-1.24010003	112	78	220
0.318839997	0.14598	-1.23989999	112	78	220
0.333779991	0.143329993	-1.23880005	112	78	220
0.335709989	0.143240005	-1.23810005	112	78	220
0.337639987	0.14316	-1.23730004	112	78	220
0.320569992	0.140159994	-1.2335	112	78	220
0.320219994	0.141320005	-1.23239994	112	78	220
0.322129995	0.141240001	-1.23169994	112	78	220
0.322490007	0.140080005	-1.23280001	112	78	220
0.324409992	0.140000001	-1.23199999	112	78	220
0.324770004	0.141369998	-1.23280001	112	78	220
0.326680005	0.140019998	-1.23220003	112	78	220
0.328599989	0.139929995	-1.23150003	112	78	220
0.331239998	0.140059993	-1.23259997	112	78	220
0.33160001	0.141430005	-1.23339999	112	78	220
0.333519995	0.141340002	-1.23269999	112	78	220
0.333519995	0.140080005	-1.23280001	112	78	220
0.336169988	0.140210003	-1.23389995	112	78	220
0.336169988	0.14147	-1.23380005	112	78	220
0.338090003	0.141379997	-1.23300004	112	78	220
0.338090003	0.14012	-1.23310006	112	78	220
0.339639992	0.139929995	-1.23150003	112	78	220
0.339639992	0.141190007	-1.2313	112	78	220
0.341919988	0.141210005	-1.23150003	112	78	220
0.342290014	0.140049994	-1.23259997	112	78	220
0.344579995	0.140070006	-1.23269999	112	78	220
0.343840003	0.141120002	-1.23070002	112	78	220
0.343459994	0.138490006	-1.23010004	112	78	220
0.329679996	0.141519994	-1.23409998	112	78	220
0.327760011	0.141599998	-1.2349	112	78	220
0.305070013	0.132679999	-1.22189999	112	78	220
0.302819997	0.132660002	-1.22169995	112	78	220
0.298949987	0.121870004	-1.20070004	112	78	220
0.29975	0.121519998	-1.19719994	112	78	220
0.301600009	0.12145	-1.19649994	112	78	220
0.300900012	0.120070003	-1.1947	112	78	220
0.298700005	0.120039999	-1.19449997	112	78	220
0.297199994	0.120209999	-1.1961	112	78	220
0.295700014	0.120370001	-1.19770002	112	78	220
0.29418999	0.120530002	-1.19939995	112	78	220
0.292679995	0.121890001	-1.20079994	112	78	220
0.291649997	0.120410003	-1.19819999	112	78	220
0.296510011	0.118869998	-1.19439995	112	78	220
0.296510011	0.11767	-1.19449997	112	78	220
0.304159999	0.120370001	-1.19780004	112	78	220
0.304509997	0.121660002	-1.19860005	112	78	220
0.30636999	0.120399997	-1.19799995	112	78	220
0.308999985	0.117629997	-1.19400001	112	78	220
0.308640003	0.116300002	-1.19319999	112	78	220
0.310119987	0.117370002	-1.19149995	112	78	220
0.311239988	0.115889996	-1.18900001	112	78	220
0.30904001	0.115869999	-1.18879998	112	78	220
0.310160011	0.114390001	-1.18640006	112	78	220
0.311989993	0.113109998	-1.18579996	112	78	220
0.314179987	0.114349999	-1.18589997	112	78	220
0.316379994	0.111929998	-1.18630004	112	78	220
0.318949997	0.112039998	-1.1875	112	78	220
0.319319993	0.113349997	-1.18830001	112	78	220
0.321150005	0.114490002	-1.18739998	112	78	220
0.320410013	0.111879997	-1.18579996	112	78	220
0.312720001	0.111560002	-1.18239999	112	78	220
0.310169995	0.11146	-1.18130004	112	78	220
0.308349997	0.112729996	-1.18190002	112	78	220
0.307260007	0.111259997	-1.17920005	112	78	220
0.306899995	0.109959997	-1.17840004	112	78	220
0.305079997	0.110030003	-1.17910004	112	78	220
0.305440009	0.111330003	-1.17990005	112	78	220
0.303620011	0.111390002	-1.18060005	112	78	220
0.302159995	0.111539997	-1.18219995	112	78	220
0.299980015	0.11152	-1.18200004	112	78	220
0.298860013	0.111759998	-1.18449998	112	78	220
0.296330005	0.111649998	-1.18330002	112	78	220
0.294499993	0.111720003	-1.18400002	112	78	220
0.297089994	0.11011	-1.17999995	112	78	220
0.298909992	0.11005	-1.17929995	112	78	220
0.301090002	0.110069998	-1.17949998	112	78	220
0.301090002	0.108939998	-1.1796	112	78	220
0.30291	0.108879998	-1.1789	112	78	220
0.30291	0.107799999	-1.17900002	112	78	220
0.304360002	0.107649997	-1.17739999	112	78	220
0.30291	0.110009998	-1.17879999	112	78	220
0.300020009	0.107600003	-1.17690003	112	78	220
0.297850013	0.108659998	-1.17659998	112	78	220
0.297140002	0.107409999	-1.17480004	112	78	220
0.295329988	0.108549997	-1.17540002	112	78	220
0.309080005	0.109980002	-1.17859995	112	78	220
0.307990015	0.108599998	-1.17589998	112	78	220
0.307630002	0.107440002	-1.17509997	112	78	220
0.30726999	0.106190003	-1.17429996	112	78	220
0.309810013	0.106289998	-1.17540002	112	78	220
0.311619997	0.106229998	-1.17470002	112	78	220
0.309359998	0.11891	-1.19490004	112	78	220
0.291350007	0.10751	-1.17589998	112	78	220
0.289530009	0.107579999	-1.17659998	112	78	220
0.280790001	0.111390002	-1.18060005	112	78	220
0.283490002	0.107100002	-1.17139995	112	78	220
0.284179986	0.10486	-1.17349994	112	78	220
0.279529989	0.107129999	-1.17180002	112	78	220
0.286749989	0.103260003	-1.16949999	112	78	220
0.288549989	0.103200004	-1.1688	112	78	220
0.288199991	0.101910003	-1.16799998	112	78	220
0.289990008	0.100699998	-1.1674	112	78	220
0.289290011	0.101690002	-1.16540003	112	78	220
0.289990008	0.10306	-1.16719997	112	78	220
0.29073	0.102750003	-1.16369998	112	78	220
0.290380001	0.101460002	-1.16289997	112	78	220
0.29073	0.100400001	-1.16390002	112	78	220
0.29073	0.099297002	-1.16400003	112	78	220
0.292519987	0.100340001	-1.16330004	112	78	220
0.292169988	0.101410002	-1.16219997	112	78	220
0.293949991	0.100199997	-1.16170001	112	78	220
0.293599993	0.0990229994	-1.16079998	112	78	220
0.291460007	0.0990009978	-1.16059995	112	78	220
0.29253	0.0976509973	-1.15810001	112	78	220
0.294310004	0.0975940004	-1.15740001	112	78	220
0.294660002	0.0988060012	-1.15830004	112	78	220
0.296810001	0.0976930037	-1.15859997	112	78	220
0.296810001	0.0965349972	-1.15869999	112	78	220
0.298949987	0.0965560004	-1.15900004	112	78	220
0.298590004	0.0976350009	-1.15789998	112	78	220
0.298590004	0.0987690017	-1.15779996	112	78	220
0.30072999	0.098788999	-1.15810001	112	78	220
0.301090002	0.0977339968	-1.15910006	112	78	220
0.302870005	0.0976750031	-1.15840006	112	78	220
0.302870005	0.0988089964	-1.15830004	112	78	220
0.30539	0.0977730006	-1.15960002	112	78	220
0.305750012	0.0989869982	-1.16040003	112	78	220
0.307170004	0.0988480002	-1.15880001	112	78	220
0.307539999	0.0977919996	-1.15980005	112	78	220
0.309689999	0.0978109986	-1.15999997	112	78	220
0.311100006	0.0976729989	-1.15840006	112	78	220
0.312139988	0.0963020027	-1.1559	112	78	220
0.313540012	0.0961650014	-1.15429997	112	78	220
0.309989989	0.0962840021	-1.15569997	112	78	220
0.308209985	0.0963430032	-1.15639997	112	78	220
0.306430012	0.0964009985	-1.15709996	112	78	220
0.303920001	0.0963049978	-1.15600002	112	78	220
0.301779985	0.0962859988	-1.15569997	112	78	220
0.300370008	0.0964210033	-1.1573	112	78	220
0.317079991	0.0960460007	-1.15279996	112	78	220
0.305059999	0.100390002	-1.1638	112	78	220
0.302179992	0.100210004	-1.16170001	112	78	220
0.299309999	0.100029998	-1.15960002	112	78	220
0.297529995	0.100089997	-1.16030002	112	78	220
0.297170013	0.0989070013	-1.1595	112	78	220
0.295740008	0.100139998	-1.16100001	112	78	220
0.291810006	0.0963390023	-1.15639997	112	78	220
0.289680004	0.0963170007	-1.15610003	112	78	220
0.287900001	0.0975290015	-1.15670002	112	78	220
0.290390015	0.0976300016	-1.15789998	112	78	220
0.288619995	0.0949219987	-1.15339994	112	78	220
0.290390015	0.0948669985	-1.15269995	112	78	220
0.292510003	0.0960500017	-1.15289998	112	78	220
0.287880003	0.0991159976	-1.16190004	112	78	220
0.286799997	0.100440003	-1.16439998	112	78	220
0.282110006	0.105599999	-1.16779995	112	78	220
0.279960006	0.105580002	-1.16750002	112	78	220
0.282609999	0.0922190025	-1.14839995	112	78	220
0.284009993	0.0920910016	-1.14680004	112	78	220
0.296420008	0.0948520005	-1.15260005	112	78	220
0.29855001	0.0948719978	-1.15279996	112	78	220
0.301649988	0.0897869989	-1.14549994	112	78	220
0.30340001	0.0897329971	-1.14479995	112	78	220
0.298790008	0.0896229967	-1.14339995	112	78	220
0.323879987	0.103210002	-1.16900003	112	78	220
0.323210001	0.10475	-1.17229998	112	78	220
0.321029991	0.104740001	-1.17209995	112	78	220
0.335180014	0.104599997	-1.17069995	112	78	220
0.337370008	0.104620002	-1.17079997	112	78	220
0.328339994	0.106200002	-1.17449999	112	78	220
0.329100013	0.107539997	-1.17620003	112	78	220
0.329100013	0.108609997	-1.17610002	112	78	220
0.327280015	0.108680002	-1.17680001	112	78	220
0.327280015	0.109810002	-1.1767	112	78	220
0.325470001	0.10988	-1.17750001	112	78	220
0.325470001	0.108750001	-1.17760003	112	78	220
0.325470001	0.107670002	-1.17770004	112	78	220
0.323280007	0.107649997	-1.17750001	112	78	220
0.323650002	0.108819999	-1.17830002	112	78	220
0.321460009	0.108800001	-1.17809999	112	78	220
0.321090013	0.107639998	-1.17729998	112	78	220
0.319640011	0.107790001	-1.1789	112	78	220
0.319270015	0.108779997	-1.17789996	112	78	220
0.317449987	0.108850002	-1.17859995	112	78	220
0.317449987	0.107770003	-1.17869997	112	78	220
0.320010006	0.11129	-1.17949998	112	78	220
0.324779987	0.110200003	-1.18099999	112	78	220
0.324779987	0.111419998	-1.18079996	112	78	220
0.327349991	0.11152	-1.18200004	112	78	220
0.32773	0.112819999	-1.18280005	112	78	220
0.326649994	0.113070004	-1.18529999	112	78	220
0.324440002	0.113049999	-1.18519998	112	78	220
0.327769995	0.114550002	-1.18799996	112	78	220
0.325940013	0.11462	-1.18869996	112	78	220
0.324470013	0.114780001	-1.1904	112	78	220
0.325210005	0.116190001	-1.19210005	112	78	220
0.323000014	0.116169997	-1.19190001	112	78	220
0.323000014	0.117409997	-1.1918	112	78	220
0.320789993	0.116149999	-1.19169998	112	78	220
0.318949997	0.116219997	-1.1925	112	78	220
0.319310009	0.117550001	-1.19330001	112	78	220
0.317829996	0.117710002	-1.19490004	112	78	220
0.317470014	0.116379999	-1.19410002	112	78	220
0.321889997	0.117660001	-1.19439995	112	78	220
0.326330006	0.117700003	-1.19480002	112	78	220
0.328170002	0.117629997	-1.19400001	112	78	220
0.328920007	0.116570003	-1.19599998	112	78	220
0.330390006	0.116400003	-1.19430006	112	78	220
0.330769986	0.117729999	-1.19509995	112	78	220
0.332619995	0.117660001	-1.19439995	112	78	220
0.332989991	0.118950002	-1.19519997	112	78	220
0.33337	0.120190002	-1.19599998	112	78	220
0.33484	0.118869998	-1.19449997	112	78	220
0.33484	0.117679998	-1.19459999	112	78	220
0.337069988	0.117689997	-1.1947	112	78	220
0.339670002	0.117799997	-1.19579995	112	78	220
0.340440005	0.119180001	-1.19749999	112	78	220
0.338200003	0.119170003	-1.19739997	112	78	220
0.338200003	0.12032	-1.19729996	112	78	220
0.341199994	0.120520003	-1.19930005	112	78	220
0.342290014	0.117909998	-1.19690001	112	78	220
0.34375	0.117739998	-1.19519997	112	78	220
0.33445999	0.119929999	-1.19340003	112	78	220
0.332239985	0.116329998	-1.19360006	112	78	220
0.331889987	0.119209997	-1.19780004	112	78	220
0.332269996	0.120449997	-1.19860005	112	78	220
0.332639992	0.121749997	-1.19939995	112	78	220
0.330779999	0.120619997	-1.20029998	112	78	220
0.328550011	0.1206	-1.20009995	112	78	220
0.328550011	0.121799998	-1.20000005	112	78	220
0.326330006	0.121780001	-1.19980001	112	78	220
0.326330006	0.120580003	-1.19990003	112	78	220
0.32596001	0.119340003	-1.19910002	112	78	220
0.328179985	0.119350001	-1.19930005	112	78	220
0.330040008	0.119280003	-1.19850004	112	78	220
0.330040008	0.121629998	-1.1983	112	78	220
0.331160009	0.123180002	-1.20089996	112	78	220
0.329299986	0.123259999	-1.20169997	112	78	220
0.326700002	0.12314	-1.20060003	112	78	220
0.325210005	0.12331	-1.20220006	112	78	220
0.325940013	0.124690004	-1.204	112	78	220
0.328179985	0.124710001	-1.20410001	112	78	220
0.322979987	0.124480002	-1.20190001	112	78	220
0.322609991	0.123199999	-1.20109999	112	78	220
0.320389986	0.123180002	-1.20089996	112	78	220
0.324099988	0.121760003	-1.19959998	112	78	220
0.32337001	0.120379999	-1.19790006	112	78	220
0.32337001	0.119220003	-1.19799995	112	78	220
0.334140003	0.123389997	-1.20299995	112	78	220
0.33563	0.121950001	-1.20140004	112	78	220
0.337859988	0.121969998	-1.20159996	112	78	220
0.33713001	0.12359	-1.20500004	112	78	220
0.33713001	0.124789998	-1.20490003	112	78	220
0.335260004	0.124860004	-1.20560002	112	78	220
0.333020002	0.124849997	-1.20539999	112	78	220
0.334140003	0.126249999	-1.20809996	112	78	220
0.332269996	0.126330003	-1.20879996	112	78	220
0.332639992	0.125310004	-1.20990002	112	78	220
0.333380014	0.127790004	-1.21150005	112	78	220
0.335260004	0.12771	-1.21070004	112	78	220
0.337139994	0.127629995	-1.21000004	112	78	220
0.336760014	0.126369998	-1.20920002	112	78	220
0.33901	0.126379997	-1.20930004	112	78	220
0.33901	0.127550006	-1.20920002	112	78	220
0.340880007	0.127470002	-1.20850003	112	78	220
0.343140006	0.12748	-1.20860004	112	78	220
0.345010012	0.12624	-1.20799994	112	78	220
0.346879989	0.126159996	-1.20720005	112	78	220
0.346150011	0.127690002	-1.21060002	112	78	220
0.343899995	0.126509994	-1.21060002	112	78	220
0.341639996	0.126499996	-1.21039999	112	78	220
0.339749992	0.124899998	-1.20589995	112	78	220
0.339370012	0.123609997	-1.20510006	112	78	220
0.33375001	0.130349994	-1.21210003	112	78	220
0.33186999	0.130429998	-1.21290004	112	78	220
0.332239985	0.12929	-1.21389997	112	78	220
0.330359995	0.129370004	-1.21469998	112	78	220
0.330359995	0.130610004	-1.21459997	112	78	220
0.328839988	0.130789995	-1.21619999	112	78	220
0.328469992	0.129449993	-1.21539998	112	78	220
0.326590002	0.129519999	-1.21619999	112	78	220
0.326950014	0.13087	-1.21700001	112	78	220
0.324699998	0.130850002	-1.21679997	112	78	220
0.322450012	0.130830005	-1.21659994	112	78	220
0.320199996	0.130799994	-1.21640003	112	78	220
0.317959994	0.130779997	-1.21619999	112	78	220
0.31606999	0.130860001	-1.21689999	112	78	220
0.314539999	0.131040007	-1.21850002	112	78	220
0.315250009	0.132499993	-1.22019994	112	78	220
0.317140013	0.132430002	-1.21949995	112	78	220
0.319029987	0.132349998	-1.21879995	112	78	220
0.319389999	0.133650005	-1.21959996	112	78	220
0.321280003	0.133579999	-1.21889997	112	78	220
0.320919991	0.132269993	-1.21809995	112	78	220
0.323170006	0.132290006	-1.21829998	112	78	220
0.323900014	0.133699998	-1.22000003	112	78	220
0.32615	0.133719996	-1.22019994	112	78	220
0.32615	0.132510006	-1.22029996	112	78	220
0.328049988	0.132430002	-1.21959996	112	78	220
0.329569995	0.132249996	-1.21790004	112	78	220
0.331459999	0.132170007	-1.21720004	112	78	220
0.333350003	0.132090002	-1.21640003	112	78	220
0.335240006	0.132009998	-1.21570003	112	78	220
0.336750001	0.130569994	-1.21420002	112	78	220
0.336750001	0.129329994	-1.21430004	112	78	220
0.334500015	0.129309997	-1.2141	112	78	220
0.336010009	0.131630003	-1.21220005	112	78	220
0.328779995	0.133839995	-1.22130001	112	78	220
0.331039995	0.133860007	-1.22150004	112	78	220
0.332940012	0.133780003	-1.22080004	112	78	220
0.33366999	0.135130003	-1.22249997	112	78	220
0.335570008	0.135049999	-1.22169995	112	78	220
0.335570008	0.133900002	-1.22189999	112	78	220
0.337469995	0.133819997	-1.22109997	112	78	220
0.337469995	0.134969994	-1.22099996	112	78	220
0.339740008	0.133839995	-1.22130001	112	78	220
0.340110004	0.135089993	-1.22210002	112	78	220
0.342750013	0.134059995	-1.22329998	112	78	220
0.317849994	0.133839995	-1.22130001	112	78	220
0.318569988	0.135189995	-1.22300005	112	78	220
0.31911999	0.129260004	-1.21370006	112	78	220
0.321729988	0.129380003	-1.2148	112	78	220
0.323610008	0.129309997	-1.2141	112	78	220
0.330390006	0.127570003	-1.20949996	112	78	220
0.32852	0.127649993	-1.21019995	112	78	220
0.327780008	0.126289994	-1.20850003	112	78	220
0.329650015	0.126220003	-1.20770001	112	78	220
0.32960999	0.114480004	-1.18729997	112	78	220
0.331440002	0.114409998	-1.18649995	112	78	220
0.333270013	0.114330001	-1.18579996	112	78	220
0.332890004	0.113030002	-1.18499994	112	78	220
0.330680013	0.113009997	-1.18480003	112	78	220
0.330309987	0.111709997	-1.18400002	112	78	220
0.332130015	0.111639999	-1.1832	112	78	220
0.334340006	0.111660004	-1.18340003	112	78	220
0.336169988	0.111589998	-1.18270004	112	78	220
0.335399985	0.110200003	-1.18089998	112	78	220
0.337220013	0.110129997	-1.18019998	112	78	220
0.340200007	0.111529998	-1.18210006	112	78	220
0.342409998	0.111550003	-1.18219995	112	78	220
0.345010012	0.111649998	-1.18330002	112	78	220
0.34762001	0.111749999	-1.18439996	112	78	220
0.348010004	0.113049999	-1.18519998	112	78	220
0.346179992	0.113119997	-1.18589997	112	78	220
0.346569985	0.114430003	-1.18669999	112	78	220
0.344740003	0.114500001	-1.1875	112	78	220
0.345120013	0.115809999	-1.18830001	112	78	220
0.342900008	0.115800001	-1.18809998	112	78	220
0.341060013	0.115869999	-1.18889999	112	78	220
0.33961001	0.116039999	-1.19060004	112	78	220
0.341740012	0.114309996	-1.18550003	112	78	220
0.341360003	0.113009997	-1.18470001	112	78	220
0.339529991	0.113080002	-1.18550003	112	78	220
0.339529991	0.114289999	-1.18540001	112	78	220
0.337309986	0.11428	-1.18519998	112	78	220
0.337309986	0.113059998	-1.18529999	112	78	220
0.335480005	0.113130003	-1.18610001	112	78	220
0.335099995	0.114260003	-1.18499994	112	78	220
0.336239994	0.11575	-1.18770003	112	78	220
0.334410012	0.115829997	-1.18840003	112	78	220
0.332569987	0.115900002	-1.18920004	112	78	220
0.339139998	0.111780003	-1.18470001	112	78	220
0.343959987	0.113109998	-1.18579996	112	78	220
0.332819998	0.110100001	-1.17980003	112	78	220
0.330619991	0.110079996	-1.17970002	112	78	220
0.331669986	0.108709998	-1.17719996	112	78	220
0.331669986	0.107639998	-1.17729998	112	78	220
0.326909989	0.107519999	-1.176	112	78	220
0.311080009	0.125850007	-1.20430005	112	78	220
0.317750007	0.124799997	-1.20500004	112	78	220
0.348369986	0.141770005	-1.23640001	112	78	220
0.347119987	0.147670001	-1.24380004	112	78	220
0.345180005	0.147760004	-1.24460006	112	78	220
0.342869997	0.147740006	-1.24440002	112	78	220
0.341300011	0.147939995	-1.24609995	112	78	220
0.339720011	0.149389997	-1.24759996	112	78	220
0.338140011	0.149590001	-1.2493	112	78	220
0.336189985	0.149680004	-1.25010002	112	78	220
0.336189985	0.150979996	-1.24989998	112	78	220
0.333880007	0.150959998	-1.24969995	112	78	220
0.333519995	0.149550006	-1.24899995	112	78	220
0.331220001	0.149529994	-1.24880004	112	78	220
0.330859989	0.15072	-1.24769998	112	78	220
0.328909993	0.150800005	-1.24839997	112	78	220
0.328909993	0.149509996	-1.24860001	112	78	220
0.330500007	0.148049995	-1.2471	112	78	220
0.332800001	0.148080006	-1.24730003	112	78	220
0.335110009	0.148100004	-1.24740005	112	78	220
0.337049991	0.148010001	-1.24670005	112	78	220
0.336320013	0.146579996	-1.245	112	78	220
0.338259995	0.147699997	-1.24409997	112	78	220
0.337529987	0.146270007	-1.24240005	112	78	220
0.340200007	0.146400005	-1.24349999	112	78	220
0.342139989	0.146310002	-1.24269998	112	78	220
0.344069988	0.146219999	-1.24199998	112	78	220
0.34296	0.144659996	-1.23930001	112	78	220
0.332289994	0.152449995	-1.25129998	112	78	220
0.330689996	0.152649999	-1.2529	112	78	220
0.328379989	0.152630001	-1.25269997	112	78	220
0.326779991	0.152830005	-1.25440001	112	78	220
0.327490002	0.15433	-1.25610006	112	78	220
0.32980001	0.154349998	-1.25629997	112	78	220
0.331409991	0.154149994	-1.25460005	112	78	220
0.333719999	0.154170007	-1.25479996	112	78	220
0.335680008	0.154080003	-1.25409997	112	78	220
0.334960014	0.152579993	-1.25240004	112	78	220
0.338	0.152830005	-1.25440001	112	78	220
0.338360012	0.154210001	-1.25520003	112	78	220
0.340319991	0.152850002	-1.25460005	112	78	220
0.342640013	0.152869999	-1.25469995	112	78	220
0.343369991	0.154369995	-1.25639999	112	78	220
0.341410011	0.154459998	-1.2572	112	78	220
0.34533	0.152999997	-1.25580001	112	78	220
0.343499988	0.151150003	-1.25129998	112	78	220
0.34582001	0.15117	-1.25150001	112	78	220
0.34740001	0.149670005	-1.25	112	78	220
0.344720006	0.149540007	-1.24890006	112	78	220
0.342400014	0.149519995	-1.24870002	112	78	220
0.340820014	0.151020005	-1.25030005	112	78	220
0.338869989	0.151109993	-1.25100005	112	78	220
0.325879991	0.154530004	-1.25779998	112	78	220
0.323559999	0.154510006	-1.25759995	112	78	220
0.32159999	0.154599994	-1.25829995	112	78	220
0.319290012	0.154569998	-1.25810003	112	78	220
0.317319989	0.154660001	-1.25880003	112	78	220
0.324660003	0.149570003	-1.24909997	112	78	220
0.290719986	0.152610004	-1.25259995	112	78	220
0.291049987	0.15399	-1.25339997	112	78	220
0.289090008	0.154070005	-1.25399995	112	78	220
0.285510004	0.151030004	-1.25030005	112	78	220
0.283560008	0.151109993	-1.25100005	112	78	220
0.297600001	0.156020001	-1.25940001	112	78	220
0.29727	0.154630005	-1.2586	112	78	220
0.299569994	0.154660001	-1.25880003	112	78	220
0.301200002	0.154459998	-1.2572	112	78	220
0.303160012	0.154379994	-1.25650001	112	78	220
0.305790007	0.154520005	-1.25769997	112	78	220
0.291339993	0.159470007	-1.26639998	112	78	220
0.313800007	0.160740003	-1.26689994	112	78	220
0.315780014	0.16065	-1.26610005	112	78	220
0.319389999	0.159150004	-1.26390004	112	78	220
0.321720004	0.15918	-1.26409996	112	78	220
0.323339999	0.157729998	-1.26259995	112	78	220
0.325320005	0.157629997	-1.26189995	112	78	220
0.327639997	0.157659993	-1.26209998	112	78	220
0.329959989	0.157680005	-1.26230001	112	78	220
0.332289994	0.157710001	-1.26250005	112	78	220
0.334980011	0.157849997	-1.26359999	112	78	220
0.336589992	0.157639995	-1.26189995	112	78	220
0.333710015	0.15941	-1.26600003	112	78	220
0.334419996	0.160850003	-1.26769996	112	78	220
0.332439989	0.160950005	-1.26849997	112	78	220
0.3301	0.160929993	-1.26830006	112	78	220
0.328119993	0.161019996	-1.26900005	112	78	220
0.326130003	0.161109999	-1.26979995	112	78	220
0.324140012	0.162469998	-1.27030003	112	78	220
0.323449999	0.160970002	-1.26859999	112	78	220
0.321810007	0.161180004	-1.27030003	112	78	220
0.319480002	0.162420005	-1.26989996	112	78	220
0.319139987	0.161029994	-1.26919997	112	78	220
0.32051	0.164130002	-1.27250004	112	78	220
0.322849989	0.164159998	-1.27269995	112	78	220
0.322849989	0.162799999	-1.27289999	112	78	220
0.324840009	0.164069995	-1.27199996	112	78	220
0.327179998	0.164089993	-1.27219999	112	78	220
0.327179998	0.162740007	-1.27240002	112	78	220
0.329519987	0.164120004	-1.27240002	112	78	220
0.329869986	0.162880003	-1.27349997	112	78	220
0.331510007	0.162670001	-1.27180004	112	78	220
0.331160009	0.163900003	-1.27069998	112	78	220
0.330570012	0.165800005	-1.27499998	112	78	220
0.328920007	0.166020006	-1.27670002	112	78	220
0.326920003	0.166109994	-1.27740002	112	78	220
0.327270001	0.16753	-1.27820003	112	78	220
0.324919999	0.167500004	-1.278	112	78	220
0.318859994	0.164350003	-1.27419996	112	78	220
0.31852001	0.162870005	-1.27339995	112	78	220
0.316190004	0.164199993	-1.273	112	78	220
0.315510005	0.162599996	-1.27139997	112	78	220
0.314529985	0.163049996	-1.27489996	112	78	220
0.324389994	0.159319997	-1.26530004	112	78	220
0.326370001	0.159229994	-1.26450002	112	78	220
0.328689992	0.159250006	-1.26470006	112	78	220
0.33138001	0.159390002	-1.2658	112	78	220
0.333350003	0.161760002	-1.26479995	112	78	220
0.360590011	0.150849998	-1.24880004	112	78	220
0.364859998	0.148210004	-1.24839997	112	78	220
0.365249991	0.149580002	-1.24919999	112	78	220
0.367190003	0.14948	-1.24839997	112	78	220
0.366809994	0.148120001	-1.24759996	112	78	220
0.364060014	0.151199996	-1.25170004	112	78	220
0.37766999	0.144879997	-1.24119997	112	78	220
0.378060013	0.146219999	-1.24199998	112	78	220
0.377299994	0.147850007	-1.24539995	112	78	220
0.375750005	0.148059994	-1.2471	112	78	220
0.373030007	0.147939995	-1.24609995	112	78	220
0.379640013	0.147860005	-1.24549997	112	78	220
0.360249996	0.16234	-1.26929998	112	78	220
0.361739993	0.164159998	-1.27279997	112	78	220
