-0.908999979	-0.506190002	-1.49989998	154	240	0
-0.909489989	-0.504960001	-1.50129998	154	240	0
-0.910960019	-0.504289985	-1.50419998	154	240	0
-0.910470009	-0.502510011	-1.50390005	154	240	0
-0.909979999	-0.500880003	-1.50349998	154	240	0
-0.912500024	-0.498800009	-1.50269997	154	240	0
-0.912500024	-0.503289998	-1.50119996	154	240	0
-0.912500024	-0.507809997	-1.49969995	154	240	0
-0.909979999	-0.508260012	-1.50109994	154	240	0
-0.907459974	-0.508719981	-1.50240004	154	240	0
-0.907459974	-0.507200003	-1.5029	154	240	0
-0.907949984	-0.505970001	-1.50419998	154	240	0
-0.908439994	-0.50474	-1.50559998	154	240	0
-0.905920029	-0.505190015	-1.50689995	154	240	0
-0.905430019	-0.506420016	-1.50559998	154	240	0
-0.904449999	-0.507369995	-1.50339997	154	240	0
-0.904940009	-0.509169996	-1.50370002	154	240	0
-0.904940009	-0.510689974	-1.50320005	154	240	0
-0.902419984	-0.511139989	-1.50460005	154	240	0
-0.902419984	-0.509620011	-1.50510001	154	240	0
-0.901929975	-0.50782001	-1.50479996	154	240	0
-0.902419984	-0.506590009	-1.50610006	154	240	0
-0.90338999	-0.50563997	-1.50829995	154	240	0
-0.901340008	-0.504859984	-1.51090002	154	240	0
-0.902310014	-0.504050016	-1.51300001	154	240	0
-0.90328002	-0.502950013	-1.51520002	154	240	0
-0.905330002	-0.502229989	-1.51310003	154	240	0
-0.904850006	-0.503600001	-1.51170003	154	240	0
-0.905330002	-0.505240023	-1.51209998	154	240	0
-0.907869995	-0.504790008	-1.51069999	154	240	0
-0.907869995	-0.503430009	-1.51119995	154	240	0
-0.910399973	-0.502990007	-1.50979996	154	240	0
-0.910399973	-0.504339993	-1.50940001	154	240	0
-0.912930012	-0.500890017	-1.50899994	154	240	0
-0.912440002	-0.499130011	-1.50870001	154	240	0
-0.913909972	-0.498589993	-1.51160002	154	240	0
-0.91742003	-0.49702999	-1.51250005	154	240	0
-0.913909972	-0.494029999	-1.51310003	154	240	0
-0.91742003	-0.492449999	-1.51400006	154	240	0
-0.917349994	-0.494239986	-1.51950002	154	240	0
-0.914799988	-0.494679987	-1.52079999	154	240	0
-0.911769986	-0.49485001	-1.52139997	154	240	0
-0.912750006	-0.49386999	-1.52349997	154	240	0
-0.911170006	-0.49485001	-1.52649999	154	240	0
-0.90862	-0.495290011	-1.52789998	154	240	0
-0.910070002	-0.494679987	-1.53079998	154	240	0
-0.910560012	-0.493200004	-1.53219998	154	240	0
-0.913600028	-0.493030012	-1.53170002	154	240	0
-0.914089978	-0.491759986	-1.53299999	154	240	0
-0.914579988	-0.490640014	-1.53429997	154	240	0
-0.915549994	-0.48969999	-1.53649998	154	240	0
-0.915549994	-0.488090008	-1.53699994	154	240	0
-0.91602999	-0.486970007	-1.53820002	154	240	0
-0.91652	-0.485680014	-1.53960001	154	240	0
-0.91602999	-0.483749986	-1.53919995	154	240	0
-0.915059984	-0.481880009	-1.53799999	154	240	0
-0.915059984	-0.47874999	-1.53900003	154	240	0
-0.917140007	-0.479640007	-1.53629994	154	240	0
-0.918600023	-0.484990001	-1.53740001	154	240	0
-0.916649997	-0.485489994	-1.53349996	154	240	0
-0.917140007	-0.488730013	-1.53340006	154	240	0
-0.916649997	-0.489939988	-1.53209996	154	240	0
-0.916649997	-0.491320014	-1.53170002	154	240	0
-0.916649997	-0.492859989	-1.53120005	154	240	0
-0.914089978	-0.495050013	-1.53199995	154	240	0
-0.915189981	-0.493800014	-1.52810001	154	240	0
-0.916760027	-0.491079986	-1.52569997	154	240	0
-0.917349994	-0.489580005	-1.52100003	154	240	0
-0.912850022	-0.490680009	-1.51849997	154	240	0
-0.913339972	-0.492359996	-1.51880002	154	240	0
-0.913339972	-0.495550007	-1.51779997	154	240	0
-0.913339972	-0.496930003	-1.51740003	154	240	0
-0.91079998	-0.495990008	-1.51919997	154	240	0
-0.911769986	-0.497920007	-1.52040005	154	240	0
-0.911279976	-0.499179989	-1.51900005	154	240	0
-0.912259996	-0.501399994	-1.5201	154	240	0
-0.911769986	-0.502489984	-1.51890004	154	240	0
-0.909229994	-0.502929986	-1.52020001	154	240	0
-0.908249974	-0.501020014	-1.51900005	154	240	0
-0.908249974	-0.499350011	-1.51960003	154	240	0
-0.908739984	-0.498089999	-1.52090001	154	240	0
-0.908739984	-0.496699989	-1.52129996	154	240	0
-0.909229994	-0.495290011	-1.52269995	154	240	0
-0.905709982	-0.495189995	-1.52240002	154	240	0
-0.906189978	-0.49713999	-1.52269995	154	240	0
-0.905709982	-0.498259991	-1.52139997	154	240	0
-0.905219972	-0.499520004	-1.5201	154	240	0
-0.905709982	-0.501460016	-1.52030003	154	240	0
-0.905219972	-0.502550006	-1.51909995	154	240	0
-0.90219003	-0.499689996	-1.52059996	154	240	0
-0.903639972	-0.498970002	-1.52359998	154	240	0
-0.901090026	-0.499410003	-1.52489996	154	240	0
-0.901090026	-0.498019993	-1.52540004	154	240	0
-0.900129974	-0.495790005	-1.52419996	154	240	0
-0.897580028	-0.496219993	-1.52559996	154	240	0
-0.897580028	-0.494700015	-1.52610004	154	240	0
-0.895500004	-0.495400012	-1.52820003	154	240	0
-0.896459997	-0.494520009	-1.53040004	154	240	0
-0.893419981	-0.494679987	-1.53079998	154	240	0
-0.892949998	-0.495829999	-1.52960002	154	240	0
-0.88944	-0.494300008	-1.52970004	154	240	0
-0.886399984	-0.494450003	-1.53009999	154	240	0
-0.883369982	-0.494599998	-1.53059995	154	240	0
-0.8829	-0.49575001	-1.52929997	154	240	0
-0.882420003	-0.497000009	-1.528	154	240	0
-0.8829	-0.498959988	-1.52830005	154	240	0
-0.885450006	-0.498540014	-1.52699995	154	240	0
-0.884509981	-0.496309996	-1.52579999	154	240	0
-0.884980023	-0.495050013	-1.52719998	154	240	0
-0.887530029	-0.494630009	-1.52590001	154	240	0
-0.887530029	-0.496149987	-1.52540004	154	240	0
-0.890559971	-0.495999992	-1.52489996	154	240	0
-0.890559971	-0.499069989	-1.52390003	154	240	0
-0.887530029	-0.499229997	-1.5244	154	240	0
-0.888960004	-0.498650014	-1.5273	154	240	0
-0.891990006	-0.49849999	-1.52680004	154	240	0
-0.894550025	-0.498070002	-1.52550006	154	240	0
-0.895020008	-0.499729991	-1.52590001	154	240	0
-0.89854002	-0.499839991	-1.52620006	154	240	0
-0.89854002	-0.498450011	-1.52670002	154	240	0
-0.902059972	-0.495350003	-1.52810001	154	240	0
-0.903020024	-0.49447	-1.5302	154	240	0
-0.899980009	-0.494630009	-1.53069997	154	240	0
-0.900460005	-0.493149996	-1.53209996	154	240	0
-0.897899985	-0.493580014	-1.53340006	154	240	0
-0.897899985	-0.492040008	-1.53390002	154	240	0
-0.897899985	-0.490660012	-1.53439999	154	240	0
-0.895330012	-0.49109	-1.53569996	154	240	0
-0.895810008	-0.492740005	-1.53610003	154	240	0
-0.895810008	-0.49428001	-1.53559995	154	240	0
-0.892759979	-0.49289	-1.53659999	154	240	0
-0.892759979	-0.491510004	-1.53699994	154	240	0
-0.893239975	-0.4903	-1.53830004	154	240	0
-0.894190013	-0.489219993	-1.54050004	154	240	0
-0.895619988	-0.488629997	-1.54349995	154	240	0
-0.896089971	-0.487340003	-1.54480004	154	240	0
-0.895619988	-0.485399991	-1.54449999	154	240	0
-0.896570027	-0.484569997	-1.54659998	154	240	0
-0.89963001	-0.484420002	-1.54610002	154	240	0
-0.899150014	-0.485509992	-1.54480004	154	240	0
-0.898199975	-0.48664999	-1.54260004	154	240	0
-0.897239983	-0.487679988	-1.54050004	154	240	0
-0.896290004	-0.490139991	-1.53779995	154	240	0
-0.895330012	-0.488000005	-1.53670001	154	240	0
-0.89933002	-0.489980012	-1.53729999	154	240	0
-0.90237999	-0.491299987	-1.53639996	154	240	0
-0.902859986	-0.492949992	-1.53680003	154	240	0
-0.902859986	-0.490090013	-1.53770006	154	240	0
-0.906870008	-0.490460008	-1.5388	154	240	0
-0.907840014	-0.49248001	-1.53999996	154	240	0
-0.910409987	-0.492040008	-1.53869998	154	240	0
-0.910409987	-0.490559995	-1.53919995	154	240	0
-0.911379993	-0.489479989	-1.54130006	154	240	0
-0.911379993	-0.488099992	-1.54180002	154	240	0
-0.911859989	-0.486799985	-1.5431	154	240	0
-0.912829995	-0.485659987	-1.54530001	154	240	0
-0.915889978	-0.484129995	-1.54519999	154	240	0
-0.915889978	-0.482569993	-1.54569995	154	240	0
-0.916369975	-0.481249988	-1.54700005	154	240	0
-0.918470025	-0.482149988	-1.54429996	154	240	0
-0.917980015	-0.478700012	-1.54449999	154	240	0
-0.920409977	-0.478390008	-1.54920006	154	240	0
-0.918799996	-0.479330003	-1.55219996	154	240	0
-0.918799996	-0.477750003	-1.55270004	154	240	0
-0.919279993	-0.476429999	-1.55400002	154	240	0
-0.920249999	-0.47536999	-1.55620003	154	240	0
-0.919770002	-0.473540008	-1.55579996	154	240	0
-0.919770002	-0.472050011	-1.55630004	154	240	0
-0.922360003	-0.47468999	-1.5539	154	240	0
-0.917659998	-0.475789994	-1.5575	154	240	0
-0.916689992	-0.476850003	-1.55540001	154	240	0
-0.917659998	-0.47894001	-1.55659997	154	240	0
-0.917180002	-0.480269998	-1.55519998	154	240	0
-0.914099991	-0.480430007	-1.55579996	154	240	0
-0.914579988	-0.479099989	-1.55710006	154	240	0
-0.914099991	-0.477270007	-1.55669999	154	240	0
-0.915059984	-0.476209998	-1.5589	154	240	0
-0.912949979	-0.476880014	-1.56110001	154	240	0
-0.912949979	-0.478460014	-1.56060004	154	240	0
-0.909870028	-0.478619993	-1.56110001	154	240	0
-0.909870028	-0.477039993	-1.56159997	154	240	0
-0.911300004	-0.476220012	-1.56459999	154	240	0
-0.91178	-0.47499001	-1.56589997	154	240	0
-0.909169972	-0.475400001	-1.56729996	154	240	0
-0.909650028	-0.474180013	-1.56860006	154	240	0
-0.913219988	-0.47428	-1.56889999	154	240	0
-0.914170027	-0.473170012	-1.5711	154	240	0
-0.911559999	-0.473580003	-1.57239997	154	240	0
-0.912029982	-0.472160012	-1.57379997	154	240	0
-0.912029982	-0.470620006	-1.57420003	154	240	0
-0.912989974	-0.469630003	-1.57640004	154	240	0
-0.915610015	-0.469220012	-1.57500005	154	240	0
-0.916090012	-0.470970005	-1.57539999	154	240	0
-0.916090012	-0.472499996	-1.57490003	154	240	0
-0.918709993	-0.472090006	-1.57350004	154	240	0
-0.91918999	-0.470809996	-1.57480001	154	240	0
-0.918709993	-0.469060004	-1.57449996	154	240	0
-0.919669986	-0.467979997	-1.57659996	154	240	0
-0.917050004	-0.468389988	-1.57799995	154	240	0
-0.917519987	-0.467020005	-1.57930005	154	240	0
-0.917999983	-0.465660006	-1.58060002	154	240	0
-0.915849984	-0.466320008	-1.58280003	154	240	0
-0.915369987	-0.467669994	-1.58150005	154	240	0
-0.914420009	-0.468789995	-1.57939994	154	240	0
-0.911319971	-0.467330009	-1.58039999	154	240	0
-0.911790013	-0.46597001	-1.58169997	154	240	0
-0.913219988	-0.465110004	-1.58469999	154	240	0
-0.913219988	-0.463589996	-1.58510005	154	240	0
-0.910579979	-0.463990003	-1.58650005	154	240	0
-0.911530018	-0.462969989	-1.58860004	154	240	0
-0.908890009	-0.463369995	-1.59000003	154	240	0
-0.907000005	-0.460759997	-1.58710003	154	240	0
-0.906530023	-0.463640004	-1.58529997	154	240	0
-0.906050026	-0.464920014	-1.58399999	154	240	0
-0.90820998	-0.465880007	-1.58130002	154	240	0
-0.909630001	-0.465020001	-1.58430004	154	240	0
-0.91632998	-0.463429987	-1.58459997	154	240	0
-0.917280018	-0.465460002	-1.58580005	154	240	0
-0.919920027	-0.465050012	-1.58449996	154	240	0
-0.919920027	-0.46351999	-1.58490002	154	240	0
-0.922070026	-0.462870002	-1.58270001	154	240	0
-0.922550023	-0.464650005	-1.58309996	154	240	0
-0.924700022	-0.463990003	-1.58089995	154	240	0
-0.923740029	-0.46509999	-1.57869995	154	240	0
-0.921109974	-0.465510011	-1.58010006	154	240	0
-0.921109974	-0.467110008	-1.57959998	154	240	0
-0.925180018	-0.467449993	-1.58070004	154	240	0
-0.928290009	-0.46728	-1.58019996	154	240	0
-0.927330017	-0.462060004	-1.57990003	154	240	0
-0.925880015	-0.459820002	-1.57780004	154	240	0
-0.924430013	-0.457480013	-1.57579994	154	240	0
-0.924430013	-0.455819994	-1.57630002	154	240	0
-0.925589979	-0.459450006	-1.57099998	154	240	0
-0.924910009	-0.462350011	-1.57529998	154	240	0
-0.924910009	-0.463950008	-1.57480001	154	240	0
-0.927529991	-0.465140015	-1.57290006	154	240	0
-0.925390005	-0.467409998	-1.5747	154	240	0
-0.924430013	-0.468490005	-1.57249999	154	240	0
-0.925390005	-0.470490009	-1.57379997	154	240	0
-0.921809971	-0.470400006	-1.57350004	154	240	0
-0.921329975	-0.471679986	-1.57219994	154	240	0
-0.922980011	-0.470759988	-1.56910002	154	240	0
-0.922010005	-0.471929997	-1.56690001	154	240	0
-0.919399977	-0.472339988	-1.56830001	154	240	0
-0.919879973	-0.474209994	-1.56869996	154	240	0
-0.917750001	-0.47488001	-1.57089996	154	240	0
-0.917750001	-0.473259985	-1.57140005	154	240	0
-0.920360029	-0.46814999	-1.57140005	154	240	0
-0.921809971	-0.467319995	-1.57439995	154	240	0
-0.927039981	-0.469570011	-1.57070005	154	240	0
-0.923650026	-0.466329992	-1.56529999	154	240	0
-0.922190011	-0.468589991	-1.56190002	154	240	0
-0.92268002	-0.470499992	-1.56219995	154	240	0
-0.922190011	-0.471859992	-1.56089997	154	240	0
-0.919589996	-0.472270012	-1.56229997	154	240	0
-0.920560002	-0.474249989	-1.56350005	154	240	0
-0.918439984	-0.474920005	-1.56570005	154	240	0
-0.917469978	-0.475899994	-1.56359994	154	240	0
-0.914870024	-0.476319999	-1.56490004	154	240	0
-0.91535002	-0.475080013	-1.56620002	154	240	0
-0.91911	-0.474979997	-1.56050003	154	240	0
-0.924790025	-0.471439987	-1.55949998	154	240	0
-0.923330009	-0.465900004	-1.55840003	154	240	0
-0.920249999	-0.463010013	-1.55990005	154	240	0
-0.908219993	-0.476379991	-1.56509995	154	240	0
-0.905130029	-0.475039989	-1.5661	154	240	0
-0.905130029	-0.473569989	-1.56659997	154	240	0
-0.902050018	-0.473720014	-1.56710005	154	240	0
-0.902050018	-0.475199997	-1.56659997	154	240	0
-0.90109998	-0.476179987	-1.56449997	154	240	0
-0.898490012	-0.475089997	-1.56630003	154	240	0
-0.898490012	-0.473619998	-1.56669998	154	240	0
-0.895410001	-0.473769993	-1.56719995	154	240	0
-0.895879984	-0.475499988	-1.56760001	154	240	0
-0.897549987	-0.476069987	-1.56410003	154	240	0
-0.896130025	-0.476880014	-1.56110001	154	240	0
-0.897069991	-0.478980005	-1.56229997	154	240	0
-0.899680018	-0.478570014	-1.56099999	154	240	0
-0.899200022	-0.476729989	-1.56060004	154	240	0
-0.901799977	-0.476319999	-1.55929995	154	240	0
-0.903230011	-0.478670001	-1.56130004	154	240	0
-0.906310022	-0.478520006	-1.56079996	154	240	0
-0.905350029	-0.476419985	-1.5596	154	240	0
-0.905350029	-0.479579985	-1.55859995	154	240	0
-0.906989992	-0.478650004	-1.55560005	154	240	0
-0.906989992	-0.480230004	-1.55509996	154	240	0
-0.906040013	-0.481330007	-1.55299997	154	240	0
-0.905560017	-0.482670009	-1.55159998	154	240	0
-0.902970016	-0.483090013	-1.55299997	154	240	0
-0.903439999	-0.481750011	-1.55429995	154	240	0
-0.902970016	-0.479869992	-1.55400002	154	240	0
-0.900380015	-0.480289996	-1.5553	154	240	0
-0.900849998	-0.482160002	-1.55560005	154	240	0
-0.899420023	-0.482989997	-1.55260003	154	240	0
-0.898000002	-0.48379001	-1.54960001	154	240	0
-0.900579989	-0.48337999	-1.54830003	154	240	0
-0.90267998	-0.484259993	-1.54560006	154	240	0
-0.901730001	-0.485089988	-1.54349995	154	240	0
-0.902209997	-0.487019986	-1.5438	154	240	0
-0.901730001	-0.488319993	-1.54250002	154	240	0
-0.901730001	-0.48969999	-1.54200006	154	240	0
-0.904779971	-0.488160014	-1.54200006	154	240	0
-0.905260026	-0.48980999	-1.5424	154	240	0
-0.90832001	-0.489650011	-1.54190004	154	240	0
-0.908800006	-0.48853001	-1.5431	154	240	0
-0.909280002	-0.487230003	-1.54449999	154	240	0
-0.909280002	-0.48556	-1.54499996	154	240	0
-0.906700015	-0.484620005	-1.54680002	154	240	0
-0.904120028	-0.483480006	-1.54859996	154	240	0
-0.907660007	-0.48199001	-1.54939997	154	240	0
-0.90862	-0.480910003	-1.55159998	154	240	0
-0.909579992	-0.479820013	-1.55379999	154	240	0
-0.910059988	-0.478489995	-1.55509996	154	240	0
-0.911689997	-0.480749995	-1.55110002	154	240	0
-0.910730004	-0.481830001	-1.54890001	154	240	0
-0.912660003	-0.48447001	-1.55180001	154	240	0
-0.912169993	-0.485769987	-1.55040002	154	240	0
-0.914759994	-0.485350013	-1.54910004	154	240	0
-0.91523999	-0.484039992	-1.55040002	154	240	0
-0.91523999	-0.482450008	-1.55089998	154	240	0
-0.91573	-0.481110007	-1.55219996	154	240	0
-0.919279993	-0.48120001	-1.55250001	154	240	0
-0.909579992	-0.484629989	-1.55229998	154	240	0
-0.905740023	-0.487129986	-1.54410005	154	240	0
-0.905260026	-0.485190004	-1.5438	154	240	0
-0.91298002	-0.485579997	-1.53929996	154	240	0
-0.914430022	-0.48793	-1.54130006	154	240	0
-0.914430022	-0.48932001	-1.54079998	154	240	0
-0.91346997	-0.490399987	-1.53859997	154	240	0
-0.912010014	-0.491079986	-1.53569996	154	240	0
-0.912010014	-0.492460012	-1.5352	154	240	0
-0.908479989	-0.492359996	-1.53489995	154	240	0
-0.907509983	-0.493360013	-1.53279996	154	240	0
-0.907029986	-0.494839996	-1.53139997	154	240	0
-0.904460013	-0.493530005	-1.53330004	154	240	0
-0.906390011	-0.493059993	-1.53709996	154	240	0
-0.905089974	-0.495180011	-1.52760005	154	240	0
-0.905089974	-0.498389989	-1.52649999	154	240	0
-0.903159976	-0.495629996	-1.5237	154	240	0
-0.898199975	-0.499300003	-1.5194	154	240	0
-0.897719979	-0.500699997	-1.51800001	154	240	0
-0.897239983	-0.501789987	-1.51670003	154	240	0
-0.897239983	-0.503279984	-1.51619995	154	240	0
-0.899779975	-0.502839983	-1.51489997	154	240	0
-0.899290025	-0.501070023	-1.51460004	154	240	0
-0.900740027	-0.500540018	-1.51750004	154	240	0
-0.899290025	-0.504220009	-1.51349998	154	240	0
-0.898329973	-0.505020022	-1.51139998	154	240	0
-0.891330004	-0.504790008	-1.51069999	154	240	0
-0.889280021	-0.505509973	-1.51289999	154	240	0
-0.890240014	-0.504700005	-1.51499999	154	240	0
-0.889280021	-0.502499998	-1.51390004	154	240	0
-0.886740029	-0.502939999	-1.51520002	154	240	0
-0.887700021	-0.505140007	-1.51629996	154	240	0
-0.886740029	-0.505949974	-1.51419997	154	240	0
-0.884199977	-0.505020022	-1.51600003	154	240	0
-0.883249998	-0.50582999	-1.51380002	154	240	0
-0.882300019	-0.506780028	-1.51170003	154	240	0
-0.881820023	-0.50801003	-1.51030004	154	240	0
-0.884360015	-0.507570028	-1.50899994	154	240	0
-0.884829998	-0.506340027	-1.51040006	154	240	0
-0.88736999	-0.505909979	-1.50909996	154	240	0
-0.88736999	-0.50740999	-1.50849998	154	240	0
-0.889890015	-0.505469978	-1.50769997	154	240	0
-0.891330004	-0.507809997	-1.50969994	154	240	0
-0.892419994	-0.508040011	-1.50539994	154	240	0
-0.895430028	-0.507879972	-1.50489998	154	240	0
-0.894460022	-0.508840024	-1.50279999	154	240	0
-0.895430028	-0.510919988	-1.50390005	154	240	0
-0.891939998	-0.510800004	-1.5036	154	240	0
-0.890969992	-0.508719981	-1.50240004	154	240	0
-0.888930023	-0.510969996	-1.50399995	154	240	0
-0.887969971	-0.507359982	-1.50339997	154	240	0
-0.887009978	-0.508319974	-1.50119996	154	240	0
-0.884970009	-0.509039998	-1.50339997	154	240	0
-0.885450006	-0.507799983	-1.50469995	154	240	0
-0.882929981	-0.508239985	-1.50600004	154	240	0
-0.881489992	-0.508920014	-1.50300002	154	240	0
-0.881489992	-0.510439992	-1.50250006	154	240	0
-0.884010017	-0.50999999	-1.50119996	154	240	0
-0.886529982	-0.511049986	-1.49940002	154	240	0
-0.886529982	-0.512549996	-1.49890006	154	240	0
-0.888570011	-0.511820018	-1.49670005	154	240	0
-0.888080001	-0.513029993	-1.49539995	154	240	0
-0.890110016	-0.512300014	-1.49319994	154	240	0
-0.88963002	-0.513499975	-1.49189997	154	240	0
-0.890110016	-0.515200019	-1.49220002	154	240	0
-0.890110016	-0.516640007	-1.49179995	154	240	0
-0.893100023	-0.515030026	-1.49179995	154	240	0
-0.893589973	-0.512419999	-1.49360001	154	240	0
-0.891080022	-0.511370003	-1.49539995	154	240	0
-0.892530024	-0.510730028	-1.49839997	154	240	0
-0.890009999	-0.51117003	-1.49969995	154	240	0
-0.895039976	-0.51177001	-1.49660003	154	240	0
-0.895039976	-0.514750004	-1.49559999	154	240	0
-0.896579981	-0.515150011	-1.4921	154	240	0
-0.895120025	-0.515730023	-1.48909998	154	240	0
-0.897620022	-0.515269995	-1.4878	154	240	0
-0.896650016	-0.516260028	-1.48559999	154	240	0
-0.896650016	-0.517809987	-1.48510003	154	240	0
-0.896650016	-0.51928997	-1.48459995	154	240	0
-0.895669997	-0.520179987	-1.48239994	154	240	0
-0.895669997	-0.521600008	-1.48189998	154	240	0
-0.897669971	-0.520839989	-1.47979999	154	240	0
-0.898649991	-0.520009995	-1.48189998	154	240	0
-0.900160015	-0.518970013	-1.47889996	154	240	0
-0.900160015	-0.52038002	-1.47839999	154	240	0
-0.899179995	-0.521220028	-1.4763	154	240	0
-0.896700025	-0.521679997	-1.47759998	154	240	0
-0.896210015	-0.522930026	-1.4763	154	240	0
-0.893719971	-0.524900019	-1.477	154	240	0
-0.894209981	-0.526600003	-1.47739995	154	240	0
-0.895720005	-0.525550008	-1.47440004	154	240	0
-0.895720005	-0.526960015	-1.47389996	154	240	0
-0.894739985	-0.523559988	-1.47329998	154	240	0
-0.897220016	-0.521589994	-1.47249997	154	240	0
-0.896239996	-0.522509992	-1.47029996	154	240	0
-0.895739973	-0.523620009	-1.46899998	154	240	0
-0.895250022	-0.524730027	-1.4677	154	240	0
-0.895739973	-0.52651	-1.46790004	154	240	0
-0.892780006	-0.526679993	-1.4684	154	240	0
-0.892780006	-0.52816999	-1.46790004	154	240	0
-0.892289996	-0.529399991	-1.46650004	154	240	0
-0.893270016	-0.531490028	-1.46759999	154	240	0
-0.88884002	-0.529280007	-1.46619999	154	240	0
-0.889330029	-0.528050005	-1.46759999	154	240	0
-0.889330029	-0.526560009	-1.46809995	154	240	0
-0.890299976	-0.525659978	-1.47029996	154	240	0
-0.887340009	-0.525839984	-1.47080004	154	240	0
-0.886370003	-0.526730001	-1.46860003	154	240	0
-0.887340009	-0.528819978	-1.46969998	154	240	0
-0.886849999	-0.53004998	-1.46829998	154	240	0
-0.887380004	-0.529890001	-1.46319997	154	240	0
-0.891820014	-0.527159989	-1.46029997	154	240	0
-0.893289983	-0.529540002	-1.46220005	154	240	0
-0.893779993	-0.526820004	-1.4641	154	240	0
-0.897230029	-0.525449991	-1.46500003	154	240	0
-0.897719979	-0.521459997	-1.46730006	154	240	0
-0.898710012	-0.5176	-1.47060001	154	240	0
-0.896740019	-0.510599971	-1.46930003	154	240	0
-0.89625001	-0.508769989	-1.46899998	154	240	0
-0.901679993	-0.504260004	-1.47459996	154	240	0
-0.893230021	-0.521570027	-1.47730005	154	240	0
-0.892740011	-0.522809982	-1.47590005	154	240	0
-0.889769971	-0.522979975	-1.47640002	154	240	0
-0.890739977	-0.525070012	-1.47749996	154	240	0
-0.889769971	-0.525889993	-1.47539997	154	240	0
-0.886309981	-0.524370015	-1.47549999	154	240	0
-0.886799991	-0.523150027	-1.47689998	154	240	0
-0.886309981	-0.521319985	-1.47660005	154	240	0
-0.888800025	-0.520860016	-1.47529995	154	240	0
-0.890739977	-0.520609975	-1.47909999	154	240	0
-0.887769997	-0.520780027	-1.47959995	154	240	0
-0.885280013	-0.521229982	-1.48090005	154	240	0
-0.884310007	-0.522069991	-1.47870004	154	240	0
-0.884790003	-0.523899972	-1.47899997	154	240	0
-0.882300019	-0.524360001	-1.48029995	154	240	0
-0.881820023	-0.522530019	-1.48000002	154	240	0
-0.882300019	-0.521399975	-1.4813	154	240	0
-0.879809976	-0.52184999	-1.48259997	154	240	0
-0.879329979	-0.522989988	-1.4813	154	240	0
-0.878369987	-0.523940027	-1.47909999	154	240	0
-0.877409995	-0.524860024	-1.47689998	154	240	0
-0.879410028	-0.525510013	-1.47430003	154	240	0
-0.882380009	-0.525349975	-1.47379994	154	240	0
-0.882860005	-0.524240017	-1.47520006	154	240	0
-0.880859971	-0.524990022	-1.47730005	154	240	0
-0.875400007	-0.524100006	-1.47959995	154	240	0
-0.875880003	-0.522849977	-1.48090005	154	240	0
-0.876349986	-0.521719992	-1.48230004	154	240	0
-0.877309978	-0.520889997	-1.48440003	154	240	0
-0.877789974	-0.519710004	-1.48580003	154	240	0
-0.87826997	-0.518519998	-1.48710001	154	240	0
-0.880770028	-0.518069983	-1.48580003	154	240	0
-0.882210016	-0.520420015	-1.4878	154	240	0
-0.88173002	-0.521600008	-1.48640001	154	240	0
-0.883750021	-0.520860016	-1.48430002	154	240	0
-0.884710014	-0.51997	-1.48650002	154	240	0
-0.88519001	-0.518769979	-1.4878	154	240	0
-0.886160016	-0.517799973	-1.49000001	154	240	0
-0.886640012	-0.51651001	-1.4914	154	240	0
-0.886160016	-0.514789999	-1.49109995	154	240	0
-0.886640012	-0.513660014	-1.49240005	154	240	0
-0.884130001	-0.51552999	-1.49319994	154	240	0
-0.885089993	-0.514680028	-1.49530005	154	240	0
-0.884609997	-0.512910008	-1.495	154	240	0
-0.88161999	-0.515980005	-1.49450004	154	240	0
-0.880659997	-0.516839981	-1.49230003	154	240	0
-0.880180001	-0.518119991	-1.49100006	154	240	0
-0.877680004	-0.51700002	-1.4928	154	240	0
-0.876720011	-0.517989993	-1.49059999	154	240	0
-0.873740017	-0.518149972	-1.49100006	154	240	0
-0.874689996	-0.517159998	-1.49329996	154	240	0
-0.869809985	-0.517729998	-1.48979998	154	240	0
-0.866829991	-0.517880023	-1.49030006	154	240	0
-0.864939988	-0.518270016	-1.48640001	154	240	0
-0.864939988	-0.519760013	-1.48590004	154	240	0
-0.864939988	-0.521229982	-1.48539996	154	240	0
-0.864470005	-0.522350013	-1.48399997	154	240	0
-0.864470005	-0.523769975	-1.4835	154	240	0
-0.866959989	-0.523329973	-1.48230004	154	240	0
-0.867439985	-0.522189975	-1.48360002	154	240	0
-0.868390024	-0.521369994	-1.48580003	154	240	0
-0.868860006	-0.520179987	-1.48710001	154	240	0
-0.870890021	-0.519450009	-1.48500001	154	240	0
-0.870410025	-0.520630002	-1.48370004	154	240	0
-0.870890021	-0.522329986	-1.48399997	154	240	0
-0.873380005	-0.521879971	-1.48269999	154	240	0
-0.872900009	-0.523010015	-1.48140001	154	240	0
-0.871949971	-0.523970008	-1.47920001	154	240	0
-0.86897999	-0.524119973	-1.47959995	154	240	0
-0.869459987	-0.522880018	-1.48099995	154	240	0
-0.865540028	-0.523980021	-1.47920001	154	240	0
-0.865069985	-0.525200009	-1.47790003	154	240	0
-0.862580001	-0.52414	-1.47969997	154	240	0
-0.860080004	-0.523039997	-1.48150003	154	240	0
-0.859139979	-0.521030009	-1.48029995	154	240	0
-0.858669996	-0.523699999	-1.47839999	154	240	0
-0.856180012	-0.52414	-1.47969997	154	240	0
-0.855239987	-0.525059998	-1.47749996	154	240	0
-0.854770005	-0.526170015	-1.47619998	154	240	0
-0.852750003	-0.5255	-1.47870004	154	240	0
-0.853219986	-0.524290025	-1.48010004	154	240	0
-0.851189971	-0.525020003	-1.48220003	154	240	0
-0.851660013	-0.523779988	-1.48360002	154	240	0
-0.848689973	-0.521080017	-1.48500001	154	240	0
-0.848230004	-0.519320011	-1.48459995	154	240	0
-0.847760022	-0.517539978	-1.48430002	154	240	0
-0.845730007	-0.516719997	-1.48689997	154	240	0
-0.843689978	-0.517440021	-1.48899996	154	240	0
-0.844619989	-0.516449988	-1.49119997	154	240	0
-0.845080018	-0.515309989	-1.49259996	154	240	0
-0.846000016	-0.514460027	-1.49469995	154	240	0
-0.843490005	-0.514890015	-1.49600005	154	240	0
-0.843949974	-0.513689995	-1.49730003	154	240	0
-0.843949974	-0.512199998	-1.49779999	154	240	0
-0.843949974	-0.510699987	-1.49829996	154	240	0
-0.841889977	-0.511399984	-1.50039995	154	240	0
-0.841430008	-0.512619972	-1.49899995	154	240	0
-0.84096998	-0.513830006	-1.49769998	154	240	0
-0.84096998	-0.515309989	-1.49720001	154	240	0
-0.839139998	-0.515569985	-1.49329996	154	240	0
-0.839139998	-0.517009974	-1.4928	154	240	0
-0.83822	-0.518000007	-1.49059999	154	240	0
-0.835259974	-0.518130004	-1.49100006	154	240	0
-0.834800005	-0.516269982	-1.49070001	154	240	0
-0.835709989	-0.51542002	-1.49290001	154	240	0
-0.832289994	-0.515259981	-1.49240005	154	240	0
-0.83138001	-0.516110003	-1.49020004	154	240	0
-0.831839979	-0.517970026	-1.49049997	154	240	0
-0.827970028	-0.517509997	-1.4892	154	240	0
-0.827520013	-0.518769979	-1.4878	154	240	0
-0.827059984	-0.519959986	-1.48650002	154	240	0
-0.829559982	-0.519540012	-1.48529994	154	240	0
-0.829559982	-0.518050015	-1.48580003	154	240	0
-0.832509995	-0.517929971	-1.48539996	154	240	0
-0.832509995	-0.519410014	-1.4849	154	240	0
-0.832970023	-0.52117002	-1.48520005	154	240	0
-0.83592999	-0.521040022	-1.48479998	154	240	0
-0.83592999	-0.519569993	-1.48539996	154	240	0
-0.836849988	-0.518670022	-1.48759997	154	240	0
-0.838890016	-0.517949998	-1.48549998	154	240	0
-0.838429987	-0.519150019	-1.48409998	154	240	0
-0.838890016	-0.520910025	-1.48450005	154	240	0
-0.838429987	-0.522029996	-1.48310006	154	240	0
-0.837050021	-0.52256	-1.48010004	154	240	0
-0.836130023	-0.523509979	-1.47790003	154	240	0
-0.835200012	-0.524420023	-1.47570002	154	240	0
-0.835200012	-0.525829971	-1.47520006	154	240	0
-0.832719982	-0.526260018	-1.47640002	154	240	0
-0.832719982	-0.524860024	-1.47689998	154	240	0
-0.832719982	-0.52335	-1.47739995	154	240	0
-0.832719982	-0.521809995	-1.47800004	154	240	0
-0.832719982	-0.520389974	-1.47850001	154	240	0
-0.829320014	-0.520229995	-1.47800004	154	240	0
-0.828859985	-0.521350026	-1.47669995	154	240	0
-0.828859985	-0.522880018	-1.47609997	154	240	0
-0.827939987	-0.523800015	-1.47389996	154	240	0
-0.825460017	-0.52421999	-1.47510004	154	240	0
-0.825460017	-0.525629997	-1.47459996	154	240	0
-0.822979987	-0.526049972	-1.47580004	154	240	0
-0.822979987	-0.524649978	-1.4763	154	240	0
-0.822979987	-0.523140013	-1.47679996	154	240	0
-0.823430002	-0.521899998	-1.47819996	154	240	0
-0.824339986	-0.521070004	-1.48039997	154	240	0
-0.821389973	-0.521200001	-1.48080003	154	240	0
-0.820940018	-0.522319973	-1.47940004	154	240	0
-0.820490003	-0.523559988	-1.47800004	154	240	0
-0.820029974	-0.524770021	-1.47669995	154	240	0
-0.820029974	-0.526180029	-1.47619998	154	240	0
-0.817099988	-0.524890006	-1.477	154	240	0
-0.817099988	-0.523389995	-1.47749996	154	240	0
-0.817099988	-0.52184999	-1.47809994	154	240	0
-0.814610004	-0.522270024	-1.47930002	154	240	0
-0.814610004	-0.520850003	-1.47979999	154	240	0
-0.815060019	-0.519729972	-1.48109996	154	240	0
-0.815509975	-0.518559992	-1.48249996	154	240	0
-0.815949976	-0.517369986	-1.48380005	154	240	0
-0.816399992	-0.516120017	-1.48520005	154	240	0
-0.816399992	-0.514559984	-1.48580003	154	240	0
-0.819800019	-0.517840028	-1.48520005	154	240	0
-0.819800019	-0.519330025	-1.48469996	154	240	0
-0.818899989	-0.520200014	-1.48249996	154	240	0
-0.818899989	-0.521619976	-1.48199999	154	240	0
-0.822300017	-0.52038002	-1.48290002	154	240	0
-0.825699985	-0.520550013	-1.48339999	154	240	0
-0.828649998	-0.520420015	-1.48310006	154	240	0
-0.826370001	-0.52177	-1.47790003	154	240	0
-0.826370001	-0.523310006	-1.47730005	154	240	0
-0.825919986	-0.520060003	-1.47749996	154	240	0
-0.830229998	-0.526690006	-1.47759998	154	240	0
-0.829770029	-0.527809978	-1.4763	154	240	0
-0.832260013	-0.52737999	-1.47510004	154	240	0
-0.833819985	-0.526350021	-1.47220004	154	240	0
-0.836300015	-0.52591002	-1.47099996	154	240	0
-0.837230027	-0.525099993	-1.47309995	154	240	0
-0.837689996	-0.523989975	-1.47449994	154	240	0
-0.840170026	-0.523559988	-1.47329998	154	240	0
-0.841560006	-0.525849998	-1.47529995	154	240	0
-0.841099977	-0.526970029	-1.47389996	154	240	0
-0.84404999	-0.526830018	-1.47350001	154	240	0
-0.844510019	-0.525709987	-1.47490001	154	240	0
-0.84653002	-0.526390016	-1.47230005	154	240	0
-0.848540008	-0.525650024	-1.47019994	154	240	0
-0.848070025	-0.526839972	-1.46889997	154	240	0
-0.849009991	-0.528930008	-1.47000003	154	240	0
-0.849009991	-0.53046	-1.46940005	154	240	0
-0.846059978	-0.530600011	-1.4698	154	240	0
-0.845589995	-0.52877003	-1.46959996	154	240	0
-0.845130026	-0.526979983	-1.46930003	154	240	0
-0.842190027	-0.527119994	-1.46969998	154	240	0
-0.843119979	-0.529219985	-1.47080004	154	240	0
-0.843580008	-0.531040013	-1.47109997	154	240	0
-0.840170026	-0.529359996	-1.47119999	154	240	0
-0.839240015	-0.530279994	-1.46899998	154	240	0
-0.838779986	-0.526960015	-1.46920002	154	240	0
-0.835380018	-0.526799977	-1.46879995	154	240	0
-0.834919989	-0.527989984	-1.46739995	154	240	0
-0.835839987	-0.530120015	-1.46850002	154	240	0
-0.835380018	-0.531319976	-1.46710002	154	240	0
-0.83446002	-0.532109976	-1.46500003	154	240	0
-0.837390006	-0.531970024	-1.46459997	154	240	0
-0.837849975	-0.530879974	-1.46589994	154	240	0
-0.840789974	-0.530740023	-1.4655	154	240	0
-0.839860022	-0.531530023	-1.46340001	154	240	0
-0.838930011	-0.532329977	-1.4612	154	240	0
-0.835070014	-0.531859994	-1.45990002	154	240	0
-0.832610011	-0.532299995	-1.46109998	154	240	0
-0.830600023	-0.531639993	-1.46370006	154	240	0
-0.831059992	-0.533349991	-1.46399999	154	240	0
-0.828589976	-0.533789992	-1.46519995	154	240	0
-0.827210009	-0.531459987	-1.46319997	154	240	0
-0.826759994	-0.529770017	-1.46290004	154	240	0
-0.824289978	-0.530200005	-1.4641	154	240	0
-0.824739993	-0.529009998	-1.46539998	154	240	0
-0.822730005	-0.528219998	-1.46800005	154	240	0
-0.82069999	-0.527450025	-1.47060001	154	240	0
-0.821609974	-0.526570022	-1.47280002	154	240	0
-0.818679988	-0.526690006	-1.47309995	154	240	0
-0.816190004	-0.525699973	-1.47479999	154	240	0
-0.813260019	-0.525820017	-1.47520006	154	240	0
-0.813260019	-0.524420023	-1.47570002	154	240	0
-0.814159989	-0.523509979	-1.47790003	154	240	0
-0.81121999	-0.523620009	-1.47819996	154	240	0
-0.811670005	-0.522390008	-1.47959995	154	240	0
-0.808279991	-0.522210002	-1.47909999	154	240	0
-0.807389975	-0.523140013	-1.47689998	154	240	0
-0.809880018	-0.524240017	-1.47520006	154	240	0
-0.808529973	-0.524739981	-1.47210002	154	240	0
-0.808089972	-0.525849998	-1.47080004	154	240	0
-0.808089972	-0.527339995	-1.47029996	154	240	0
-0.808529973	-0.529129982	-1.47060001	154	240	0
-0.807640016	-0.53004998	-1.46829998	154	240	0
-0.807640016	-0.53154999	-1.46780002	154	240	0
-0.806739986	-0.53233999	-1.46560001	154	240	0
-0.805850029	-0.533140004	-1.46340001	154	240	0
-0.808770001	-0.531610012	-1.46360004	154	240	0
-0.810109973	-0.531130016	-1.46659994	154	240	0
-0.810109973	-0.529630005	-1.46720004	154	240	0
-0.812590003	-0.530700028	-1.46539998	154	240	0
-0.812590003	-0.532100022	-1.46490002	154	240	0
-0.812139988	-0.533200026	-1.46360004	154	240	0
-0.814610004	-0.532779992	-1.46239996	154	240	0
-0.817070007	-0.532350004	-1.4612	154	240	0
-0.819989979	-0.532220006	-1.46089995	154	240	0
-0.820900023	-0.531419992	-1.46309996	154	240	0
-0.821359992	-0.530330002	-1.46440005	154	240	0
-0.820450008	-0.528230011	-1.46329999	154	240	0
-0.818430007	-0.52895999	-1.46529996	154	240	0
-0.818430007	-0.527440012	-1.46589994	154	240	0
-0.81595999	-0.527859986	-1.46700001	154	240	0
-0.816420019	-0.526679993	-1.4684	154	240	0
-0.813939989	-0.527100027	-1.46959996	154	240	0
-0.814390004	-0.528890014	-1.46990001	154	240	0
-0.814390004	-0.530420005	-1.46930003	154	240	0
-0.816420019	-0.529690027	-1.46730006	154	240	0
-0.81595999	-0.530879974	-1.46589994	154	240	0
-0.81595999	-0.532280028	-1.46539998	154	240	0
-0.818889976	-0.532159984	-1.46510005	154	240	0
-0.818889976	-0.53075999	-1.46560001	154	240	0
-0.823830009	-0.531289995	-1.46270001	154	240	0
-0.824289978	-0.533010006	-1.46300006	154	240	0
-0.828130007	-0.52917999	-1.46589994	154	240	0
-0.829050004	-0.528259993	-1.46809995	154	240	0
-0.829970002	-0.527369976	-1.47029996	154	240	0
-0.83197999	-0.526639998	-1.46829998	154	240	0
-0.832440019	-0.528429985	-1.46860003	154	240	0
-0.832440019	-0.529950023	-1.46809995	154	240	0
-0.829680026	-0.529640019	-1.46249998	154	240	0
-0.826120019	-0.52838999	-1.46850002	154	240	0
-0.824549973	-0.527930021	-1.47189999	154	240	0
-0.828400016	-0.528400004	-1.47319996	154	240	0
-0.826830029	-0.527939975	-1.47660005	154	240	0
-0.814840019	-0.52621001	-1.47179997	154	240	0
-0.812810004	-0.526929975	-1.47379994	154	240	0
-0.811460018	-0.527520001	-1.47080004	154	240	0
-0.811460018	-0.529009998	-1.47019994	154	240	0
-0.805159986	-0.528949976	-1.47000003	154	240	0
-0.804270029	-0.52986002	-1.46780002	154	240	0
-0.804270029	-0.531359971	-1.46730006	154	240	0
-0.802479982	-0.531539977	-1.46340001	154	240	0
-0.801590025	-0.532329977	-1.4612	154	240	0
-0.798680007	-0.53245002	-1.46150005	154	240	0
-0.799570024	-0.531650007	-1.46370006	154	240	0
-0.799120009	-0.529950023	-1.46340001	154	240	0
-0.800459981	-0.52937001	-1.46640003	154	240	0
-0.800459981	-0.527849972	-1.46700001	154	240	0
-0.803380013	-0.526250005	-1.46720004	154	240	0
-0.801349998	-0.525479972	-1.46969998	154	240	0
-0.800010026	-0.523159981	-1.4677	154	240	0
-0.799120009	-0.525449991	-1.46500003	154	240	0
-0.794879973	-0.526139975	-1.46220005	154	240	0
-0.794439971	-0.527350008	-1.46080005	154	240	0
-0.794439971	-0.530229986	-1.4598	154	240	0
-0.794879973	-0.531949997	-1.46010005	154	240	0
-0.792219996	-0.527320027	-1.45609999	154	240	0
-0.789319992	-0.530210018	-1.45539999	154	240	0
-0.787119985	-0.527279973	-1.45169997	154	240	0
-0.804709971	-0.522849977	-1.47130001	154	240	0
-0.806050003	-0.525160015	-1.47329998	154	240	0
-0.805610001	-0.526269972	-1.472	154	240	0
-0.809430003	-0.51947999	-1.47590005	154	240	0
-0.809880018	-0.518369973	-1.47720003	154	240	0
-0.811670005	-0.51809001	-1.48109996	154	240	0
-0.810109973	-0.533940017	-1.46560001	154	240	0
-0.842800021	-0.532790005	-1.46249998	154	240	0
-0.842800021	-0.531379998	-1.46300006	154	240	0
-0.842800021	-0.529990017	-1.46350002	154	240	0
-0.846199989	-0.530149996	-1.46389997	154	240	0
-0.846199989	-0.531539977	-1.46340001	154	240	0
-0.845260024	-0.532350004	-1.4612	154	240	0
-0.848670006	-0.532500029	-1.46169996	154	240	0
-0.849609971	-0.531700015	-1.46379995	154	240	0
-0.849139988	-0.529999971	-1.46350002	154	240	0
-0.851130009	-0.532050014	-1.46039999	154	240	0
-0.839070022	-0.523370028	-1.47749996	154	240	0
-0.838609993	-0.521539986	-1.47720003	154	240	0
-0.839540005	-0.520709991	-1.47940004	154	240	0
-0.840460002	-0.516939998	-1.48259997	154	240	0
-0.841840029	-0.519299984	-1.48459995	154	240	0
-0.841840029	-0.520770013	-1.48409998	154	240	0
-0.844340026	-0.518869996	-1.48339999	154	240	0
-0.844340026	-0.517390013	-1.48389995	154	240	0
-0.846189976	-0.521520019	-1.48619998	154	240	0
-0.849160016	-0.516870022	-1.48740005	154	240	0
-0.850549996	-0.516170025	-1.49039996	154	240	0
-0.847580016	-0.516309977	-1.49080002	154	240	0
-0.848049998	-0.515169978	-1.49220002	154	240	0
-0.849439979	-0.514609993	-1.49520004	154	240	0
-0.85194999	-0.51560998	-1.49339998	154	240	0
-0.85492003	-0.516900003	-1.49249995	154	240	0
-0.853060007	-0.517310023	-1.48860002	154	240	0
-0.859000027	-0.518570006	-1.48730004	154	240	0
-0.867439985	-0.517830014	-1.48510003	154	240	0
-0.870410025	-0.517669976	-1.48469996	154	240	0
-0.873860002	-0.51928997	-1.48459995	154	240	0
-0.87480998	-0.51839	-1.48670006	154	240	0
-0.872900009	-0.520179987	-1.48239994	154	240	0
-0.883650005	-0.518249989	-1.49129999	154	240	0
-0.885089993	-0.517539978	-1.49440002	154	240	0
-0.888180017	-0.517059982	-1.48790002	154	240	0
-0.888180017	-0.518610001	-1.48740005	154	240	0
-0.887690008	-0.519800007	-1.48599994	154	240	0
-0.887210011	-0.52098	-1.48469996	154	240	0
-0.889710009	-0.520529985	-1.48339999	154	240	0
-0.890190005	-0.519349992	-1.48469996	154	240	0
-0.890680015	-0.518149972	-1.48609996	154	240	0
-0.891650021	-0.517180026	-1.48819995	154	240	0
-0.891650021	-0.51560998	-1.48880005	154	240	0
-0.893660009	-0.51643002	-1.48609996	154	240	0
-0.893180013	-0.517690003	-1.48469996	154	240	0
-0.892690003	-0.518890023	-1.48339999	154	240	0
-0.892690003	-0.520359993	-1.48290002	154	240	0
-0.898649991	-0.515519977	-1.4835	154	240	0
-0.901139975	-0.515060008	-1.48220003	154	240	0
-0.902620018	-0.514349997	-1.48520005	154	240	0
-0.90012002	-0.514810026	-1.48650002	154	240	0
-0.90061003	-0.518209994	-1.48619998	154	240	0
-0.90061003	-0.519699991	-1.48570001	154	240	0
-0.903599977	-0.519519985	-1.48520005	154	240	0
-0.904089987	-0.518320024	-1.48650002	154	240	0
-0.906099975	-0.517570019	-1.48440003	154	240	0
-0.906099975	-0.513029993	-1.48599994	154	240	0
-0.905600011	-0.511330009	-1.48559999	154	240	0
-0.907079995	-0.510710001	-1.48860002	154	240	0
-0.908559978	-0.510070026	-1.49160004	154	240	0
-0.908070028	-0.508289993	-1.49129999	154	240	0
-0.909049988	-0.507359982	-1.49339998	154	240	0
-0.906589985	-0.502950013	-1.49030006	154	240	0
-0.905110002	-0.500620008	-1.48839998	154	240	0
-0.906970024	-0.509959996	-1.50109994	154	240	0
-0.900960028	-0.511799991	-1.50160003	154	240	0
-0.900059998	-0.515259981	-1.49240005	154	240	0
-0.902570009	-0.514810026	-1.49109995	154	240	0
-0.904089987	-0.513779998	-1.48810005	154	240	0
-0.860870004	-0.512279987	-1.49319994	154	240	0
-0.86431998	-0.510919988	-1.49409997	154	240	0
-0.862749994	-0.511919975	-1.49699998	154	240	0
-0.861169994	-0.512929976	-1.5	154	240	0
-0.85819	-0.513069987	-1.50039995	154	240	0
-0.857529998	-0.513140023	-1.50549996	154	240	0
-0.857060015	-0.511349976	-1.50520003	154	240	0
-0.853609979	-0.508170009	-1.50580001	154	240	0
-0.861169994	-0.506889999	-1.50199997	154	240	0
-0.867919981	-0.507489979	-1.50880003	154	240	0
-0.868390024	-0.506269991	-1.51010001	154	240	0
-0.868860006	-0.50503999	-1.5115	154	240	0
-0.869799972	-0.504230022	-1.51359999	154	240	0
-0.867259979	-0.503009975	-1.51540005	154	240	0
-0.864250004	-0.503149986	-1.51590002	154	240	0
-0.865649998	-0.502489984	-1.51890004	154	240	0
-0.866580009	-0.501680017	-1.52100003	154	240	0
-0.866119981	-0.499729991	-1.52069998	154	240	0
-0.867519975	-0.49902001	-1.5237	154	240	0
-0.869599998	-0.499870002	-1.52110004	154	240	0
-0.869599998	-0.501540005	-1.52059996	154	240	0
-0.869130015	-0.502619982	-1.51929998	154	240	0
-0.87213999	-0.50247997	-1.51880002	154	240	0
-0.87213999	-0.501110017	-1.51929998	154	240	0
-0.87213999	-0.499440014	-1.51979995	154	240	0
-0.875630021	-0.499570012	-1.52020001	154	240	0
-0.875159979	-0.500970006	-1.51880002	154	240	0
-0.877699971	-0.500540018	-1.51750004	154	240	0
-0.876749992	-0.501349986	-1.51540005	154	240	0
-0.876749992	-0.502839983	-1.51489997	154	240	0
-0.87628001	-0.504220009	-1.51349998	154	240	0
-0.875810027	-0.505299985	-1.5122	154	240	0
-0.874859989	-0.506250024	-1.51010001	154	240	0
-0.873920023	-0.507200003	-1.5079	154	240	0
-0.876450002	-0.506760001	-1.50660002	154	240	0
-0.870920002	-0.507350028	-1.50829995	154	240	0
-0.871860027	-0.506399989	-1.51049995	154	240	0
-0.873269975	-0.505729973	-1.51349998	154	240	0
-0.873269975	-0.504369974	-1.51400006	154	240	0
-0.873740017	-0.502990007	-1.51540005	154	240	0
-0.873269975	-0.501219988	-1.51499999	154	240	0
-0.871200025	-0.503419995	-1.51670003	154	240	0
-0.870999992	-0.499150008	-1.52409995	154	240	0
-0.87401998	-0.499009997	-1.5237	154	240	0
-0.876569986	-0.498589993	-1.52240002	154	240	0
-0.878639996	-0.499419987	-1.51979995	154	240	0
-0.881190002	-0.500660002	-1.51789999	154	240	0
-0.880710006	-0.501749992	-1.51660001	154	240	0
-0.883729994	-0.501600027	-1.51619995	154	240	0
-0.882780015	-0.502539992	-1.51400006	154	240	0
-0.879289985	-0.502409995	-1.51359999	154	240	0
-0.879289985	-0.505420029	-1.51259995	154	240	0
-0.879289985	-0.506940007	-1.51209998	154	240	0
-0.880710006	-0.504899979	-1.51559997	154	240	0
-0.889129996	-0.499779999	-1.52090001	154	240	0
-0.889609993	-0.501730025	-1.52119994	154	240	0
-0.892149985	-0.501299977	-1.51979995	154	240	0
-0.892149985	-0.499630004	-1.52040005	154	240	0
-0.894699991	-0.499190003	-1.51909995	154	240	0
-0.895179987	-0.501139998	-1.51929998	154	240	0
-0.894070029	-0.496109992	-1.52520001	154	240	0
-0.89181	-0.493900001	-1.53439999	154	240	0
-0.88924998	-0.49278	-1.53620005	154	240	0
-0.890200019	-0.491930008	-1.53830004	154	240	0
-0.890670002	-0.490720004	-1.53970003	154	240	0
-0.890670002	-0.489109993	-1.5402	154	240	0
-0.888100028	-0.489529997	-1.54149997	154	240	0
-0.888100028	-0.491140008	-1.54100001	154	240	0
-0.888570011	-0.488409996	-1.54279995	154	240	0
-0.888570011	-0.486849993	-1.54330003	154	240	0
-0.888570011	-0.485179991	-1.5438	154	240	0
-0.885519981	-0.485329986	-1.54429996	154	240	0
-0.886460006	-0.484499991	-1.54639995	154	240	0
-0.887399971	-0.483460009	-1.54849994	154	240	0
-0.88835001	-0.4824	-1.55069995	154	240	0
-0.889289975	-0.48131001	-1.55289996	154	240	0
-0.89023	-0.48021999	-1.55509996	154	240	0
-0.891170025	-0.479160011	-1.55729997	154	240	0
-0.888580024	-0.479559988	-1.55859995	154	240	0
-0.889509976	-0.478500009	-1.56079996	154	240	0
-0.890450001	-0.47744	-1.56289995	154	240	0
-0.890919983	-0.476110011	-1.56429994	154	240	0
-0.890919983	-0.474620014	-1.56470001	154	240	0
-0.891860008	-0.473659992	-1.5668	154	240	0
-0.892799973	-0.472559988	-1.56900001	154	240	0
-0.893270016	-0.471139997	-1.5704	154	240	0
-0.893739998	-0.468360007	-1.57210004	154	240	0
-0.896350026	-0.469460011	-1.57029998	154	240	0
-0.897769988	-0.471749991	-1.57239997	154	240	0
-0.899179995	-0.474189997	-1.57439995	154	240	0
-0.902270019	-0.474040002	-1.57389998	154	240	0
-0.901329994	-0.471859992	-1.57280004	154	240	0
-0.900860012	-0.470070004	-1.57239997	154	240	0
-0.904890001	-0.470429987	-1.57360005	154	240	0
-0.905369997	-0.47220999	-1.57389998	154	240	0
-0.90583998	-0.474139988	-1.57430005	154	240	0
-0.908460021	-0.473740011	-1.57290006	154	240	0
-0.908460021	-0.470530003	-1.57389998	154	240	0
-0.90941	-0.469529986	-1.57599998	154	240	0
-0.910359979	-0.46845001	-1.57819998	154	240	0
-0.906790018	-0.468349993	-1.57790005	154	240	0
-0.906790018	-0.469929993	-1.57739997	154	240	0
-0.904160023	-0.470340014	-1.57869995	154	240	0
-0.903219998	-0.468250006	-1.57749999	154	240	0
-0.90012002	-0.468400002	-1.57799995	154	240	0
-0.899649978	-0.46972999	-1.57669997	154	240	0
-0.898710012	-0.466030002	-1.57599998	154	240	0
-0.901799977	-0.465880007	-1.57550001	154	240	0
-0.903689981	-0.465279996	-1.57930005	154	240	0
-0.900590003	-0.465429991	-1.57980001	154	240	0
-0.901539981	-0.464320004	-1.58200002	154	240	0
-0.901539981	-0.461290002	-1.58290005	154	240	0
-0.901539981	-0.459670007	-1.58329999	154	240	0
-0.905579984	-0.458350003	-1.58500004	154	240	0
-0.905579984	-0.456770003	-1.5855	154	240	0
-0.906050026	-0.455449998	-1.58679998	154	240	0
-0.911059976	-0.454750001	-1.59010005	154	240	0
-0.912479997	-0.458570004	-1.59169996	154	240	0
-0.913429976	-0.457489997	-1.59389997	154	240	0
-0.913900018	-0.460889995	-1.59379995	154	240	0
-0.913429976	-0.462330014	-1.59249997	154	240	0
-0.915600002	-0.463310003	-1.5898	154	240	0
-0.918709993	-0.463149995	-1.58930004	154	240	0
-0.91918999	-0.461769998	-1.59060001	154	240	0
-0.918709993	-0.459859997	-1.59019995	154	240	0
-0.919669986	-0.45875001	-1.59239995	154	240	0
-0.922789991	-0.458600014	-1.59179997	154	240	0
-0.922309995	-0.459939986	-1.5905	154	240	0
-0.921350002	-0.461129993	-1.58829999	154	240	0
-0.921829998	-0.463	-1.58870006	154	240	0
-0.923510015	-0.462099999	-1.58570004	154	240	0
-0.923510015	-0.460480005	-1.58609998	154	240	0
-0.92614001	-0.460079998	-1.58469999	154	240	0
-0.92663002	-0.461939991	-1.58510005	154	240	0
-0.92614001	-0.463209987	-1.58379996	154	240	0
-0.92663002	-0.458660007	-1.58609998	154	240	0
-0.92614001	-0.456829995	-1.58570004	154	240	0
-0.924220026	-0.454299986	-1.58280003	154	240	0
-0.928070009	-0.454699993	-1.58990002	154	240	0
-0.92543	-0.4551	-1.59130001	154	240	0
-0.926389992	-0.457109988	-1.59259999	154	240	0
-0.926869988	-0.458929986	-1.59300005	154	240	0
-0.92543	-0.459789991	-1.59000003	154	240	0
-0.923749983	-0.457509995	-1.59399998	154	240	0
-0.923269987	-0.455740005	-1.59360003	154	240	0
-0.92110002	-0.45638001	-1.59580004	154	240	0
-0.92110002	-0.457910001	-1.59529996	154	240	0
-0.917970002	-0.456530005	-1.59630001	154	240	0
-0.917500019	-0.457819998	-1.59500003	154	240	0
-0.915600002	-0.458420008	-1.59119999	154	240	0
-0.915600002	-0.460009992	-1.59070003	154	240	0
-0.917020023	-0.462419987	-1.59280002	154	240	0
-0.914849997	-0.455159992	-1.59730005	154	240	0
-0.914849997	-0.453509986	-1.59780002	154	240	0
-0.918449998	-0.451900005	-1.59860003	154	240	0
-0.921580017	-0.45175001	-1.59800005	154	240	0
-0.922529995	-0.450610012	-1.60020006	154	240	0
-0.921580017	-0.448529989	-1.59889996	154	240	0
-0.92422998	-0.448139995	-1.59749997	154	240	0
-0.92422998	-0.449739993	-1.59710002	154	240	0
-0.924709976	-0.451599985	-1.59749997	154	240	0
-0.926869988	-0.45096001	-1.59519994	154	240	0
-0.927349985	-0.452899992	-1.59560001	154	240	0
-0.926620007	-0.454259992	-1.60039997	154	240	0
-0.927579999	-0.456389993	-1.60160005	154	240	0
-0.924440026	-0.456539989	-1.60210001	154	240	0
-0.924440026	-0.454890013	-1.60259998	154	240	0
-0.921299994	-0.456699997	-1.6027	154	240	0
-0.920350015	-0.454560012	-1.60150003	154	240	0
-0.92177999	-0.451950014	-1.6049	154	240	0
-0.923009992	-0.447640002	-1.60189998	154	240	0
-0.927100003	-0.447959989	-1.60309994	154	240	0
-0.931439996	-0.443500012	-1.59949994	154	240	0
-0.930710018	-0.443080008	-1.59169996	154	240	0
-0.930710018	-0.444669992	-1.59130001	154	240	0
-0.933340013	-0.444279999	-1.58990002	154	240	0
-0.918929994	-0.448920012	-1.60029995	154	240	0
-0.91918999	-0.444160014	-1.59560001	154	240	0
-0.929750025	-0.455749989	-1.59930003	154	240	0
-0.898710012	-0.461309999	-1.57739997	154	240	0
-0.895150006	-0.464329988	-1.57609999	154	240	0
-0.895619988	-0.467790008	-1.57599998	154	240	0
-0.892799973	-0.464670002	-1.57140005	154	240	0
-0.891860008	-0.460990012	-1.57060003	154	240	0
-0.890919983	-0.468340009	-1.56659997	154	240	0
-0.888320029	-0.470270008	-1.5675	154	240	0
-0.887849987	-0.471679986	-1.5661	154	240	0
-0.887380004	-0.473040015	-1.56480002	154	240	0
-0.887380004	-0.474510014	-1.56429994	154	240	0
-0.887380004	-0.476000011	-1.56389999	154	240	0
-0.886439979	-0.477070004	-1.56169999	154	240	0
-0.88598001	-0.478390008	-1.56040001	154	240	0
-0.882910013	-0.47694999	-1.56130004	154	240	0
-0.882439971	-0.478269994	-1.55999994	154	240	0
-0.881969988	-0.474860013	-1.56009996	154	240	0
-0.881510019	-0.47310999	-1.55970001	154	240	0
-0.883639991	-0.478670001	-1.55569994	154	240	0
-0.882700026	-0.47973001	-1.55350006	154	240	0
