0.19201	0.0511589982	-1.08039999	184	191	70
0.190080002	0.0511370003	-1.08000004	184	191	70
0.188150004	0.0511160009	-1.07949996	184	191	70
0.188150004	0.053261999	-1.07939994	184	191	70
0.189789996	0.0532380007	-1.07889998	184	191	70
0.191129997	0.0531659983	-1.07739997	184	191	70
0.190840006	0.0520679988	-1.07650006	184	191	70
0.189199999	0.0520920008	-1.07700002	184	191	70
0.187570006	0.0521159992	-1.07749999	184	191	70
0.185929999	0.0521400012	-1.07799995	184	191	70
0.185640007	0.0510030016	-1.07710004	184	191	70
0.183719993	0.0520710014	-1.07659996	184	191	70
0.183149993	0.0508910008	-1.07480001	184	191	70
0.182860002	0.0486319996	-1.07389998	184	191	70
0.184780002	0.0486529991	-1.07439995	184	191	70
0.188030005	0.0486080013	-1.07340002	184	191	70
0.188909993	0.0498559996	-1.07620001	184	191	70
0.192770004	0.0520900004	-1.07700002	184	191	70
0.194700003	0.0521109998	-1.07739997	184	191	70
0.194700003	0.0510209985	-1.07749999	184	191	70
0.196630001	0.0521330014	-1.07790005	184	191	70
0.198259994	0.052108001	-1.07739997	184	191	70
0.197960004	0.0531129986	-1.07640004	184	191	70
0.196030006	0.0530910008	-1.07589996	184	191	70
0.195730001	0.0509059988	-1.07509995	184	191	70
0.197359994	0.0508820005	-1.07459998	184	191	70
0.199290007	0.0509029999	-1.07500005	184	191	70
0.199599996	0.0520370007	-1.07589996	184	191	70
0.201529995	0.0520580001	-1.07630002	184	191	70
0.201529995	0.0509679988	-1.07640004	184	191	70
0.203470007	0.0520789996	-1.07679999	184	191	70
0.2051	0.0520530008	-1.07620001	184	191	70
0.205410004	0.0531510003	-1.07710004	184	191	70
0.207039997	0.0531250015	-1.07659996	184	191	70
0.207350001	0.0521200001	-1.0776	184	191	70
0.209299996	0.0521400012	-1.07799995	184	191	70
0.209299996	0.0510479994	-1.07809997	184	191	70
0.210620001	0.0509780012	-1.07659996	184	191	70
0.21288	0.0510420017	-1.07799995	184	191	70
0.213200003	0.0499840006	-1.079	184	191	70
0.214829996	0.0499590002	-1.07840002	184	191	70
0.214829996	0.0510619991	-1.07840002	184	191	70
0.216470003	0.0510360003	-1.07780004	184	191	70
0.216790006	0.0521729998	-1.07869995	184	191	70
0.216790006	0.0499770008	-1.07879996	184	191	70
0.218419999	0.0499520004	-1.0783	184	191	70
0.220060006	0.0499260016	-1.07770002	184	191	70
0.221689999	0.0499010012	-1.07720006	184	191	70
0.223330006	0.0498749986	-1.07659996	184	191	70
0.223330006	0.0487570018	-1.07669997	184	191	70
0.224959999	0.0498489998	-1.07599998	184	191	70
0.224309996	0.0508599989	-1.07410002	184	191	70
0.223000005	0.0530700013	-1.07550001	184	191	70
0.221689999	0.0531440005	-1.07700002	184	191	70
0.221049994	0.0486960001	-1.07529998	184	191	70
0.218779996	0.0486360006	-1.074	184	191	70
0.21683	0.048618	-1.07360005	184	191	70
0.217779994	0.047642	-1.07650006	184	191	70
0.216150001	0.0476670004	-1.07700002	184	191	70
0.216150001	0.0487710014	-1.07700002	184	191	70
0.220379993	0.0477439985	-1.07879996	184	191	70
0.217739999	0.0533660017	-1.08150005	184	191	70
0.215780005	0.0533460006	-1.08109999	184	191	70
0.215780005	0.0522909984	-1.0812	184	191	70
0.213819996	0.052271001	-1.08070004	184	191	70
0.21187	0.0522519983	-1.08029997	184	191	70
0.211559996	0.0532590002	-1.07930005	184	191	70
0.213200003	0.0532330014	-1.07879996	184	191	70
0.208680004	0.0530980006	-1.07609999	184	191	70
0.207969993	0.0511189997	-1.07959998	184	191	70
0.207969993	0.0500140004	-1.07959998	184	191	70
0.206019998	0.0510989986	-1.07910001	184	191	70
0.204390004	0.0511239991	-1.07969999	184	191	70
0.204390004	0.0532709993	-1.07959998	184	191	70
0.202439994	0.0532490015	-1.07910001	184	191	70
0.200499997	0.0532279983	-1.07869995	184	191	70
0.197960004	0.0498710014	-1.07650006	184	191	70
0.196329996	0.0487760007	-1.07710004	184	191	70
0.196930006	0.0499829985	-1.07889998	184	191	70
0.195289999	0.0500070006	-1.07949996	184	191	70
0.195429996	0.0475450009	-1.07430005	184	191	70
0.195130005	0.0464159995	-1.07340002	184	191	70
0.197060004	0.0464349985	-1.07379997	184	191	70
0.197060004	0.0475229993	-1.07379997	184	191	70
0.197060004	0.0486240014	-1.07369995	184	191	70
0.198689997	0.0485999994	-1.07319999	184	191	70
0.198689997	0.0497150011	-1.07309997	184	191	70
0.200619996	0.0497349985	-1.07360005	184	191	70
0.200320005	0.0485769995	-1.07270002	184	191	70
0.200920001	0.047561001	-1.07459998	184	191	70
0.199290007	0.047584001	-1.07519996	184	191	70
0.203160003	0.0487259999	-1.07599998	184	191	70
0.203470007	0.0476640016	-1.07700002	184	191	70
0.2051	0.0487449989	-1.07640004	184	191	70
0.205410004	0.0499069989	-1.07729995	184	191	70
0.203470007	0.0498870015	-1.07690001	184	191	70
0.205720007	0.0477249995	-1.0783	184	191	70
0.207739994	0.0464229994	-1.07350004	184	191	70
0.209059998	0.0463589989	-1.07210004	184	191	70
0.211309999	0.046418	-1.07340002	184	191	70
0.209999993	0.0453869998	-1.07490003	184	191	70
0.211559996	0.0412830003	-1.07990003	184	191	70
0.209920004	0.0413039997	-1.08039999	184	191	70
0.208279997	0.0413240008	-1.08089995	184	191	70
0.213819996	0.0413350016	-1.0812	184	191	70
0.215079993	0.0392899998	-1.08510005	184	191	70
0.217669994	0.0393729992	-1.08739996	184	191	70
0.219640002	0.039388001	-1.08780003	184	191	70
0.193210006	0.0463970006	-1.07290006	184	191	70
0.193800002	0.0530220009	-1.07449996	184	191	70
0.192169994	0.0530470014	-1.07500005	184	191	70
0.186509997	0.0532869995	-1.07990003	184	191	70
0.184300005	0.0532170013	-1.07850003	184	191	70
0.181799993	0.053098999	-1.07609999	184	191	70
0.188329995	0.0400100015	-1.0747	184	191	70
0.186409995	0.0399929993	-1.07420003	184	191	70
0.185069993	0.0400470011	-1.07570004	184	191	70
0.183719993	0.0401009992	-1.07710004	184	191	70
0.17859	0.0381209999	-1.08389997	184	191	70
0.233109996	0.0475019999	-1.0733	184	191	70
0.233140007	0.0499619991	-1.07850003	184	191	70
0.230519995	0.047869999	-1.08159995	184	191	70
0.236780003	0.0457589999	-1.08379996	184	191	70
0.238759995	0.0457740016	-1.08410001	184	191	70
0.240740001	0.0457889996	-1.08449996	184	191	70
0.242390007	0.0435689986	-1.08399999	184	191	70
0.244369999	0.0425270014	-1.08440006	184	191	70
0.246020004	0.0414340012	-1.08379996	184	191	70
0.246020004	0.0403509997	-1.08379996	184	191	70
0.244029999	0.0403379984	-1.08350003	184	191	70
0.243689999	0.0413849987	-1.08249998	184	191	70
0.242390007	0.04036	-1.08410001	184	191	70
0.241080001	0.0404170007	-1.08560002	184	191	70
0.240439996	0.0394340008	-1.0891	184	191	70
0.242430001	0.0394469984	-1.08940005	184	191	70
0.238450006	0.0394209996	-1.08870006	184	191	70
0.236129999	0.0393740013	-1.08739996	184	191	70
0.245049998	0.0436579995	-1.0862	184	191	70
0.247040004	0.0436719991	-1.08650005	184	191	70
0.246700004	0.0425769985	-1.08560002	184	191	70
0.248349994	0.0425530002	-1.08500004	184	191	70
0.25	0.0425300002	-1.08440006	184	191	70
0.251639992	0.0425059982	-1.08379996	184	191	70
0.251289994	0.0435240008	-1.08280003	184	191	70
0.252939999	0.0434990004	-1.08220005	184	191	70
0.252939999	0.0424450003	-1.08229995	184	191	70
0.252939999	0.0413770005	-1.08229995	184	191	70
0.254579991	0.0413540006	-1.08169997	184	191	70
0.254579991	0.0424209982	-1.08169997	184	191	70
0.25492999	0.0435120016	-1.0826	184	191	70
0.25492999	0.0445949994	-1.08249998	184	191	70
0.255279988	0.0457439981	-1.08340001	184	191	70
0.256570011	0.0456789993	-1.0819	184	191	70
0.25692001	0.0446080007	-1.08280003	184	191	70
0.257279992	0.0435630009	-1.08379996	184	191	70
0.25692001	0.0424709991	-1.08290005	184	191	70
0.25692001	0.0414020009	-1.08299994	184	191	70
0.259270012	0.0414500013	-1.08420002	184	191	70
0.259629995	0.042555999	-1.08510005	184	191	70
0.259979993	0.0436509997	-1.08599997	184	191	70
0.259979993	0.0447360016	-1.08599997	184	191	70
0.261629999	0.0447110012	-1.08529997	184	191	70
0.261629999	0.0436259992	-1.08539999	184	191	70
0.261979997	0.0426050015	-1.08640003	184	191	70
0.262340009	0.0415689982	-1.08729994	184	191	70
0.263990015	0.0426170006	-1.08669996	184	191	70
0.265280008	0.042555999	-1.08510005	184	191	70
0.266570002	0.042493999	-1.08350003	184	191	70
0.268209994	0.0424689986	-1.08290005	184	191	70
0.267850012	0.0413650014	-1.08200002	184	191	70
0.265850008	0.0413540006	-1.08169997	184	191	70
0.264209986	0.0413779989	-1.08229995	184	191	70
0.264209986	0.0402959995	-1.08239996	184	191	70
0.262919992	0.0403539985	-1.08389997	184	191	70
0.263280004	0.0414730012	-1.0848	184	191	70
0.261629999	0.0404120013	-1.0855	184	191	70
0.259979993	0.0404359996	-1.08609998	184	191	70
0.257979989	0.0404240005	-1.08580005	184	191	70
0.255980015	0.0404120013	-1.0855	184	191	70
0.253630012	0.0403649993	-1.08420002	184	191	70
0.25198999	0.0403879993	-1.0848	184	191	70
0.25198999	0.0414719991	-1.0848	184	191	70
0.250690013	0.0415310003	-1.08630002	184	191	70
0.250690013	0.0404459983	-1.08640003	184	191	70
0.249039993	0.0415540002	-1.08700001	184	191	70
0.248349994	0.0403980017	-1.08510005	184	191	70
0.247319996	0.0434969999	-1.08220005	184	191	70
0.248960003	0.0434730016	-1.08159995	184	191	70
0.25060001	0.0445289984	-1.08089995	184	191	70
0.250950009	0.0456769988	-1.08179998	184	191	70
0.250950009	0.0467800014	-1.08179998	184	191	70
0.252939999	0.046794001	-1.08210003	184	191	70
0.253289998	0.0457310006	-1.08309996	184	191	70
0.253289998	0.0446199998	-1.08309996	184	191	70
0.254579991	0.0467670001	-1.08150005	184	191	70
0.255279988	0.0479450002	-1.08329999	184	191	70
0.25492999	0.0490139984	-1.08229995	184	191	70
0.256570011	0.0489859991	-1.08169997	184	191	70
0.258210003	0.0489579998	-1.08109999	184	191	70
0.259499997	0.0488869995	-1.07949996	184	191	70
0.259499997	0.0500079989	-1.07949996	184	191	70
0.259849995	0.0511570014	-1.08039999	184	191	70
0.260210007	0.0522960015	-1.08130002	184	191	70
0.260560006	0.0533969998	-1.08210003	184	191	70
0.262210011	0.0533660017	-1.08150005	184	191	70
0.261489987	0.0522200018	-1.07969999	184	191	70
0.261849999	0.051171001	-1.08070004	184	191	70
0.262210011	0.050108999	-1.08169997	184	191	70
0.264209986	0.0501229987	-1.08200002	184	191	70
0.263850003	0.0489579998	-1.08109999	184	191	70
0.263850003	0.0478489995	-1.08109999	184	191	70
0.263850003	0.0467539988	-1.0812	184	191	70
0.264209986	0.0456920005	-1.08220005	184	191	70
0.262210011	0.0456789993	-1.0819	184	191	70
0.262210011	0.044569999	-1.0819	184	191	70
0.261849999	0.0434500016	-1.08099997	184	191	70
0.263489991	0.0434250012	-1.08039999	184	191	70
0.263489991	0.0445050001	-1.08029997	184	191	70
0.265489995	0.0445180014	-1.08060002	184	191	70
0.265850008	0.0434749983	-1.08159995	184	191	70
0.26620999	0.0457050018	-1.08249998	184	191	70
0.26620999	0.0468080007	-1.08239996	184	191	70
0.266570002	0.0479450002	-1.08329999	184	191	70
0.268570006	0.0479580015	-1.08360004	184	191	70
0.268570006	0.0490689985	-1.08360004	184	191	70
0.268209994	0.0501510017	-1.0826	184	191	70
0.269849986	0.0501220003	-1.0819	184	191	70
0.269849986	0.0512280017	-1.0819	184	191	70
0.269849986	0.0523240007	-1.08179998	184	191	70
0.268209994	0.0523540005	-1.08249998	184	191	70
0.26749	0.0511699989	-1.08070004	184	191	70
0.265850008	0.0522949994	-1.0812	184	191	70
0.264209986	0.0523249991	-1.0819	184	191	70
0.26620999	0.0501369983	-1.08229995	184	191	70
0.265850008	0.0489710011	-1.08140004	184	191	70
0.268209994	0.0468199998	-1.08270001	184	191	70
0.268570006	0.045756001	-1.08369994	184	191	70
0.269849986	0.0456900001	-1.08210003	184	191	70
0.270220011	0.0468330011	-1.08299994	184	191	70
0.270220011	0.0479299985	-1.08299994	184	191	70
0.271499991	0.0478600003	-1.08140004	184	191	70
0.271860003	0.0468050018	-1.08239996	184	191	70
0.271129996	0.0456239991	-1.08060002	184	191	70
0.271860003	0.042456001	-1.08249998	184	191	70
0.270220011	0.0424810015	-1.08319998	184	191	70
0.270579994	0.0414480008	-1.08420002	184	191	70
0.269300014	0.043637	-1.08560002	184	191	70
0.269659996	0.04476	-1.08650005	184	191	70
0.271670014	0.0447719991	-1.08679998	184	191	70
0.271670014	0.0436859988	-1.0869	184	191	70
0.273689985	0.0436969995	-1.08720005	184	191	70
0.273319989	0.0447460003	-1.0862	184	191	70
0.273319989	0.0415299982	-1.08630002	184	191	70
0.274049997	0.0405130014	-1.08819997	184	191	70
0.273119986	0.0406070016	-1.09070003	184	191	70
0.27037999	0.040527001	-1.08860004	184	191	70
0.266930014	0.0403769985	-1.08449996	184	191	70
0.261849999	0.0467410013	-1.08089995	184	191	70
0.262210011	0.0478769988	-1.08179998	184	191	70
0.260560006	0.0479039997	-1.08239996	184	191	70
0.259270012	0.0468759984	-1.08399999	184	191	70
0.259629995	0.0480149984	-1.08490002	184	191	70
0.257979989	0.0480419993	-1.0855	184	191	70
0.257629991	0.0469029993	-1.08459997	184	191	70
0.258569986	0.0456920005	-1.08220005	184	191	70
0.259849995	0.0456270017	-1.08060002	184	191	70
0.259499997	0.0466869995	-1.07959998	184	191	70
0.261139989	0.0488590002	-1.07889998	184	191	70
0.263130009	0.0510980003	-1.07910001	184	191	70
0.264770001	0.0510680005	-1.07850003	184	191	70
0.264409989	0.0531659983	-1.07749999	184	191	70
0.263130009	0.0532430001	-1.079	184	191	70
0.266400009	0.0531810001	-1.07780004	184	191	70
0.269129992	0.0532880016	-1.07990003	184	191	70
0.270940006	0.0491239987	-1.0848	184	191	70
0.258569986	0.0523260012	-1.0819	184	191	70
0.258920014	0.0534280017	-1.08280003	184	191	70
0.25692001	0.0534120016	-1.08239996	184	191	70
0.256570011	0.0523109995	-1.08159995	184	191	70
0.258210003	0.0511859991	-1.08099997	184	191	70
0.257510006	0.0499939993	-1.07920003	184	191	70
0.255160004	0.0499360003	-1.07790005	184	191	70
0.255160004	0.0510380007	-1.07790005	184	191	70
0.253529996	0.0510669984	-1.07850003	184	191	70
0.253529996	0.0521590002	-1.07840002	184	191	70
0.253529996	0.0532119982	-1.07840002	184	191	70
0.251540005	0.0521430001	-1.07809997	184	191	70
0.251540005	0.0510520004	-1.07819998	184	191	70
0.250250012	0.0500210002	-1.07969999	184	191	70
0.248270005	0.0500050001	-1.07939994	184	191	70
0.247580007	0.0510200001	-1.07749999	184	191	70
0.24921	0.0509920008	-1.07690001	184	191	70
0.24921	0.0520819984	-1.07679999	184	191	70
0.24887	0.0530869998	-1.07579994	184	191	70
0.250849992	0.0531029999	-1.07620001	184	191	70
0.246889994	0.0520210005	-1.07560003	184	191	70
0.24526	0.0520499982	-1.07620001	184	191	70
0.24594	0.0510490015	-1.07809997	184	191	70
0.24594	0.0499459989	-1.07809997	184	191	70
0.2456	0.0487839989	-1.07729995	184	191	70
0.24594	0.0477209985	-1.07819998	184	191	70
0.24594	0.0466290005	-1.0783	184	191	70
0.247580007	0.0476940013	-1.0776	184	191	70
0.247229993	0.0487570018	-1.07669997	184	191	70
0.24887	0.0487300009	-1.07609999	184	191	70
0.24921	0.0476679988	-1.07700002	184	191	70
0.250499994	0.0487020016	-1.07539999	184	191	70
0.251890004	0.0477650017	-1.07920003	184	191	70
0.252240002	0.0500359982	-1.08010006	184	191	70
0.253879994	0.0500079989	-1.07949996	184	191	70
0.248960003	0.0467649996	-1.08140004	184	191	70
0.247920007	0.0455439985	-1.07869995	184	191	70
0.247920007	0.0444380008	-1.07869995	184	191	70
0.246289998	0.0444630012	-1.07930005	184	191	70
0.244990006	0.0445259996	-1.08089995	184	191	70
0.243689999	0.0445890017	-1.08239996	184	191	70
0.245680004	0.046817001	-1.0826	184	191	70
0.246020004	0.0479549989	-1.08350003	184	191	70
0.244369999	0.0479810014	-1.08410001	184	191	70
0.242390007	0.0479659997	-1.08379996	184	191	70
0.243349999	0.051194001	-1.0812	184	191	70
0.243689999	0.05339	-1.08200002	184	191	70
0.248610005	0.0533020012	-1.08019996	184	191	70
0.248349994	0.0535169989	-1.08459997	184	191	70
0.247040004	0.0535929985	-1.08609998	184	191	70
0.24526	0.0454510003	-1.07650006	184	191	70
0.242939994	0.0453969985	-1.07519996	184	191	70
0.24199	0.0455010012	-1.0776	184	191	70
0.239390001	0.0467309989	-1.08070004	184	191	70
0.239390001	0.0478259996	-1.08060002	184	191	70
0.237419993	0.0467160009	-1.08029997	184	191	70
0.268269986	0.0397569984	-1.09800005	184	191	70
0.266250014	0.0397460014	-1.0977	184	191	70
0.265639991	0.0398709998	-1.10109997	184	191	70
0.263960004	0.0398930013	-1.10179996	184	191	70
0.260879993	0.0397810005	-1.09860003	184	191	70
0.258859992	0.0397690013	-1.09829998	184	191	70
0.255800009	0.0396559983	-1.09519994	184	191	70
0.253450006	0.0396099985	-1.09389997	184	191	70
0.252130002	0.0396660008	-1.09549999	184	191	70
0.250809997	0.0397219993	-1.097	184	191	70
0.248799995	0.0397100002	-1.09669995	184	191	70
0.246790007	0.039698001	-1.09640002	184	191	70
0.271369994	0.0398689993	-1.10109997	184	191	70
0.273770005	0.0399129987	-1.10230005	184	191	70
0.276529998	0.0399909988	-1.10440004	184	191	70
0.278210014	0.0399670005	-1.10380006	184	191	70
0.277729988	0.038017001	-1.11259997	184	191	70
0.276030004	0.0391520001	-1.11329997	184	191	70
0.273979992	0.0391420014	-1.11300004	184	191	70
0.272989988	0.0392300002	-1.11549997	184	191	70
0.271290004	0.0392530002	-1.11609995	184	191	70
0.271290004	0.0381370001	-1.11619997	184	191	70
0.270579994	0.0370029993	-1.11430001	184	191	70
0.270940006	0.035941001	-1.11530006	184	191	70
0.272989988	0.0359500013	-1.11559999	184	191	70
0.27263999	0.0348059982	-1.11469996	184	191	70
0.273979992	0.0347560011	-1.11310005	184	191	70
0.274690002	0.0336930007	-1.11500001	184	191	70
0.276389986	0.0336729996	-1.11440003	184	191	70
0.278450012	0.0336810015	-1.11459994	184	191	70
0.280140013	0.0336619988	-1.11399996	184	191	70
0.280869991	0.0314729996	-1.11590004	184	191	70
0.280869991	0.0303719994	-1.11590004	184	191	70
0.281230003	0.0292879995	-1.11689997	184	191	70
0.283289999	0.0292949993	-1.11720002	184	191	70
0.283659995	0.0282019991	-1.11810005	184	191	70
0.284020007	0.0271140002	-1.11909997	184	191	70
0.284379989	0.0260320008	-1.12010002	184	191	70
0.282680005	0.0260470007	-1.1207	184	191	70
0.283039987	0.0271760002	-1.12160003	184	191	70
0.281329989	0.0271920003	-1.12230003	184	191	70
0.280970007	0.028283	-1.12129998	184	191	70
0.27926001	0.0282990001	-1.12199998	184	191	70
0.27926001	0.0271850005	-1.12199998	184	191	70
0.278899997	0.0260559991	-1.12109995	184	191	70
0.280609995	0.0260409992	-1.12039995	184	191	70
0.282310009	0.0282419994	-1.11969995	184	191	70
0.279890001	0.0293300003	-1.11849999	184	191	70
0.279890001	0.0315439999	-1.11839998	184	191	70
0.279890001	0.0326620005	-1.11839998	184	191	70
0.281230003	0.0326149985	-1.11679995	184	191	70
0.283289999	0.0326230004	-1.1171	184	191	70
0.283289999	0.0315070003	-1.1171	184	191	70
0.282929987	0.0303789992	-1.11619997	184	191	70
0.279170007	0.03039	-1.11660004	184	191	70
0.277819991	0.0304329991	-1.11819994	184	191	70
0.275759995	0.0304249991	-1.11790001	184	191	70
0.276120007	0.0315550007	-1.11880004	184	191	70
0.274060011	0.0315460004	-1.11849999	184	191	70
0.272350013	0.032683	-1.11909997	184	191	70
0.272350013	0.0338159986	-1.11909997	184	191	70
0.272350013	0.0349429995	-1.11909997	184	191	70
0.270639986	0.0349630006	-1.11969995	184	191	70
0.268590003	0.0349529982	-1.11940002	184	191	70
0.267890006	0.0360120013	-1.11749995	184	191	70
0.26958999	0.0359920003	-1.11689997	184	191	70
0.269939989	0.033778999	-1.11790001	184	191	70
0.269239992	0.0325930007	-1.11600006	184	191	70
0.267540008	0.0326110013	-1.11670005	184	191	70
0.267540008	0.0337419994	-1.11660004	184	191	70
0.26583001	0.0337609984	-1.11730003	184	191	70
0.26583001	0.0348850004	-1.11720002	184	191	70
0.266180009	0.0360330008	-1.11810005	184	191	70
0.266530007	0.0371600017	-1.11899996	184	191	70
0.264129996	0.0349050015	-1.11790001	184	191	70
0.264129996	0.0337800011	-1.11790001	184	191	70
0.262080014	0.0337710008	-1.11759996	184	191	70
0.262080014	0.0326390006	-1.11759996	184	191	70
0.262769997	0.0315750018	-1.11950004	184	191	70
0.264820009	0.0327030011	-1.11979997	184	191	70
0.265170008	0.0316100009	-1.12080002	184	191	70
0.267580003	0.031645	-1.12199998	184	191	70
0.267919987	0.0305640008	-1.12300003	184	191	70
0.26929	0.0305209998	-1.1214	184	191	70
0.268940002	0.0316010006	-1.12049997	184	191	70
0.270289987	0.0315559991	-1.11889994	184	191	70
0.270289987	0.0304530002	-1.11889994	184	191	70
0.270289987	0.0293419994	-1.11889994	184	191	70
0.272000015	0.0293249991	-1.11829996	184	191	70
0.274060011	0.0293320008	-1.11860001	184	191	70
0.274769992	0.0282610003	-1.12049997	184	191	70
0.274410009	0.0271259993	-1.11960006	184	191	70
0.274410009	0.0260220002	-1.11960006	184	191	70
0.274769992	0.0249380004	-1.12059999	184	191	70
0.272700012	0.0249320008	-1.12030005	184	191	70
0.270639986	0.0249249991	-1.12	184	191	70
0.270639986	0.0238199998	-1.12	184	191	70
0.26929	0.0238540005	-1.12160003	184	191	70
0.269639999	0.0227780007	-1.12249994	184	191	70
0.269989997	0.0217129998	-1.12349999	184	191	70
0.271349996	0.021683	-1.12189996	184	191	70
0.271349996	0.0227649994	-1.12189996	184	191	70
0.273409992	0.0227710009	-1.12220001	184	191	70
0.273409992	0.0238659997	-1.12220001	184	191	70
0.273409992	0.0260799993	-1.1221	184	191	70
0.273059994	0.0271639992	-1.12119997	184	191	70
0.272700012	0.0282540005	-1.12020004	184	191	70
0.270999998	0.0282700006	-1.12080002	184	191	70
0.270999998	0.0271569993	-1.12090003	184	191	70
0.26929	0.0271729995	-1.12150002	184	191	70
0.268940002	0.0260450002	-1.12059999	184	191	70
0.268940002	0.0249390006	-1.12059999	184	191	70
0.267230004	0.0260600001	-1.12119997	184	191	70
0.266530007	0.0271199998	-1.11930001	184	191	70
0.266180009	0.0282080006	-1.11839998	184	191	70
0.266530007	0.0293499995	-1.11930001	184	191	70
0.268590003	0.0293579996	-1.11960006	184	191	70
0.268940002	0.0282630008	-1.12049997	184	191	70
0.271699995	0.0260949992	-1.12279999	184	191	70
0.268620014	0.025037	-1.125	184	191	70
0.266909987	0.0250509996	-1.12559998	184	191	70
0.26620999	0.0239010006	-1.12380004	184	191	70
0.267919987	0.0238869991	-1.12320006	184	191	70
0.267919987	0.0227910001	-1.12320006	184	191	70
0.268620014	0.0217439998	-1.12510002	184	191	70
0.266559988	0.0217380002	-1.12479997	184	191	70
0.264840007	0.0206489991	-1.12539995	184	191	70
0.264499992	0.0195080005	-1.12450004	184	191	70
0.264499992	0.0184690002	-1.12450004	184	191	70
0.264499992	0.0171339996	-1.12460005	184	191	70
0.263130009	0.0171579998	-1.12609994	184	191	70
0.263130009	0.0184950009	-1.12609994	184	191	70
0.263469994	0.0195509996	-1.12699997	184	191	70
0.261409998	0.0195460003	-1.12670004	184	191	70
0.261409998	0.0185049996	-1.12670004	184	191	70
0.261059999	0.0171530005	-1.12580001	184	191	70
0.261059999	0.0159900002	-1.12580001	184	191	70
0.261409998	0.0148919998	-1.12679994	184	191	70
0.261409998	0.0137999998	-1.12679994	184	191	70
0.261409998	0.0127269998	-1.12679994	184	191	70
0.261409998	0.0104820002	-1.12679994	184	191	70
0.261750013	0.00918749999	-1.12779999	184	191	70
0.261409998	0.00707169995	-1.12689996	184	191	70
0.262089998	0.00593229989	-1.12870002	184	191	70
0.260710001	0.00594050018	-1.13030005	184	191	70
0.261049986	0.00819739979	-1.13119996	184	191	70
0.260710001	0.00920789968	-1.13030005	184	191	70
0.258639991	0.00920530036	-1.13	184	191	70
0.256579995	0.00920270011	-1.12960005	184	191	70
0.256249994	0.00817919988	-1.12870002	184	191	70
0.254519999	0.00818360038	-1.1293	184	191	70
0.252799988	0.0081880996	-1.12989998	184	191	70
0.252799988	0.00709100021	-1.12989998	184	191	70
0.251069993	0.0081925001	-1.13049996	184	191	70
0.249019995	0.00819000043	-1.13020003	184	191	70
0.24729	0.00709650014	-1.13080001	184	191	70
0.246959999	0.00593829993	-1.12989998	184	191	70
0.245240003	0.00594139984	-1.13049996	184	191	70
0.245240003	0.00495570013	-1.13049996	184	191	70
0.243190005	0.00495419977	-1.13010001	184	191	70
0.242860004	0.00593459979	-1.12919998	184	191	70
0.242540002	0.00708029978	-1.12820005	184	191	70
0.242210001	0.0081687998	-1.12730002	184	191	70
0.243929997	0.00816449989	-1.12670004	184	191	70
0.244589999	0.00919390004	-1.1286	184	191	70
0.246309996	0.00918900035	-1.12800002	184	191	70
0.246309996	0.00817389973	-1.12800002	184	191	70
0.248030007	0.00707500009	-1.12740004	184	191	70
0.250079989	0.00707710022	-1.12769997	184	191	70
0.250079989	0.00918690022	-1.12769997	184	191	70
0.250079989	0.0104900002	-1.12769997	184	191	70
0.250079989	0.0117229996	-1.12769997	184	191	70
0.248359993	0.0117290001	-1.12829995	184	191	70
0.248359993	0.0104959998	-1.12829995	184	191	70
0.248359993	0.00919179991	-1.12829995	184	191	70
0.246639997	0.0105020003	-1.12890005	184	191	70
0.245240003	0.010516	-1.13039994	184	191	70
0.242860004	0.0105039999	-1.12919998	184	191	70
0.242860004	0.00919879973	-1.12919998	184	191	70
0.241139993	0.00818680041	-1.12979996	184	191	70
0.240490004	0.00918820035	-1.1279	184	191	70
0.240490004	0.0104919998	-1.1279	184	191	70
0.240490004	0.0117250001	-1.12779999	184	191	70
0.242210001	0.0117189996	-1.12720001	184	191	70
0.241889998	0.0127210002	-1.12629998	184	191	70
0.243279994	0.0127039999	-1.12479997	184	191	70
0.244990006	0.0126970001	-1.12419999	184	191	70
0.246700004	0.0126909995	-1.12360001	184	191	70
0.247040004	0.0137719996	-1.12450004	184	191	70
0.245649993	0.0137909995	-1.12600005	184	191	70
0.246309996	0.0149069997	-1.1279	184	191	70
0.244589999	0.0149149997	-1.12849998	184	191	70
0.244910002	0.0138330003	-1.12950003	184	191	70
0.242860004	0.0149229998	-1.12909997	184	191	70
0.242860004	0.0160360001	-1.12909997	184	191	70
0.242540002	0.0171879996	-1.12810004	184	191	70
0.242210001	0.0185119994	-1.12720001	184	191	70
0.240170002	0.0185070001	-1.12679994	184	191	70
0.238450006	0.0171780009	-1.12740004	184	191	70
0.238450006	0.0160130002	-1.12740004	184	191	70
0.238450006	0.0149010001	-1.12740004	184	191	70
0.240820006	0.0149180004	-1.12870002	184	191	70
0.242540002	0.0138170002	-1.12820005	184	191	70
0.243929997	0.0117119998	-1.12670004	184	191	70
0.245979995	0.0117159998	-1.12699997	184	191	70
0.249410003	0.012716	-1.12580001	184	191	70
0.249410003	0.0137870004	-1.12580001	184	191	70
0.249750003	0.0148910005	-1.12670004	184	191	70
0.251459986	0.0159939993	-1.12609994	184	191	70
0.251800001	0.0171709992	-1.12699997	184	191	70
0.251459986	0.0184940007	-1.12600005	184	191	70
0.251800001	0.0195499994	-1.12699997	184	191	70
0.253520012	0.0195400007	-1.12639999	184	191	70
0.253179997	0.0184840001	-1.12539995	184	191	70
0.253179997	0.0171479993	-1.12549996	184	191	70
0.252849996	0.0159719996	-1.12450004	184	191	70
0.254900008	0.0171380006	-1.12479997	184	191	70
0.25523001	0.0184899997	-1.12580001	184	191	70
0.25523001	0.0195289999	-1.1257	184	191	70
0.25523001	0.0206540003	-1.1257	184	191	70
0.256949991	0.0206429996	-1.12510002	184	191	70
0.256949991	0.0217439998	-1.12510002	184	191	70
0.256269991	0.0227910001	-1.12320006	184	191	70
0.257649988	0.0238540005	-1.12160003	184	191	70
0.257649988	0.0249610003	-1.12160003	184	191	70
0.257310003	0.0260450002	-1.12059999	184	191	70
0.259350002	0.0260530002	-1.12090003	184	191	70
0.259009987	0.0271359999	-1.12	184	191	70
0.259350002	0.0282710008	-1.12090003	184	191	70
0.261059999	0.0282559991	-1.12030005	184	191	70
0.260720015	0.027121	-1.11930001	184	191	70
0.261059999	0.0260380004	-1.12030005	184	191	70
0.261059999	0.0249329992	-1.12030005	184	191	70
0.261059999	0.0238279998	-1.12039995	184	191	70
0.259350002	0.0238409992	-1.12100005	184	191	70
0.2597	0.0249680001	-1.12189996	184	191	70
0.263119996	0.0260450002	-1.12059999	184	191	70
0.264820009	0.0260310005	-1.12	184	191	70
0.264129996	0.02709	-1.11810005	184	191	70
0.263779998	0.0281770006	-1.1171	184	191	70
0.263440013	0.0292690005	-1.11619997	184	191	70
0.263779998	0.0304029994	-1.1171	184	191	70
0.262080014	0.0293099992	-1.11769998	184	191	70
0.262430012	0.0282160006	-1.11870003	184	191	70
0.262430012	0.0271049999	-1.11870003	184	191	70
0.26038	0.0293259993	-1.11839998	184	191	70
0.258670002	0.0293419994	-1.11899996	184	191	70
0.258329988	0.0304279998	-1.11800003	184	191	70
0.25661999	0.0304450002	-1.11860001	184	191	70
0.25661999	0.0315480009	-1.11860001	184	191	70
0.254920006	0.0315660015	-1.11919999	184	191	70
0.252869993	0.0315559991	-1.11889994	184	191	70
0.250829995	0.0315469988	-1.11849999	184	191	70
0.248789996	0.0304339994	-1.11819994	184	191	70
0.249129996	0.0293489993	-1.11919999	184	191	70
0.249459997	0.0282540005	-1.12020004	184	191	70
0.249129996	0.0271189995	-1.11930001	184	191	70
0.249459997	0.0260359999	-1.12020004	184	191	70
0.251170009	0.0260220002	-1.11960006	184	191	70
0.253210008	0.0260300003	-1.12	184	191	70
0.255259991	0.0260380004	-1.12030005	184	191	70
0.255600005	0.0249530002	-1.12129998	184	191	70
0.255259991	0.0238269996	-1.12030005	184	191	70
0.253210008	0.0238199998	-1.12	184	191	70
0.252869993	0.0227080006	-1.11909997	184	191	70
0.253549993	0.0216649994	-1.12100005	184	191	70
0.25150001	0.0216589998	-1.1207	184	191	70
0.249799997	0.0238460004	-1.12119997	184	191	70
0.250459999	0.0249940008	-1.12310004	184	191	70
0.248750001	0.0250080004	-1.12370002	184	191	70
0.248750001	0.0238990001	-1.12370002	184	191	70
0.249080002	0.0228220001	-1.12469995	184	191	70
0.249080002	0.021737	-1.12469995	184	191	70
0.249080002	0.0206359997	-1.12469995	184	191	70
0.249080002	0.0195119996	-1.12469995	184	191	70
0.248750001	0.0184579995	-1.12380004	184	191	70
0.249080002	0.0159760006	-1.12479997	184	191	70
0.247040004	0.0159709994	-1.12450004	184	191	70
0.245320007	0.0159789994	-1.12510002	184	191	70
0.243929997	0.0160009991	-1.12660003	184	191	70
0.243599996	0.017151	-1.12559998	184	191	70
0.242950007	0.0184560008	-1.12370002	184	191	70
0.242950007	0.0194940008	-1.12370002	184	191	70
0.244660005	0.0194840003	-1.12310004	184	191	70
0.244660005	0.0184460003	-1.12310004	184	191	70
0.244660005	0.0171130002	-1.12320006	184	191	70
0.246040002	0.017089	-1.12160003	184	191	70
0.246040002	0.0184209999	-1.12160003	184	191	70
0.246370003	0.0194729995	-1.12249994	184	191	70
0.246700004	0.0206119996	-1.12339997	184	191	70
0.247040004	0.0217300002	-1.12440002	184	191	70
0.246370003	0.0227770004	-1.12249994	184	191	70
0.246370003	0.0238719992	-1.12240005	184	191	70
0.246700004	0.0250000004	-1.12339997	184	191	70
0.244660005	0.0238840003	-1.12300003	184	191	70
0.244330004	0.0249710009	-1.1221	184	191	70
0.244000003	0.0227499995	-1.12119997	184	191	70
0.244330004	0.0216869991	-1.1221	184	191	70
0.244330004	0.0205889996	-1.12220001	184	191	70
0.241559997	0.0195209999	-1.12530005	184	191	70
0.240820006	0.0171969999	-1.12870002	184	191	70
0.241789997	0.0160719994	-1.13160002	184	191	70
0.237049997	0.0117370002	-1.12899995	184	191	70
0.236410007	0.0127309998	-1.12709999	184	191	70
0.236090004	0.0104759997	-1.12619996	184	191	70
0.235770002	0.00916680042	-1.12520003	184	191	70
0.23545	0.00814719964	-1.1243	184	191	70
0.236090004	0.0070675998	-1.12619996	184	191	70
0.239840001	0.00706620002	-1.12600005	184	191	70
0.240820006	0.00593280001	-1.12880003	184	191	70
0.241139993	0.00495269988	-1.12979996	184	191	70
0.242860004	0.00376200001	-1.12919998	184	191	70
0.240490004	0.00375770009	-1.1279	184	191	70
0.241139993	0.000346320012	-1.12979996	184	191	70
0.239419997	0.00034649999	-1.13039994	184	191	70
0.239739999	0.00147190003	-1.13129997	184	191	70
0.240060002	0.00249160011	-1.13230002	184	191	70
0.241789997	0.00249029999	-1.13170004	184	191	70
0.242109999	0.00147360004	-1.13259995	184	191	70
0.244169995	0.00249319989	-1.13300002	184	191	70
0.244489998	0.00147530006	-1.13390005	184	191	70
0.246549994	0.00147569994	-1.13429999	184	191	70
0.246549994	0.00249599991	-1.13429999	184	191	70
0.248610005	0.00249679992	-1.13460004	184	191	70
0.248280004	0.00147490005	-1.13370001	184	191	70
0.247950003	0.00034721999	-1.13269997	184	191	70
0.249349996	0.00147170003	-1.13119996	184	191	70
0.249019995	0.00034644999	-1.13020003	184	191	70
0.251069993	0.000346560002	-1.13059998	184	191	70
0.251740009	0.00147340004	-1.13250005	184	191	70
0.251410007	0.0024900001	-1.13150001	184	191	70
0.251069993	0.00376660004	-1.13059998	184	191	70
0.251069993	0.00495610014	-1.13059998	184	191	70
0.250739992	0.00593690015	-1.12960005	184	191	70
0.252130002	0.00592879998	-1.12810004	184	191	70
0.252469987	0.00494930008	-1.12899995	184	191	70
0.252469987	0.0037614	-1.12899995	184	191	70
0.254189998	0.00375939999	-1.12839997	184	191	70
0.254519999	0.00495069986	-1.1293	184	191	70
0.255190015	0.00594530022	-1.13119996	184	191	70
0.256579995	0.00376360002	-1.12969995	184	191	70
0.254860014	0.00248729996	-1.13030005	184	191	70
0.253129989	0.00248860009	-1.13090003	184	191	70
0.253800005	0.00147380005	-1.13279998	184	191	70
0.254130006	0.000347530004	-1.13370001	184	191	70
0.256199986	0.000347630004	-1.13409996	184	191	70
0.255860001	0.00147420005	-1.13310003	184	191	70
0.257259995	0.00147220003	-1.13160002	184	191	70
0.257259995	0.00249009999	-1.13160002	184	191	70
0.259660006	0.00147380005	-1.13279998	184	191	70
0.259660006	0.000347249996	-1.13279998	184	191	70
0.257930011	0.000347439985	-1.13339996	184	191	70
0.25999999	0.00249490002	-1.13380003	184	191	70
0.260340005	0.00378039991	-1.13469994	184	191	70
0.26067999	0.00497830007	-1.13559997	184	191	70
0.260340005	0.00596359977	-1.13469994	184	191	70
0.26207	0.00497150002	-1.13409996	184	191	70
0.26207	0.00377830002	-1.13409996	184	191	70
0.263799995	0.00377620012	-1.13349998	184	191	70
0.263799995	0.0049687	-1.13339996	184	191	70
0.265190005	0.00496179983	-1.13189995	184	191	70
0.264840007	0.00594379986	-1.13090003	184	191	70
0.264840007	0.00709720002	-1.13090003	184	191	70
0.264499992	0.00818829983	-1.13	184	191	70
0.264499992	0.00920530036	-1.13	184	191	70
0.262769997	0.00819289964	-1.13059998	184	191	70
0.263810009	0.0104940003	-1.12810004	184	191	70
0.265190005	0.0104790004	-1.12650001	184	191	70
0.267250001	0.0117140003	-1.12679994	184	191	70
0.266909987	0.012716	-1.12590003	184	191	70
0.268620014	0.0127090001	-1.12520003	184	191	70
0.268970013	0.0104759997	-1.12619996	184	191	70
0.26967001	0.0117269997	-1.12800002	184	191	70
0.26967001	0.0138149997	-1.12800002	184	191	70
0.26967001	0.0149079999	-1.12800002	184	191	70
0.26967001	0.0160210002	-1.12800002	184	191	70
0.269320011	0.0171719994	-1.12699997	184	191	70
0.269320011	0.0185100008	-1.12699997	184	191	70
0.271389991	0.0185150001	-1.12730002	184	191	70
0.271389991	0.0171760004	-1.12730002	184	191	70
0.273110002	0.0171659999	-1.12670004	184	191	70
0.272760004	0.015989	-1.12580001	184	191	70
0.274830014	0.0159929991	-1.12609994	184	191	70
0.274830014	0.0171569996	-1.12600005	184	191	70
0.276540011	0.0171470009	-1.12539995	184	191	70
0.276899993	0.015997	-1.12629998	184	191	70
0.276899993	0.0148860002	-1.12639999	184	191	70
0.276540011	0.0137830004	-1.12539995	184	191	70
0.276899993	0.0127219995	-1.12639999	184	191	70
0.27553001	0.0127400002	-1.12800002	184	191	70
0.273809999	0.0127480002	-1.1286	184	191	70
0.27173999	0.0127440002	-1.12829995	184	191	70
0.271389991	0.0138069997	-1.12740004	184	191	70
0.273110002	0.0137989996	-1.12670004	184	191	70
0.273460001	0.0149029996	-1.12769997	184	191	70
0.275180012	0.0148949996	-1.12699997	184	191	70
0.274470001	0.0137799997	-1.12510002	184	191	70
0.27790001	0.0148529997	-1.12380004	184	191	70
0.278609991	0.017151	-1.1257	184	191	70
0.278970003	0.0160009991	-1.12660003	184	191	70
0.281049997	0.0160050001	-1.12689996	184	191	70
0.281049997	0.0148940003	-1.12689996	184	191	70
0.28312999	0.014897	-1.12720001	184	191	70
0.282409996	0.0159830004	-1.12530005	184	191	70
0.282770008	0.017159	-1.12619996	184	191	70
0.282409996	0.0184809994	-1.12530005	184	191	70
0.284480006	0.0184860006	-1.12549996	184	191	70
0.284480006	0.0195250008	-1.12549996	184	191	70
0.285840005	0.0184589997	-1.12390006	184	191	70
0.285109997	0.0194649994	-1.1221	184	191	70
0.285470009	0.0206039995	-1.12300003	184	191	70
0.283399999	0.0205990002	-1.12269998	184	191	70
0.283760011	0.0217160005	-1.12360001	184	191	70
0.281690001	0.0217099991	-1.12329996	184	191	70
0.280330002	0.0217409991	-1.12489998	184	191	70
0.280690014	0.022845	-1.12580001	184	191	70
0.278970003	0.0228589997	-1.12650001	184	191	70
0.278970003	0.0239579994	-1.12650001	184	191	70
0.278609991	0.0217540003	-1.12559998	184	191	70
0.279610008	0.020606	-1.12310004	184	191	70
0.277539998	0.0206010006	-1.12279999	184	191	70
0.275830001	0.0206129998	-1.12349999	184	191	70
0.275830001	0.0217119996	-1.12339997	184	191	70
0.275830001	0.0227959994	-1.12339997	184	191	70
0.276190013	0.0239119995	-1.1243	184	191	70
0.277539998	0.0249860007	-1.12269998	184	191	70
0.279610008	0.0249920003	-1.12300003	184	191	70
0.27996999	0.0239039995	-1.12399995	184	191	70
0.281690001	0.0238899998	-1.12329996	184	191	70
0.282050014	0.0250189994	-1.12419999	184	191	70
0.283760011	0.0250039995	-1.12349999	184	191	70
0.285840005	0.0250100009	-1.12380004	184	191	70
0.285109997	0.0238620006	-1.12199998	184	191	70
0.285109997	0.0227669999	-1.12199998	184	191	70
0.282680005	0.0238359999	-1.12080002	184	191	70
0.281949997	0.0227049999	-1.11889994	184	191	70
0.280609995	0.0227370001	-1.12049997	184	191	70
0.276829988	0.0260499995	-1.12080002	184	191	70
0.276120007	0.0271099992	-1.11889994	184	191	70
0.276470006	0.0282450002	-1.11979997	184	191	70
0.276470006	0.0293639991	-1.11979997	184	191	70
0.278899997	0.0293959994	-1.12100005	184	191	70
0.278539985	0.0315890014	-1.12	184	191	70
0.278539985	0.0327080004	-1.12	184	191	70
0.27719	0.0327549987	-1.12160003	184	191	70
0.274769992	0.0327190012	-1.12039995	184	191	70
0.27335	0.0337399989	-1.11660004	184	191	70
0.275050014	0.03596	-1.11590004	184	191	70
0.275050014	0.0381250009	-1.11580002	184	191	70
0.276749998	0.0381029993	-1.11520004	184	191	70
0.27711001	0.0370629989	-1.11609995	184	191	70
0.278450012	0.0370099992	-1.11450005	184	191	70
0.280140013	0.0369880013	-1.11389995	184	191	70
0.280510008	0.0380900018	-1.11479998	184	191	70
0.281230003	0.0392699987	-1.11660004	184	191	70
0.281590015	0.0360170007	-1.11759996	184	191	70
0.281230003	0.0348699987	-1.11670005	184	191	70
0.279890001	0.0349199995	-1.11829996	184	191	70
0.279890001	0.0360380001	-1.11829996	184	191	70
0.278539985	0.0360889994	-1.11989999	184	191	70
0.277460009	0.0348820016	-1.1171	184	191	70
0.275759995	0.0371159986	-1.11769998	184	191	70
0.273699999	0.0371059999	-1.11740005	184	191	70
0.274060011	0.0382109992	-1.11829996	184	191	70
0.278450012	0.0391950011	-1.11450005	184	191	70
0.268530011	0.0391770005	-1.11399996	184	191	70
0.268530011	0.0380630009	-1.11399996	184	191	70
0.268530011	0.0369930007	-1.11399996	184	191	70
0.266840011	0.0370149985	-1.11469996	184	191	70
0.266490012	0.0380529985	-1.11370003	184	191	70
0.264789999	0.038075	-1.11430001	184	191	70
0.263090014	0.0370250009	-1.11500001	184	191	70
0.263090014	0.0359320007	-1.11500001	184	191	70
0.261390001	0.0359530002	-1.11570001	184	191	70
0.261040002	0.0370149985	-1.11469996	184	191	70
0.261390001	0.0381180011	-1.11559999	184	191	70
0.261729985	0.0392660014	-1.11650002	184	191	70
0.263779998	0.03816	-1.11679995	184	191	70
0.262430012	0.0349249989	-1.11849999	184	191	70
0.26038	0.0349150002	-1.11819994	184	191	70
0.260030001	0.0337609984	-1.11730003	184	191	70
0.258329988	0.0337800011	-1.11790001	184	191	70
0.258329988	0.0349050015	-1.11790001	184	191	70
0.257640004	0.0359620005	-1.11600006	184	191	70
0.25593999	0.0359820016	-1.11660004	184	191	70
0.25593999	0.0337419994	-1.11660004	184	191	70
0.25593999	0.0326110013	-1.11670005	184	191	70
0.254240006	0.0326289982	-1.11730003	184	191	70
0.254240006	0.0304099992	-1.11740005	184	191	70
0.252200007	0.0292920005	-1.1171	184	191	70
0.251859993	0.0281520002	-1.11609995	184	191	70
0.251859993	0.0270440001	-1.11619997	184	191	70
0.250160009	0.0270579997	-1.11679995	184	191	70
0.250160009	0.028167	-1.11679995	184	191	70
0.250160009	0.0292830002	-1.11670005	184	191	70
0.249829993	0.030367	-1.11580002	184	191	70
0.251529992	0.0303499997	-1.11510003	184	191	70
0.253230006	0.0292269997	-1.11459994	184	191	70
0.253560007	0.0281370003	-1.11549997	184	191	70
0.253560007	0.0270290002	-1.11559999	184	191	70
0.255600005	0.0292600002	-1.11580002	184	191	70
0.256280005	0.0281920005	-1.11769998	184	191	70
0.256280005	0.0270819999	-1.1178	184	191	70
0.257640004	0.0314779989	-1.11609995	184	191	70
0.257299989	0.0325659998	-1.11510003	184	191	70
0.258659989	0.0325209983	-1.11360002	184	191	70
0.259350002	0.0314599983	-1.11549997	184	191	70
0.259000003	0.0303339995	-1.11459994	184	191	70
0.260699987	0.0303179994	-1.11389995	184	191	70
0.259689987	0.0359730013	-1.11629999	184	191	70
0.258659989	0.0380429998	-1.11339998	184	191	70
0.258659989	0.0391560011	-1.11339998	184	191	70
0.25661999	0.038031999	-1.11310005	184	191	70
0.256960005	0.036993999	-1.11399996	184	191	70
0.25830999	0.0369420014	-1.11249995	184	191	70
0.256280005	0.0391109996	-1.11210001	184	191	70
0.254579991	0.0380209982	-1.11269999	184	191	70
0.254920006	0.0369829983	-1.11370003	184	191	70
0.253230006	0.0380740017	-1.11430001	184	191	70
0.253230006	0.0359110013	-1.11440003	184	191	70
0.253230006	0.0347970016	-1.11440003	184	191	70
0.253560007	0.0337040015	-1.11539996	184	191	70
0.255259991	0.0348070003	-1.11469996	184	191	70
0.253899992	0.0370660014	-1.11619997	184	191	70
0.252550006	0.0391209982	-1.11240005	184	191	70
0.253560007	0.0390340015	-1.1099	184	191	70
0.244760007	0.0379949994	-1.11199999	184	191	70
0.243399993	0.0380479991	-1.1135	184	191	70
0.243399993	0.0369779989	-1.11360002	184	191	70
0.243399993	0.0358869992	-1.11360002	184	191	70
0.244760007	0.0358369984	-1.11210001	184	191	70
0.243770003	0.0368329994	-1.1092	184	191	70
0.243729994	0.0336810015	-1.11459994	184	191	70
0.244059995	0.0348320007	-1.11549997	184	191	70
0.242359996	0.0348509997	-1.11609995	184	191	70
0.242359996	0.0359669998	-1.11609995	184	191	70
0.242359996	0.0370609984	-1.11609995	184	191	70
0.240989998	0.0360159986	-1.11759996	184	191	70
0.24131	0.0371429995	-1.11849999	184	191	70
0.239610001	0.0371630006	-1.11909997	184	191	70
0.237580001	0.0371510014	-1.11880004	184	191	70
0.238959998	0.0360050015	-1.11730003	184	191	70
0.240329996	0.0348399989	-1.11580002	184	191	70
0.239999995	0.0336880013	-1.11489999	184	191	70
0.241699994	0.0336700007	-1.11430001	184	191	70
0.240659997	0.0326149985	-1.11679995	184	191	70
0.242689997	0.0326250009	-1.1171	184	191	70
0.243349999	0.0315620005	-1.11909997	184	191	70
0.241640002	0.0315780006	-1.11969995	184	191	70
0.240989998	0.0304220002	-1.1178	184	191	70
0.24131	0.0293370001	-1.11880004	184	191	70
0.241970003	0.0282669999	-1.1207	184	191	70
0.240909994	0.0283289999	-1.12320006	184	191	70
0.238869995	0.0283199996	-1.12279999	184	191	70
0.236509994	0.0260669999	-1.12160003	184	191	70
0.235870004	0.0271279998	-1.11960006	184	191	70
0.235870004	0.0282390006	-1.11960006	184	191	70
0.233840004	0.0293489993	-1.11919999	184	191	70
0.232140005	0.0293639991	-1.11979997	184	191	70
0.233840004	0.0349420011	-1.11909997	184	191	70
0.238629997	0.0337349996	-1.1164	184	191	70
0.238309994	0.0325770006	-1.11549997	184	191	70
0.237979993	0.0347989984	-1.11450005	184	191	70
0.23928	0.0315419994	-1.11839998	184	191	70
0.240989998	0.0270850006	-1.11790001	184	191	70
0.240659997	0.0259600002	-1.11699998	184	191	70
0.248129994	0.0314840004	-1.11629999	184	191	70
0.246759996	0.0337769985	-1.1178	184	191	70
0.246419996	0.0348719992	-1.11679995	184	191	70
0.250499994	0.0237729996	-1.1178	184	191	70
0.252169997	0.0249809995	-1.12249994	184	191	70
0.253890008	0.0249669999	-1.12189996	184	191	70
0.252510011	0.0227969997	-1.12349999	184	191	70
0.251130015	0.0228289999	-1.125	184	191	70
0.250800014	0.0217250008	-1.12409997	184	191	70
0.250459999	0.0206080005	-1.12320006	184	191	70
0.252849996	0.0206310004	-1.12450004	184	191	70
0.256610006	0.0195020009	-1.12419999	184	191	70
0.258329988	0.020614	-1.12360001	184	191	70
0.260039985	0.0206029993	-1.12290001	184	191	70
0.262089998	0.0217080005	-1.12320006	184	191	70
0.264149994	0.021714	-1.12349999	184	191	70
0.264149994	0.0227979999	-1.12349999	184	191	70
0.263810009	0.0238739997	-1.12259996	184	191	70
0.263810009	0.0249819998	-1.12249994	184	191	70
0.265520006	0.0227659997	-1.12189996	184	191	70
0.265859991	0.0206029993	-1.12290001	184	191	70
0.265520006	0.0194639992	-1.12199998	184	191	70
0.267230004	0.0194530003	-1.1214	184	191	70
0.266880006	0.0205569994	-1.12039995	184	191	70
0.268940002	0.0205620006	-1.1207	184	191	70
0.273059994	0.0216710009	-1.12129998	184	191	70
0.274769992	0.0194409993	-1.1207	184	191	70
0.276829988	0.0194460005	-1.12100005	184	191	70
0.275830001	0.0184519999	-1.12349999	184	191	70
0.273770005	0.0184480008	-1.12320006	184	191	70
0.274120003	0.0195010006	-1.12409997	184	191	70
0.274120003	0.0206250008	-1.12409997	184	191	70
0.272049993	0.0206189994	-1.12380004	184	191	70
0.270689994	0.0195230003	-1.12539995	184	191	70
0.272399992	0.0184739996	-1.12479997	184	191	70
0.273110002	0.019545	-1.12660003	184	191	70
0.270689994	0.0159850009	-1.12549996	184	191	70
0.270689994	0.0148750003	-1.12549996	184	191	70
0.266909987	0.0148790004	-1.12580001	184	191	70
0.264840007	0.0148750003	-1.12549996	184	191	70
0.265190005	0.0137959998	-1.12650001	184	191	70
0.263469994	0.0138039999	-1.12709999	184	191	70
0.263810009	0.0127410004	-1.12810004	184	191	70
0.262089998	0.0117340004	-1.12870002	184	191	70
0.259350002	0.0117110005	-1.12650001	184	191	70
0.257290006	0.0117079997	-1.12619996	184	191	70
0.257290006	0.0104759997	-1.12619996	184	191	70
0.255569994	0.0104820002	-1.12679994	184	191	70
0.25523001	0.0117039997	-1.12590003	184	191	70
0.255569994	0.0127269998	-1.12679994	184	191	70
0.255910009	0.0138109997	-1.12769997	184	191	70
0.256249994	0.0149170002	-1.1286	184	191	70
0.257970005	0.0149079999	-1.12800002	184	191	70
0.257629991	0.0160080008	-1.12709999	184	191	70
0.259350002	0.0159990005	-1.12639999	184	191	70
0.259009987	0.0171479993	-1.12549996	184	191	70
0.259350002	0.0185000002	-1.12639999	184	191	70
0.259009987	0.0195240006	-1.12549996	184	191	70
0.257290006	0.0184950009	-1.12609994	184	191	70
0.256610006	0.0171290003	-1.12419999	184	191	70
0.255569994	0.0160029996	-1.12670004	184	191	70
0.253850013	0.0148999998	-1.12740004	184	191	70
0.252130002	0.0149079999	-1.12800002	184	191	70
0.252799988	0.0138379997	-1.12989998	184	191	70
0.255190015	0.0138529995	-1.13119996	184	191	70
0.254189998	0.0117300004	-1.12839997	184	191	70
0.253850013	0.0127339996	-1.12740004	184	191	70
0.251800001	0.0127299996	-1.12709999	184	191	70
0.252130002	0.0117269997	-1.12800002	184	191	70
0.251800001	0.010485	-1.12709999	184	191	70
0.251800001	0.0091819996	-1.12709999	184	191	70
0.253850013	0.00918470044	-1.12740004	184	191	70
0.254519999	0.0105050001	-1.1293	184	191	70
0.257629991	0.0127309998	-1.12709999	184	191	70
0.256949991	0.0137809999	-1.12520003	184	191	70
0.259009987	0.0137839997	-1.12549996	184	191	70
0.258670002	0.0127020003	-1.12460005	184	191	70
0.258329988	0.0104529997	-1.12370002	184	191	70
0.259009987	0.0070638	-1.12559998	184	191	70
0.25830999	0.00708540017	-1.12899995	184	191	70
0.259319991	0.00820199959	-1.13189995	184	191	70
0.258269995	0.00596190011	-1.13440001	184	191	70
0.257930011	0.0049687	-1.13339996	184	191	70
0.25861001	0.00712470012	-1.13530004	184	191	70
0.25654	0.0071227001	-1.13499999	184	191	70
0.261390001	0.0024915	-1.1322	184	191	70
0.261390001	0.00147300004	-1.1322	184	191	70
0.261390001	0.000347060006	-1.1322	184	191	70
0.26346001	0.000347149995	-1.13250005	184	191	70
0.263799995	0.00147470005	-1.13349998	184	191	70
0.263799995	0.0024941999	-1.13349998	184	191	70
0.26552999	0.00249290001	-1.13279998	184	191	70
0.26552999	0.00147380005	-1.13279998	184	191	70
0.26552999	0.000347249996	-1.13279998	184	191	70
0.2676	0.000347340014	-1.13310003	184	191	70
0.267259985	0.00147300004	-1.1322	184	191	70
0.2676	0.00249350001	-1.13310003	184	191	70
0.267949998	0.0037781999	-1.13409996	184	191	70
0.268299997	0.00497550005	-1.13499999	184	191	70
0.2676	0.00595529983	-1.13310003	184	191	70
0.269679993	0.00595680019	-1.13339996	184	191	70
0.272109985	0.00497400016	-1.13469994	184	191	70
0.272109985	0.00378019991	-1.13469994	184	191	70
0.270370007	0.00378239993	-1.13530004	184	191	70
0.271070004	0.00498500001	-1.1372	184	191	70
0.273490012	0.00377500011	-1.13310003	184	191	70
0.273140013	0.00249140011	-1.13209999	184	191	70
0.27384001	0.00147539994	-1.13399994	184	191	70
0.275570005	0.00147450005	-1.13339996	184	191	70
0.275570005	0.0024939999	-1.13339996	184	191	70
0.275570005	0.0037759	-1.13339996	184	191	70
0.277649999	0.0037769	-1.1336	184	191	70
0.2773	0.00249259989	-1.13269997	184	191	70
0.2773	0.00147370005	-1.13269997	184	191	70
0.277649999	0.000347499998	-1.13370001	184	191	70
0.276270002	0.00034798999	-1.13520002	184	191	70
0.274540007	0.000348189991	-1.13590002	184	191	70
0.271759987	0.000347519992	-1.13370001	184	191	70
