-0.643570006	0.0344309993	-1.03690004	157	239	230
-0.641480029	0.0344339982	-1.03699994	157	239	230
-0.640959978	0.0333900005	-1.03610003	157	239	230
-0.63993001	0.0322999991	-1.0345	157	239	230
-0.63993001	0.0312590003	-1.0345	157	239	230
-0.638369977	0.0323299989	-1.03540003	157	239	230
-0.638369977	0.033365	-1.03540003	157	239	230
-0.638880014	0.0344090015	-1.03620005	157	239	230
-0.637839973	0.0344679989	-1.03799999	157	239	230
-0.63835001	0.0354950018	-1.0388	157	239	230
-0.640439987	0.0354919992	-1.03869998	157	239	230
-0.643040001	0.0355169997	-1.0395	157	239	230
-0.644079983	0.0366160013	-1.04120004	157	239	230
-0.644079983	0.0376980007	-1.04110003	157	239	230
-0.642509997	0.0377320014	-1.04209995	157	239	230
-0.642509997	0.0366499983	-1.04209995	157	239	230
-0.640940011	0.0366830006	-1.0431	157	239	230
-0.639360011	0.038865	-1.04390001	157	239	230
-0.640910029	0.0400060005	-1.04649997	157	239	230
-0.640910029	0.0410390012	-1.04639995	157	239	230
-0.643000007	0.0410350002	-1.04630005	157	239	230
-0.642490029	0.0399699993	-1.04550004	157	239	230
-0.642490029	0.0389249995	-1.04550004	157	239	230
-0.643029988	0.0388259999	-1.04289997	157	239	230
-0.646160007	0.0388859995	-1.04449999	157	239	230
-0.648259997	0.0388819985	-1.04439998	157	239	230
-0.648259997	0.0376899987	-1.04089999	157	239	230
-0.648259997	0.0366090015	-1.04089999	157	239	230
-0.64617002	0.0376939997	-1.04100001	157	239	230
-0.645650029	0.0365829989	-1.0402	157	239	230
-0.64617002	0.0313570015	-1.03770006	157	239	230
-0.647740006	0.0313280001	-1.03670001	157	239	230
-0.647210002	0.0323439986	-1.0359	157	239	230
-0.647210002	0.0302530006	-1.0359	157	239	230
-0.648249984	0.029166	-1.03410006	157	239	230
-0.647719979	0.0281230006	-1.03330004	157	239	230
-0.649280012	0.028097	-1.03240001	157	239	230
-0.646160007	0.0281489994	-1.03429997	157	239	230
-0.645640016	0.0291460007	-1.03340006	157	239	230
-0.644609988	0.029197	-1.0352	157	239	230
-0.644609988	0.0281750001	-1.0352	157	239	230
-0.645129979	0.0271700006	-1.03610003	157	239	230
-0.646690011	0.0271450002	-1.0352	157	239	230
-0.643050015	0.0282010008	-1.03620005	157	239	230
-0.643050015	0.0302590001	-1.03610003	157	239	230
-0.64252001	0.0312820002	-1.0352	157	239	230
-0.644079983	0.0302060004	-1.03429997	157	239	230
-0.645640016	0.0332980007	-1.03330004	157	239	230
-0.640959978	0.0302620009	-1.03620005	157	239	230
-0.638880014	0.0302649997	-1.03629994	157	239	230
-0.637849987	0.0291809998	-1.03460002	157	239	230
-0.637849987	0.0281600002	-1.03470004	157	239	230
-0.637849987	0.0260979999	-1.03470004	157	239	230
-0.637329996	0.0250499994	-1.03390002	157	239	230
-0.635770023	0.0250729993	-1.03480005	157	239	230
-0.636290014	0.0261220001	-1.03569996	157	239	230
-0.637319982	0.0272020008	-1.03740001	157	239	230
-0.638880014	0.0271770004	-1.03639996	157	239	230
-0.63993001	0.0271300003	-1.03460002	157	239	230
-0.63993001	0.0281569995	-1.03460002	157	239	230
-0.64200002	0.0271279998	-1.0345	157	239	230
-0.640439987	0.0250889994	-1.03550005	157	239	230
-0.638880014	0.0240899995	-1.03649998	157	239	230
-0.636810005	0.024092	-1.03659999	157	239	230
-0.63835001	0.0231260005	-1.03919995	157	239	230
-0.63835001	0.022101	-1.03919995	157	239	230
-0.638870001	0.0211050007	-1.04009998	157	239	230
-0.63835001	0.0200849995	-1.03919995	157	239	230
-0.638870001	0.0190830007	-1.04009998	157	239	230
-0.639919996	0.0231049992	-1.03820002	157	239	230
-0.64252001	0.029298	-1.0388	157	239	230
-0.644609988	0.0292959996	-1.03869998	157	239	230
-0.639919996	0.0313660018	-1.03799999	157	239	230
-0.636810005	0.0323590003	-1.03629994	157	239	230
-0.636810005	0.0333959982	-1.03629994	157	239	230
-0.635240018	0.0334260017	-1.03729999	157	239	230
-0.635240018	0.0344429985	-1.03719997	157	239	230
-0.635240018	0.0354389995	-1.03719997	157	239	230
-0.635240018	0.0364760011	-1.03719997	157	239	230
-0.636269987	0.0376150012	-1.0388	157	239	230
-0.639389992	0.0376739986	-1.04050004	157	239	230
-0.635240018	0.0323890001	-1.03729999	157	239	230
-0.634729981	0.0313189998	-1.03649998	157	239	230
-0.636290014	0.0312910005	-1.03550005	157	239	230
-0.635259986	0.0291590001	-1.03390002	157	239	230
-0.635259986	0.0281390008	-1.03390002	157	239	230
-0.634739995	0.0301670004	-1.03299999	157	239	230
-0.633180022	0.0301949997	-1.03390002	157	239	230
-0.638369977	0.0260310005	-1.03209996	157	239	230
-0.640439987	0.0260290001	-1.03199995	157	239	230
-0.645619988	0.041065	-1.04709995	157	239	230
-0.646139979	0.0421190001	-1.04789996	157	239	230
-0.646139979	0.0400639996	-1.04799998	157	239	230
-0.645590007	0.0422260016	-1.05060005	157	239	230
-0.646099985	0.0433119982	-1.05139995	157	239	230
-0.645030022	0.0444660001	-1.05309999	157	239	230
-0.645539999	0.0434219986	-1.05400002	157	239	230
-0.649249971	0.0433779992	-1.05299997	157	239	230
-0.651359975	0.0433729999	-1.05289996	157	239	230
-0.652949989	0.0422820002	-1.05190003	157	239	230
-0.655579984	0.0423110016	-1.05270004	157	239	230
-0.657169998	0.043322999	-1.0517	157	239	230
-0.659810007	0.0433529988	-1.05239999	157	239	230
-0.658739984	0.0445099995	-1.05420005	157	239	230
-0.658739984	0.0455840006	-1.05410004	157	239	230
-0.657670021	0.0445870012	-1.05599999	157	239	230
-0.658190012	0.0456999987	-1.05680001	157	239	230
-0.656589985	0.0457420014	-1.05780005	157	239	230
-0.655510008	0.0458209999	-1.0596	157	239	230
-0.65654999	0.0469690003	-1.06130004	157	239	230
-0.654940009	0.0470129997	-1.06219995	157	239	230
-0.654940009	0.0481019989	-1.06219995	157	239	230
-0.65546	0.0492440015	-1.06299996	157	239	230
-0.653850019	0.0492889993	-1.06400001	157	239	230
-0.653850019	0.0481849983	-1.06400001	157	239	230
-0.652239978	0.0504239984	-1.06490004	157	239	230
-0.65121001	0.0492549986	-1.0632	157	239	230
-0.650690019	0.0481120013	-1.06239998	157	239	230
-0.6523	0.046980001	-1.06149995	157	239	230
-0.649659991	0.0469469987	-1.06079996	157	239	230
-0.648119986	0.0457619987	-1.0582	157	239	230
-0.649720013	0.0457199998	-1.05729997	157	239	230
-0.651319981	0.0456780009	-1.05630004	157	239	230
-0.652909994	0.0445609987	-1.05540001	157	239	230
-0.655030012	0.0445559993	-1.0553	157	239	230
-0.655550003	0.043508999	-1.05620003	157	239	230
-0.657149971	0.0434690006	-1.05519998	157	239	230
-0.655550003	0.0478200018	-1.05599999	157	239	230
-0.654470026	0.0479030013	-1.05780005	157	239	230
-0.658710003	0.0478920005	-1.05760002	157	239	230
-0.659240007	0.0468450002	-1.05850005	157	239	230
-0.658159971	0.0469259992	-1.06029999	157	239	230
-0.659200013	0.0491929986	-1.06190002	157	239	230
-0.659720004	0.0503199995	-1.06270003	157	239	230
-0.658630013	0.0504069999	-1.06449997	157	239	230
-0.659150004	0.0493570007	-1.0654	157	239	230
-0.656499982	0.0504130013	-1.06470001	157	239	230
-0.655399978	0.0504989997	-1.06649995	157	239	230
-0.654820025	0.051709	-1.06910002	157	239	230
-0.656880021	0.0529210009	-1.07249999	157	239	230
-0.658500016	0.0518269986	-1.07159996	157	239	230
-0.66012001	0.0517800003	-1.07060003	157	239	230
-0.661750019	0.051732	-1.06959999	157	239	230
-0.661750019	0.0527760014	-1.06949997	157	239	230
-0.663370013	0.052728001	-1.06860006	157	239	230
-0.664979994	0.0516370013	-1.06760001	157	239	230
-0.666079998	0.0504680015	-1.06579995	157	239	230
-0.667689979	0.0504209995	-1.06480002	157	239	230
-0.669830024	0.0504139997	-1.06470001	157	239	230
-0.671440005	0.0492790006	-1.06369996	157	239	230
-0.673049986	0.0492330007	-1.06270003	157	239	230
-0.675719976	0.0492639989	-1.06340003	157	239	230
-0.677330017	0.049217999	-1.06239998	157	239	230
-0.678939998	0.0480679981	-1.06149995	157	239	230
-0.680540025	0.0480219983	-1.06040001	157	239	230
-0.680010021	0.0468979999	-1.0596	157	239	230
-0.680540025	0.0458609983	-1.06050003	157	239	230
-0.681609988	0.0457810014	-1.05869997	157	239	230
-0.683210015	0.0457369983	-1.05770004	157	239	230
-0.683749974	0.0468450002	-1.05840003	157	239	230
-0.682690024	0.0469270013	-1.06029999	157	239	230
-0.683220029	0.0480530001	-1.06110001	157	239	230
-0.683759987	0.0491929986	-1.06190002	157	239	230
-0.682150006	0.0492409989	-1.06289995	157	239	230
-0.680010021	0.0492490008	-1.06309998	157	239	230
-0.679459989	0.0504640006	-1.06570005	157	239	230
-0.677320004	0.0504719988	-1.06589997	157	239	230
-0.676230013	0.0505600013	-1.06780005	157	239	230
-0.677290022	0.0517229997	-1.06939995	157	239	230
-0.679440022	0.0517150015	-1.06920004	157	239	230
-0.680530012	0.0516249985	-1.06739998	157	239	230
-0.681609988	0.0504559986	-1.06560004	157	239	230
-0.684289992	0.0504879989	-1.06620002	157	239	230
-0.683210015	0.0516580008	-1.06809998	157	239	230
-0.682129979	0.0527920015	-1.06990004	157	239	230
-0.680499971	0.0528419986	-1.07089996	157	239	230
-0.678349972	0.0528509989	-1.0711	157	239	230
-0.675670028	0.0528169982	-1.0704	157	239	230
-0.675140023	0.0517310016	-1.06959999	157	239	230
-0.67246002	0.0516979992	-1.06889999	157	239	230
-0.671940029	0.0526989996	-1.06799996	157	239	230
-0.670840025	0.052790001	-1.06980002	157	239	230
-0.669219971	0.0528399982	-1.07079995	157	239	230
-0.667069972	0.0528470017	-1.07099998	157	239	230
-0.667649984	0.0516709983	-1.06830001	157	239	230
-0.66979003	0.0516639985	-1.06819999	157	239	230
-0.672500014	0.0504469983	-1.0654	157	239	230
-0.668780029	0.0492470004	-1.06299996	157	239	230
-0.666639984	0.0492530018	-1.0632	157	239	230
-0.663980007	0.0492210016	-1.0625	157	239	230
-0.661849976	0.0492269993	-1.06260002	157	239	230
-0.662930012	0.0480399989	-1.06079996	157	239	230
-0.663460016	0.0469899997	-1.06169999	157	239	230
-0.665059984	0.0469460003	-1.06070006	157	239	230
-0.66614002	0.0468650013	-1.0589	157	239	230
-0.667739987	0.0468209982	-1.05789995	157	239	230
-0.669340014	0.0467769988	-1.05690002	157	239	230
-0.671469986	0.046769999	-1.05680001	157	239	230
-0.670939982	0.0456629992	-1.05599999	157	239	230
-0.672529995	0.0445449986	-1.05499995	157	239	230
-0.673070014	0.0434979983	-1.05589998	157	239	230
-0.674130023	0.0445020013	-1.05400002	157	239	230
-0.673590004	0.0433869995	-1.05320001	157	239	230
-0.674109995	0.0432760008	-1.05050004	157	239	230
-0.676240027	0.0432690009	-1.0503	157	239	230
-0.675700009	0.0421850011	-1.04949999	157	239	230
-0.674090028	0.0410640016	-1.04700005	157	239	230
-0.675670028	0.0410239995	-1.046	157	239	230
-0.676169991	0.0398890004	-1.04340005	157	239	230
-0.676169991	0.038846001	-1.04340005	157	239	230
-0.676169991	0.0366990007	-1.04349995	157	239	230
-0.678279996	0.0366929993	-1.04330003	157	239	230
-0.677250028	0.0378439985	-1.04509997	157	239	230
-0.679910004	0.0378680006	-1.04579997	157	239	230
-0.679910004	0.0389339998	-1.04579997	157	239	230
-0.679910004	0.0399789996	-1.04569995	157	239	230
-0.679910004	0.0410109982	-1.04569995	157	239	230
-0.68147999	0.0388959982	-1.04480004	157	239	230
-0.68147999	0.037831001	-1.04480004	157	239	230
-0.680939972	0.0367159992	-1.04400003	157	239	230
-0.68197	0.0366510004	-1.04209995	157	239	230
-0.684090018	0.0366449989	-1.04200006	157	239	230
-0.684629977	0.0377570018	-1.04279995	157	239	230
-0.68305999	0.0377940014	-1.0438	157	239	230
-0.68197	0.0387950018	-1.04209995	157	239	230
-0.683000028	0.0387259983	-1.0402	157	239	230
-0.686209977	0.0366379991	-1.04180002	157	239	230
-0.686749995	0.0377499983	-1.04260004	157	239	230
-0.687300026	0.0388440005	-1.04340005	157	239	230
-0.689970016	0.0378040001	-1.04400003	157	239	230
-0.69265002	0.0378260016	-1.04470003	157	239	230
-0.69265002	0.0399350002	-1.04460001	157	239	230
-0.69107002	0.0399749987	-1.04560006	157	239	230
-0.691619992	0.0389610007	-1.04649997	157	239	230
-0.693750024	0.0389529988	-1.04630005	157	239	230
-0.695330024	0.0389139988	-1.04530001	157	239	230
-0.697459996	0.0389060006	-1.04499996	157	239	230
-0.697459996	0.0378409997	-1.04509997	157	239	230
-0.699590027	0.0388979986	-1.04480004	157	239	230
-0.702830017	0.0389520004	-1.04630005	157	239	230
-0.705529988	0.0389739983	-1.04690003	157	239	230
-0.706089973	0.0400520004	-1.04770005	157	239	230
-0.70450002	0.040093001	-1.04869998	157	239	230
-0.702359974	0.0401009992	-1.04890001	157	239	230
-0.70292002	0.0411689989	-1.04970002	157	239	230
-0.703469992	0.0422249995	-1.05050004	157	239	230
-0.701330006	0.0422339998	-1.05079997	157	239	230
-0.699739993	0.0422759987	-1.05180001	157	239	230
-0.698149979	0.0444509983	-1.05280006	157	239	230
-0.698149979	0.045522999	-1.05270004	157	239	230
-0.697109997	0.0456050001	-1.0546	157	239	230
-0.696560025	0.0444950014	-1.05379999	157	239	230
-0.694970012	0.0445390008	-1.05490005	157	239	230
-0.694970012	0.0434570014	-1.05490005	157	239	230
-0.695519984	0.0456500016	-1.05560005	157	239	230
-0.694459975	0.0457310006	-1.0575	157	239	230
-0.692860007	0.0457759984	-1.05859995	157	239	230
-0.692860007	0.0468479991	-1.05850005	157	239	230
-0.691799998	0.0469309986	-1.06040001	157	239	230
-0.691799998	0.0458570011	-1.06040001	157	239	230
-0.69234997	0.048055999	-1.06120002	157	239	230
-0.690739989	0.048103001	-1.06219995	157	239	230
-0.68858999	0.0481120013	-1.06239998	157	239	230
-0.686980009	0.0492630005	-1.06340003	157	239	230
-0.686439991	0.0503109992	-1.0625	157	239	230
-0.68483001	0.0503589995	-1.06350005	157	239	230
-0.685909986	0.0480820015	-1.0618	157	239	230
-0.686969995	0.0469110012	-1.05990005	157	239	230
-0.688570023	0.0468650013	-1.0589	157	239	230
-0.687489986	0.0457209982	-1.05729997	157	239	230
-0.689090014	0.0445999987	-1.05630004	157	239	230
-0.690680027	0.0445559993	-1.0553	157	239	230
-0.692279994	0.0445119999	-1.05420005	157	239	230
-0.692279994	0.0434309989	-1.05429995	157	239	230
-0.691190004	0.0423099995	-1.05260003	157	239	230
-0.689599991	0.0434050001	-1.05359995	157	239	230
-0.687960029	0.0422499999	-1.05120003	157	239	230
-0.686370015	0.0433439985	-1.05209994	157	239	230
-0.68532002	0.0434199981	-1.05400002	157	239	230
-0.68641001	0.0445719995	-1.05560005	157	239	230
-0.683730006	0.0456200019	-1.05490005	157	239	230
-0.68265003	0.043393001	-1.05340004	157	239	230
-0.682110012	0.0444380008	-1.05250001	157	239	230
-0.681569993	0.0422729999	-1.0517	157	239	230
-0.683160007	0.0422319993	-1.05069995	157	239	230
-0.684740007	0.0421909988	-1.04970002	157	239	230
-0.684199989	0.0411349982	-1.04890001	157	239	230
-0.685779989	0.0410949998	-1.04779994	157	239	230
-0.687359989	0.0400220007	-1.04690003	157	239	230
-0.68791002	0.0410870016	-1.04770005	157	239	230
-0.68949002	0.0410469994	-1.04659998	157	239	230
-0.688939989	0.0399819985	-1.04579997	157	239	230
-0.692170024	0.0410719998	-1.04729998	157	239	230
-0.692719996	0.0421259999	-1.04809999	157	239	230
-0.691680014	0.0422010012	-1.04990005	157	239	230
-0.694850028	0.0421169996	-1.04789996	157	239	230
-0.693750024	0.0410309993	-1.04620004	157	239	230
-0.69698	0.0410879999	-1.04770005	157	239	230
-0.698090017	0.0401180014	-1.04939997	157	239	230
-0.700230002	0.0401099995	-1.04920006	157	239	230
-0.700230002	0.0411450006	-1.04910004	157	239	230
-0.696500003	0.0432679988	-1.0503	157	239	230
-0.695460021	0.0433450006	-1.05219996	157	239	230
-0.70085001	0.0444770008	-1.05340004	157	239	230
-0.701950014	0.0456219986	-1.05499995	157	239	230
-0.701950014	0.0466899984	-1.05499995	157	239	230
-0.699800014	0.0467000008	-1.05519998	157	239	230
-0.699859977	0.0468569994	-1.05869997	157	239	230
-0.698800027	0.046941001	-1.06060004	157	239	230
-0.699899971	0.0481039993	-1.06219995	157	239	230
-0.70043999	0.0492459983	-1.06299996	157	239	230
-0.699899971	0.0502940007	-1.06210005	157	239	230
-0.69828999	0.0492560007	-1.0632	157	239	230
-0.697740018	0.0481140018	-1.0625	157	239	230
-0.696680009	0.049304001	-1.06429994	157	239	230
-0.694519997	0.0493139997	-1.06449997	157	239	230
-0.692910016	0.0493620001	-1.06550002	157	239	230
-0.692910016	0.0515309982	-1.0654	157	239	230
-0.693989992	0.0505309999	-1.06719995	157	239	230
-0.695609987	0.0515610017	-1.0661	157	239	230
-0.696150005	0.0526430011	-1.06690001	157	239	230
-0.69453001	0.0526949987	-1.06789994	157	239	230
-0.692910016	0.0527460016	-1.06889999	157	239	230
-0.691829979	0.0528389998	-1.07079995	157	239	230
-0.689130008	0.0528069995	-1.07019997	157	239	230
-0.687510014	0.0528579988	-1.07120001	157	239	230
-0.685350001	0.0528669991	-1.07140005	157	239	230
-0.686439991	0.0517299995	-1.06959999	157	239	230
-0.686980009	0.0515989996	-1.0668	157	239	230
-0.688059986	0.0515090004	-1.06500006	157	239	230
-0.689130008	0.051417999	-1.06309998	157	239	230
-0.689670026	0.0503810011	-1.06400001	157	239	230
-0.689670026	0.0492930003	-1.06400001	157	239	230
-0.693949997	0.0480090007	-1.06009996	157	239	230
-0.695559978	0.0468759984	-1.05920005	157	239	230
-0.696650028	0.0512979999	-1.06060004	157	239	230
-0.696129978	0.0514300019	-1.06330001	157	239	230
-0.699379981	0.0504220016	-1.06490004	157	239	230
-0.698310018	0.0505120009	-1.06669998	157	239	230
-0.698310018	0.0526329987	-1.06659997	157	239	230
-0.697780013	0.0506410003	-1.06949997	157	239	230
-0.704289973	0.0529120006	-1.07229996	157	239	230
-0.705370009	0.0517730005	-1.0704	157	239	230
-0.708090007	0.0518030003	-1.0711	157	239	230
-0.708639979	0.0528890006	-1.07179999	157	239	230
-0.710259974	0.0528369993	-1.07079995	157	239	230
-0.711889982	0.0527839996	-1.0697	157	239	230
-0.714060009	0.0527720004	-1.06949997	157	239	230
-0.716239989	0.0527600013	-1.06920004	157	239	230
-0.715680003	0.0516760014	-1.06840003	157	239	230
-0.718410015	0.0517040007	-1.06900001	157	239	230
-0.72003001	0.051651001	-1.06789994	157	239	230
-0.72220999	0.0516390018	-1.06770003	157	239	230
-0.724380016	0.0516260006	-1.06739998	157	239	230
-0.725510001	0.0527490005	-1.06900001	157	239	230
-0.723879993	0.0528029986	-1.07009995	157	239	230
-0.722259998	0.0528570004	-1.07120001	157	239	230
-0.720640004	0.0529109985	-1.07229996	157	239	230
-0.720529974	0.0504399985	-1.06519997	157	239	230
-0.7227	0.0504279993	-1.06500006	157	239	230
-0.722140014	0.0493000001	-1.06420004	157	239	230
-0.72487998	0.0493259989	-1.06480002	157	239	230
-0.725440025	0.0504539981	-1.06550002	157	239	230
-0.727050006	0.0504020005	-1.06439996	157	239	230
-0.728659987	0.0503499992	-1.06330001	157	239	230
-0.729789972	0.0515069999	-1.06490004	157	239	230
-0.731970012	0.0514930002	-1.06470001	157	239	230
-0.733099997	0.0504929982	-1.06630003	157	239	230
-0.734149992	0.0493130013	-1.06449997	157	239	230
-0.735849977	0.0515980013	-1.0668	157	239	230
-0.738120019	0.0506739989	-1.07019997	157	239	230
-0.733749986	0.0528310016	-1.07070005	157	239	230
-0.728739977	0.0526410006	-1.0668	157	239	230
-0.728739977	0.0516000018	-1.06690001	157	239	230
-0.727119982	0.0516530015	-1.06799996	157	239	230
-0.726559997	0.0526550002	-1.06710005	157	239	230
-0.725359976	0.049199	-1.06200004	157	239	230
-0.726970017	0.0491480008	-1.06089997	157	239	230
-0.728569984	0.0490970016	-1.05980003	157	239	230
-0.72744	0.0479220003	-1.0582	157	239	230
-0.728009999	0.0468729995	-1.05910003	157	239	230
-0.730170012	0.0468610004	-1.05879998	157	239	230
-0.729610026	0.047908999	-1.05789995	157	239	230
-0.731209993	0.0478589982	-1.05680001	157	239	230
-0.730639994	0.045669999	-1.05610001	157	239	230
-0.728470027	0.0456820019	-1.05639994	157	239	230
-0.72687	0.0457299985	-1.0575	157	239	230
-0.724709988	0.0457409993	-1.05780005	157	239	230
-0.725839972	0.0468849987	-1.05939996	157	239	230
-0.725269973	0.0479339994	-1.05850005	157	239	230
-0.723670006	0.0479840003	-1.0596	157	239	230
-0.722069979	0.048032999	-1.06070006	157	239	230
-0.719340026	0.0480079986	-1.06009996	157	239	230
-0.71766001	0.0468109995	-1.05770004	157	239	230
-0.71766001	0.0457400009	-1.05770004	157	239	230
-0.719250023	0.0467629991	-1.05659997	157	239	230
-0.718129992	0.0456210002	-1.05499995	157	239	230
-0.714940012	0.0457150005	-1.05710006	157	239	230
-0.713339984	0.0457610004	-1.0582	157	239	230
-0.710619986	0.0457359999	-1.05760002	157	239	230
-0.711660028	0.0445780009	-1.05579996	157	239	230
-0.71055001	0.0434270017	-1.05420005	157	239	230
-0.708949983	0.0434710011	-1.05519998	157	239	230
-0.708400011	0.0445180014	-1.05439997	157	239	230
-0.706799984	0.0445629992	-1.05540001	157	239	230
-0.706799984	0.0434809998	-1.05550003	157	239	230
-0.704649985	0.0434900001	-1.05569994	157	239	230
-0.704649985	0.0445730016	-1.05569994	157	239	230
-0.704100013	0.0456119999	-1.05480003	157	239	230
-0.702499986	0.0434990004	-1.05589998	157	239	230
-0.706309974	0.0468280017	-1.05809999	157	239	230
-0.707910001	0.0457100011	-1.05700004	157	239	230
-0.707419991	0.0479880013	-1.05970001	157	239	230
-0.705820024	0.0480360016	-1.06070006	157	239	230
-0.703660011	0.0480460003	-1.06099999	157	239	230
-0.701499999	0.048055999	-1.06120002	157	239	230
-0.702600002	0.0492359996	-1.06280005	157	239	230
-0.702600002	0.0503229983	-1.06280005	157	239	230
-0.704760015	0.0503120013	-1.0625	157	239	230
-0.704760015	0.0492249988	-1.06260002	157	239	230
-0.708570004	0.0493309982	-1.06490004	157	239	230
-0.708570004	0.0504200011	-1.06480002	157	239	230
-0.708570004	0.0514979996	-1.06480002	157	239	230
-0.710189998	0.0514459983	-1.06369996	157	239	230
-0.710189998	0.0503689982	-1.06369996	157	239	230
-0.710189998	0.0492810011	-1.06379998	157	239	230
-0.712350011	0.0492700003	-1.06350005	157	239	230
-0.711799979	0.0481280014	-1.06280005	157	239	230
-0.711799979	0.0470380001	-1.06280005	157	239	230
-0.712849975	0.0469539985	-1.06089997	157	239	230
-0.712849975	0.0480419993	-1.06089997	157	239	230
-0.712289989	0.0491049998	-1.05999994	157	239	230
-0.713339984	0.0490170009	-1.05809999	157	239	230
-0.714940012	0.0489670001	-1.05700004	157	239	230
-0.715499997	0.0479069985	-1.05789995	157	239	230
-0.716059983	0.0468580015	-1.05879998	157	239	230
-0.715009987	0.0469430014	-1.06070006	157	239	230
-0.715009987	0.0480309986	-1.06060004	157	239	230
-0.715070009	0.0503860004	-1.06410003	157	239	230
-0.714020014	0.0504759997	-1.06599998	157	239	230
-0.717800021	0.0504130013	-1.06470001	157	239	230
-0.722540021	0.0468240008	-1.05799997	157	239	230
-0.721979976	0.045717001	-1.05719995	157	239	230
-0.722450018	0.0445239991	-1.05449998	157	239	230
-0.724039972	0.0444779992	-1.05340004	157	239	230
-0.724039972	0.0433980003	-1.05350006	157	239	230
-0.726769984	0.0423670001	-1.05410004	157	239	230
-0.727330029	0.0434539989	-1.05480003	157	239	230
-0.726769984	0.0445009992	-1.05400002	157	239	230
-0.728359997	0.0444549993	-1.05289996	157	239	230
-0.728929996	0.0434090011	-1.05369997	157	239	230
-0.729499996	0.0423890017	-1.0546	157	239	230
-0.73052001	0.0423110016	-1.05270004	157	239	230
-0.73052001	0.0433639996	-1.05260003	157	239	230
-0.73052001	0.0444430001	-1.05260003	157	239	230
-0.733250022	0.0423329994	-1.05320001	157	239	230
-0.733829975	0.0445000008	-1.0539	157	239	230
-0.733940005	0.0457280017	-1.0575	157	239	230
-0.732909977	0.0468849987	-1.05929995	157	239	230
-0.737259984	0.0436219983	-1.0589	157	239	230
-0.737370014	0.0481059998	-1.06229997	157	239	230
-0.74022001	0.0471980013	-1.06640005	157	239	230
-0.744700015	0.0462470017	-1.06949997	157	239	230
-0.730390012	0.041145999	-1.04920006	157	239	230
-0.730390012	0.0401110016	-1.04920006	157	239	230
-0.730970025	0.039092999	-1.05009997	157	239	230
-0.729820013	0.0379629992	-1.04849994	157	239	230
-0.727100015	0.0400590003	-1.04779994	157	239	230
-0.725950003	0.0410280004	-1.04620004	157	239	230
-0.725510001	0.0411360003	-1.04890001	157	239	230
-0.721660018	0.0410499983	-1.0467	157	239	230
-0.72052002	0.0399539992	-1.04509997	157	239	230
-0.71894002	0.0410280004	-1.04610002	157	239	230
-0.716799974	0.0420570001	-1.04639995	157	239	230
-0.71566999	0.0409730002	-1.04470003	157	239	230
-0.71566999	0.0399420001	-1.04480004	157	239	230
-0.71566999	0.0388979986	-1.04480004	157	239	230
-0.717809975	0.0388889983	-1.04460001	157	239	230
-0.717239976	0.0399009995	-1.04369998	157	239	230
-0.719380021	0.0388480015	-1.04349995	157	239	230
-0.719820023	0.0387470014	-1.04079998	157	239	230
-0.719250023	0.0365759991	-1.03999996	157	239	230
-0.718680024	0.0355090015	-1.03919995	157	239	230
-0.718110025	0.0344830006	-1.03840005	157	239	230
-0.72082001	0.0355000012	-1.03900003	157	239	230
-0.722959995	0.0354899988	-1.03869998	157	239	230
-0.722530007	0.0366250016	-1.04139996	157	239	230
-0.724810004	0.0388889983	-1.04460001	157	239	230
-0.725380003	0.0378549993	-1.04550004	157	239	230
-0.727530003	0.0367590003	-1.04519999	157	239	230
-0.722670019	0.0399440005	-1.04480004	157	239	230
-0.720640004	0.042146001	-1.04859996	157	239	230
-0.720189989	0.0433069989	-1.05130005	157	239	230
-0.71746999	0.043283999	-1.05069995	157	239	230
-0.71746999	0.044360999	-1.05060005	157	239	230
-0.715319991	0.0443719998	-1.05089998	157	239	230
-0.715879977	0.0433279984	-1.05180001	157	239	230
-0.715319991	0.0422430001	-1.051	157	239	230
-0.716910005	0.0421999991	-1.04990005	157	239	230
-0.713729978	0.0433389992	-1.05200005	157	239	230
-0.712140024	0.0433829986	-1.05309999	157	239	230
-0.711579978	0.0444279984	-1.05219996	157	239	230
-0.712610006	0.0443480015	-1.0503	157	239	230
-0.712610006	0.0422200002	-1.05040002	157	239	230
-0.711019993	0.0422630012	-1.05149996	157	239	230
-0.708869994	0.0422729999	-1.0517	157	239	230
-0.706730008	0.0422820002	-1.05200005	157	239	230
-0.705619991	0.041193001	-1.0503	157	239	230
-0.707759976	0.0411840007	-1.05009997	157	239	230
-0.709339976	0.0411420017	-1.04900002	157	239	230
-0.708790004	0.0400750004	-1.04830003	157	239	230
-0.709810019	0.0400019996	-1.04639995	157	239	230
-0.709810019	0.0410350002	-1.04630005	157	239	230
-0.710820019	0.0409610011	-1.04439998	157	239	230
-0.711390018	0.0399620011	-1.04530001	157	239	230
-0.71250999	0.0389779992	-1.04700005	157	239	230
-0.71092999	0.0390180014	-1.04809999	157	239	230
-0.709249973	0.0378599986	-1.04560006	157	239	230
-0.710259974	0.0377920009	-1.04369998	157	239	230
-0.709699988	0.0366789997	-1.04289997	157	239	230
-0.711269975	0.0366410017	-1.04190004	157	239	230
-0.71013999	0.0376630016	-1.0402	157	239	230
-0.711709976	0.0376240015	-1.03910005	157	239	230
-0.711149991	0.0365159996	-1.03830004	157	239	230
-0.710579991	0.0354500003	-1.03750002	157	239	230
-0.712710023	0.0344460011	-1.03729999	157	239	230
-0.714839995	0.0344370008	-1.03709996	157	239	230
-0.714839995	0.0354330018	-1.03699994	157	239	230
-0.714839995	0.0334209986	-1.03709996	157	239	230
-0.71371001	0.0312899984	-1.03550005	157	239	230
-0.71371001	0.0302419998	-1.03550005	157	239	230
-0.712140024	0.0302729998	-1.03659999	157	239	230
-0.711579978	0.0312980004	-1.03579998	157	239	230
-0.713140011	0.0323060006	-1.03460002	157	239	230
-0.714129984	0.0322469994	-1.03279996	157	239	230
-0.714699984	0.0333059989	-1.03349996	157	239	230
-0.714699984	0.0312329996	-1.03359997	157	239	230
-0.716250002	0.0311999992	-1.03250003	157	239	230
-0.716820002	0.0301789995	-1.03340006	157	239	230
-0.717390001	0.0291690007	-1.03419995	157	239	230
-0.716820002	0.0281259995	-1.03340006	157	239	230
-0.716820002	0.0271000005	-1.03349996	157	239	230
-0.716820002	0.0260669999	-1.03349996	157	239	230
-0.716820002	0.0250410009	-1.03349996	157	239	230
-0.715269983	0.0240460001	-1.03460002	157	239	230
-0.714699984	0.0230069999	-1.03380001	157	239	230
-0.714129984	0.0219700001	-1.03299999	157	239	230
-0.712000012	0.0219749995	-1.03330004	157	239	230
-0.712570012	0.0230129994	-1.03410006	157	239	230
-0.710449994	0.0230190009	-1.03429997	157	239	230
-0.711009979	0.022016	-1.0352	157	239	230
-0.711009979	0.0210059993	-1.0352	157	239	230
-0.711009979	0.0189939998	-1.0352	157	239	230
-0.712570012	0.0189740006	-1.03419995	157	239	230
-0.713140011	0.0179549996	-1.03499997	157	239	230
-0.715269983	0.0169949997	-1.03480005	157	239	230
-0.714699984	0.0157539994	-1.03400004	157	239	230
-0.716250002	0.0157370009	-1.03289998	157	239	230
-0.716400027	0.0179789998	-1.03639996	157	239	230
-0.716400027	0.0190149993	-1.03639996	157	239	230
-0.716400027	0.0200289991	-1.03629994	157	239	230
-0.716970026	0.0210459996	-1.03719997	157	239	230
-0.714839995	0.0200500004	-1.03740001	157	239	230
-0.714269996	0.0210340004	-1.03659999	157	239	230
-0.712710023	0.0200549997	-1.03770006	157	239	230
-0.712710023	0.0180019997	-1.03770006	157	239	230
-0.710579991	0.0180060007	-1.03799999	157	239	230
-0.710020006	0.0190290008	-1.03709996	157	239	230
-0.710020006	0.0200440008	-1.03709996	157	239	230
-0.710579991	0.0220740009	-1.03789997	157	239	230
-0.710020006	0.0230790004	-1.03699994	157	239	230
-0.707889974	0.0230839998	-1.03729999	157	239	230
-0.709020019	0.0220960006	-1.03900003	157	239	230
-0.707889974	0.0190329999	-1.03740001	157	239	230
-0.707329988	0.0200319998	-1.03649998	157	239	230
-0.706759989	0.0210159998	-1.03569996	157	239	230
-0.705200016	0.0210369993	-1.03670001	157	239	230
-0.704639971	0.0220309999	-1.0359	157	239	230
-0.70352	0.0230160002	-1.03419995	157	239	230
-0.70352	0.0240359996	-1.03419995	157	239	230
-0.705070019	0.0240119994	-1.03310001	157	239	230
-0.707759976	0.0240250006	-1.03369999	157	239	230
-0.70875001	0.0239819996	-1.03180003	157	239	230
-0.711430013	0.0239950009	-1.03240001	157	239	230
-0.711430013	0.0250129998	-1.03240001	157	239	230
-0.710449994	0.0250589997	-1.03429997	157	239	230
-0.710449994	0.0260860007	-1.03429997	157	239	230
-0.708890021	0.0250850003	-1.03530002	157	239	230
-0.706759989	0.0250909999	-1.03559995	157	239	230
-0.704639971	0.0250969995	-1.03579998	157	239	230
-0.704639971	0.0271610003	-1.03579998	157	239	230
-0.702520013	0.0271669999	-1.03600001	157	239	230
-0.702520013	0.0251020007	-1.03610003	157	239	230
-0.700399995	0.0251080003	-1.03629994	157	239	230
-0.699840009	0.0240659993	-1.03550005	157	239	230
-0.700399995	0.0230630003	-1.03629994	157	239	230
-0.699840009	0.0220229998	-1.03550005	157	239	230
-0.700399995	0.0210299995	-1.03639996	157	239	230
-0.698830009	0.0210510008	-1.03740001	157	239	230
-0.698830009	0.0200500004	-1.03740001	157	239	230
-0.698830009	0.0190350004	-1.03750002	157	239	230
-0.698279977	0.0179839991	-1.03659999	157	239	230
-0.696709991	0.0180019997	-1.03770006	157	239	230
-0.695150018	0.0180200003	-1.03869998	157	239	230
-0.693579972	0.0180380009	-1.03980005	157	239	230
-0.692019999	0.0180559997	-1.04079998	157	239	230
-0.689350009	0.0180450007	-1.0402	157	239	230
-0.687229991	0.0180479996	-1.04040003	157	239	230
-0.685660005	0.0180660002	-1.04139996	157	239	230
-0.68769002	0.0190389995	-1.03770006	157	239	230
-0.689260006	0.0190200005	-1.03659999	157	239	230
-0.68870002	0.0200180002	-1.03579998	157	239	230
-0.689260006	0.0210340004	-1.03659999	157	239	230
-0.689809978	0.0220630001	-1.03740001	157	239	230
-0.689260006	0.0230679996	-1.03659999	157	239	230
-0.69137001	0.0230640005	-1.03639996	157	239	230
-0.692929983	0.0230410006	-1.03530002	157	239	230
-0.691820025	0.0219839998	-1.03369999	157	239	230
-0.690259993	0.0220059995	-1.03470004	157	239	230
-0.690259993	0.0240470003	-1.03470004	157	239	230
-0.691820025	0.0250429995	-1.03359997	157	239	230
-0.691820025	0.0260690004	-1.03359997	157	239	230
-0.693379998	0.0260429997	-1.03250003	157	239	230
-0.692260027	0.0270319991	-1.0309	157	239	230
-0.691709995	0.0280329995	-1.02999997	157	239	230
-0.689599991	0.0290539991	-1.0302	157	239	230
-0.688049972	0.0290840007	-1.03120005	157	239	230
-0.685940027	0.0290890001	-1.03139997	157	239	230
-0.686500013	0.0301440004	-1.03219998	157	239	230
-0.684939981	0.0301740002	-1.03320003	157	239	230
-0.684939981	0.0291419998	-1.03330004	157	239	230
-0.684390008	0.0281000007	-1.03250003	157	239	230
-0.68283999	0.0281269997	-1.03349996	157	239	230
-0.681739986	0.0291000009	-1.03180003	157	239	230
-0.679629982	0.0280869994	-1.03199995	157	239	230
-0.678080022	0.0281140003	-1.03299999	157	239	230
-0.67651999	0.0291620009	-1.03400004	157	239	230
-0.67543	0.0280959997	-1.0323	157	239	230
-0.673879981	0.0281240009	-1.03330004	157	239	230
-0.676989973	0.0290859994	-1.03129995	157	239	230
-0.677529991	0.0301419999	-1.03209996	157	239	230
-0.679090023	0.0301120002	-1.03110003	157	239	230
-0.678539991	0.0290580001	-1.03030002	157	239	230
-0.678080022	0.0250300001	-1.03310001	157	239	230
-0.680729985	0.0250460003	-1.03369999	157	239	230
-0.68283999	0.0250419993	-1.03359997	157	239	230
-0.683380008	0.0260889996	-1.03439999	157	239	230
-0.681829989	0.0261150002	-1.03540003	157	239	230
-0.682370007	0.0271719992	-1.03620005	157	239	230
-0.680809975	0.0271979999	-1.03719997	157	239	230
-0.680809975	0.0261620004	-1.03719997	157	239	230
-0.67869997	0.0261659995	-1.03740001	157	239	230
-0.67869997	0.0251359995	-1.03740001	157	239	230
-0.67869997	0.0241129994	-1.03750002	157	239	230
-0.678160012	0.0271809995	-1.03659999	157	239	230
-0.679719985	0.0312880017	-1.03540003	157	239	230
-0.679170012	0.0323030017	-1.03460002	157	239	230
-0.681280017	0.0322979987	-1.03439999	157	239	230
-0.680729985	0.0333050005	-1.03349996	157	239	230
-0.683380008	0.033326	-1.03419995	157	239	230
-0.683380008	0.0322920009	-1.03419995	157	239	230
-0.68392998	0.0312770009	-1.03509998	157	239	230
-0.683380008	0.030204	-1.03429997	157	239	230
-0.682919979	0.0313329995	-1.03690004	157	239	230
-0.682370007	0.0344020016	-1.03600001	157	239	230
-0.683470011	0.0354540013	-1.03760004	157	239	230
-0.681360006	0.035459999	-1.03779995	157	239	230
-0.679250002	0.0354660004	-1.03799999	157	239	230
-0.677680016	0.0355009995	-1.03900003	157	239	230
-0.673950016	0.0354209989	-1.03670001	157	239	230
-0.672919989	0.035484001	-1.03849995	157	239	230
-0.671360016	0.0355180018	-1.0395	157	239	230
-0.671899974	0.0365869999	-1.04030001	157	239	230
-0.671360016	0.0376360007	-1.03939998	157	239	230
-0.672969997	0.0387899987	-1.04190004	157	239	230
-0.673510015	0.0398630016	-1.04270005	157	239	230
-0.672479987	0.0399339981	-1.04460001	157	239	230
-0.673009992	0.0389209986	-1.04540002	157	239	230
-0.67197001	0.0389899984	-1.04729998	157	239	230
-0.670899987	0.0399719998	-1.04560006	157	239	230
-0.668789983	0.0399780013	-1.04569995	157	239	230
-0.668250024	0.0389010012	-1.04489994	157	239	230
-0.668250024	0.0409770012	-1.04480004	157	239	230
-0.666670024	0.0410160013	-1.04579997	157	239	230
-0.665620029	0.0410879999	-1.04770005	157	239	230
-0.66298002	0.0410600007	-1.04700005	157	239	230
-0.66140002	0.0410990007	-1.04789996	157	239	230
-0.660340011	0.0421929993	-1.04970002	157	239	230
-0.657710016	0.0421640016	-1.04900002	157	239	230
-0.655600011	0.042169001	-1.04910004	157	239	230
-0.65666002	0.0410760008	-1.0474	157	239	230
-0.658760011	0.0410710014	-1.04719996	157	239	230
-0.65508002	0.0399449989	-1.04489994	157	239	230
-0.65298003	0.0399489999	-1.04499996	157	239	230
-0.65298003	0.0389049985	-1.04499996	157	239	230
-0.651920021	0.0389729999	-1.04680002	157	239	230
-0.652440012	0.0400520004	-1.04760003	157	239	230
-0.651920021	0.0410519987	-1.04680002	157	239	230
-0.653500021	0.0410140008	-1.04579997	157	239	230
-0.651380002	0.0411569998	-1.04939997	157	239	230
-0.651380002	0.0401210003	-1.04949999	157	239	230
-0.649280012	0.0401250012	-1.04960001	157	239	230
-0.649800003	0.0411950015	-1.05040002	157	239	230
-0.649280012	0.0421830006	-1.04949999	157	239	230
-0.648209989	0.0443850011	-1.05120003	157	239	230
-0.644550025	0.0442809984	-1.04879999	157	239	230
-0.643480003	0.0422299989	-1.05069995	157	239	230
-0.651929975	0.0377780013	-1.04330003	157	239	230
-0.651409984	0.036665	-1.04250002	157	239	230
-0.65298003	0.0366309993	-1.04159999	157	239	230
-0.654550016	0.0365969986	-1.04059994	157	239	230
-0.655589998	0.0334779993	-1.03890002	157	239	230
-0.653999984	0.0344120003	-1.03629994	157	239	230
-0.651910007	0.0333999991	-1.03649998	157	239	230
-0.653439999	0.0332560018	-1.03199995	157	239	230
-0.653439999	0.0322239995	-1.03199995	157	239	230
-0.654999971	0.0321930014	-1.03100002	157	239	230
-0.656589985	0.0333059989	-1.03349996	157	239	230
-0.661300004	0.03125	-1.03419995	157	239	230
-0.661300004	0.0291690007	-1.03419995	157	239	230
-0.662859976	0.0291409995	-1.03330004	157	239	230
-0.662859976	0.0281220004	-1.03330004	157	239	230
-0.664420009	0.0280949995	-1.0323	157	239	230
-0.664420009	0.0291130003	-1.0323	157	239	230
-0.664420009	0.0301450007	-1.03219998	157	239	230
-0.663879991	0.0311650001	-1.03139997	157	239	230
-0.663339972	0.0321759991	-1.03050005	157	239	230
-0.662320018	0.0311949998	-1.0323	157	239	230
-0.663399994	0.0301990006	-1.03410006	157	239	230
-0.662909985	0.0302770007	-1.03670001	157	239	230
-0.660279989	0.0271700006	-1.03610003	157	239	230
-0.659250021	0.0272179991	-1.03799999	157	239	230
-0.660769999	0.0260669999	-1.03349996	157	239	230
-0.660769999	0.0250400007	-1.03349996	157	239	230
-0.660239995	0.0281029996	-1.03260005	157	239	230
-0.665430009	0.0290619992	-1.03040004	157	239	230
-0.665970027	0.0280680005	-1.03129995	157	239	230
-0.667519987	0.0280409995	-1.03030002	157	239	230
-0.668600023	0.025006	-1.03209996	157	239	230
-0.671239972	0.0250220001	-1.03269994	157	239	230
-0.670759976	0.0261150002	-1.03540003	157	239	230
-0.670759976	0.0240659993	-1.03550005	157	239	230
-0.671840012	0.0230819993	-1.03719997	157	239	230
-0.671360016	0.0231420007	-1.03980005	157	239	230
-0.66979003	0.0231640004	-1.04079998	157	239	230
-0.668709993	0.022101	-1.03919995	157	239	230
-0.666610003	0.0221040007	-1.03929996	157	239	230
-0.666610003	0.0231299996	-1.03929996	157	239	230
-0.664510012	0.0221079998	-1.0395	157	239	230
-0.663980007	0.0210759994	-1.03869998	157	239	230
-0.664510012	0.0200900007	-1.0395	157	239	230
-0.666610003	0.0200880002	-1.03939998	157	239	230
-0.666610003	0.0190699995	-1.03939998	157	239	230
-0.665579975	0.0191040002	-1.04120004	157	239	230
-0.664009988	0.0191220008	-1.04219997	157	239	230
-0.661369979	0.0191089995	-1.04149997	157	239	230
-0.662410021	0.0200929996	-1.03970003	157	239	230
-0.660809994	0.0210449994	-1.03709996	157	239	230
-0.66553998	0.0210560001	-1.03770006	157	239	230
-0.667100012	0.0210360009	-1.03670001	157	239	230
-0.668179989	0.0200679991	-1.03840005	157	239	230
-0.668709993	0.0190680008	-1.03919995	157	239	230
-0.668219984	0.0180750005	-1.04190004	157	239	230
-0.670329988	0.018073	-1.04180002	157	239	230
-0.671899974	0.0190960001	-1.04079998	157	239	230
-0.671360016	0.0180409998	-1.03989995	157	239	230
-0.673460007	0.0190769993	-1.03980005	157	239	230
-0.674000025	0.0180530008	-1.04059994	157	239	230
-0.675570011	0.0180350002	-1.03960001	157	239	230
-0.677680016	0.0180319995	-1.03939998	157	239	230
-0.681360006	0.0200650003	-1.03820002	157	239	230
-0.682919979	0.0200449992	-1.03719997	157	239	230
-0.68392998	0.0200100001	-1.03530002	157	239	230
-0.683380008	0.0209909994	-1.0345	157	239	230
-0.68283999	0.0219829995	-1.03359997	157	239	230
-0.683380008	0.0230209995	-1.03439999	157	239	230
-0.681829989	0.0230439994	-1.03550005	157	239	230
-0.681829989	0.0210120007	-1.03550005	157	239	230
-0.679170012	0.0209989995	-1.03480005	157	239	230
-0.678629994	0.0219909996	-1.03400004	157	239	230
-0.680180013	0.0219689999	-1.03299999	157	239	230
-0.684939981	0.025037	-1.03340006	157	239	230
-0.685490012	0.0240369998	-1.03419995	157	239	230
-0.687049985	0.0240129996	-1.03320003	157	239	230
-0.687600017	0.0250530001	-1.03400004	157	239	230
-0.689159989	0.0250279997	-1.03299999	157	239	230
-0.686500013	0.0270690005	-1.0323	157	239	230
-0.6875	0.0270199999	-1.03040004	157	239	230
-0.689050019	0.0269930009	-1.02939999	157	239	230
-0.688489974	0.0279929992	-1.02849996	157	239	230
-0.685840011	0.0279760007	-1.02789998	157	239	230
-0.684840024	0.0280259997	-1.02980006	157	239	230
-0.685389996	0.0311389994	-1.03050005	157	239	230
-0.685940027	0.0322020017	-1.03129995	157	239	230
-0.683839977	0.0322079994	-1.03149998	157	239	230
-0.683839977	0.0311699994	-1.03149998	157	239	230
-0.688600004	0.0311830007	-1.03199995	157	239	230
-0.689159989	0.0322480015	-1.03279996	157	239	230
-0.689710021	0.0301869996	-1.03369999	157	239	230
-0.692380011	0.0312529989	-1.03429997	157	239	230
-0.692929983	0.0302300006	-1.03509998	157	239	230
-0.694490016	0.0301990006	-1.03410006	157	239	230
-0.694490016	0.029166	-1.03410006	157	239	230
-0.696049988	0.0291360002	-1.03310001	157	239	230
-0.695490003	0.0280949995	-1.0323	157	239	230
-0.697040021	0.028066	-1.03120005	157	239	230
-0.697600007	0.0291070007	-1.03199995	157	239	230
-0.697040021	0.0301140007	-1.03120005	157	239	230
-0.695490003	0.0301450007	-1.03219998	157	239	230
-0.69392997	0.0312210005	-1.03320003	157	239	230
-0.694369972	0.0321770012	-1.03050005	157	239	230
-0.693809986	0.0311149992	-1.02970004	157	239	230
-0.694800019	0.0310580004	-1.02779996	157	239	230
-0.694249988	0.0320659988	-1.02699995	157	239	230
-0.698589981	0.0280380007	-1.0302	157	239	230
-0.699150026	0.0290770009	-1.03100002	157	239	230
-0.699710011	0.0301319994	-1.03180003	157	239	230
-0.701830029	0.0290939994	-1.0316	157	239	230
-0.702950001	0.0281220004	-1.03330004	157	239	230
-0.702950001	0.0260630008	-1.03330004	157	239	230
-0.703949988	0.0260150004	-1.03139997	157	239	230
-0.706629992	0.0260300003	-1.03199995	157	239	230
-0.707189977	0.0270830002	-1.03279996	157	239	230
-0.707759976	0.0281310007	-1.03359997	157	239	230
-0.708320022	0.029174	-1.03439999	157	239	230
-0.709879994	0.0281249993	-1.03340006	157	239	230
-0.710449994	0.0291670002	-1.03419995	157	239	230
-0.712000012	0.0291370004	-1.03310001	157	239	230
-0.711430013	0.0280949995	-1.0323	157	239	230
-0.713559985	0.0280889999	-1.03209996	157	239	230
-0.714129984	0.0291300006	-1.03279996	157	239	230
-0.712570012	0.0271129999	-1.03400004	157	239	230
-0.712570012	0.0260799993	-1.03400004	157	239	230
-0.713559985	0.0260320008	-1.03209996	157	239	230
-0.713559985	0.0250070002	-1.03209996	157	239	230
-0.715269983	0.0271279998	-1.0345	157	239	230
-0.715830028	0.0302339997	-1.03530002	157	239	230
-0.718949974	0.0291380007	-1.03310001	157	239	230
-0.718949974	0.0281189997	-1.03320003	157	239	230
-0.718949974	0.0270930007	-1.03320003	157	239	230
-0.719519973	0.0260809995	-1.03400004	157	239	230
-0.719519973	0.0250540003	-1.03410006	157	239	230
-0.719519973	0.0230139997	-1.03410006	157	239	230
-0.718949974	0.0219759997	-1.03330004	157	239	230
-0.719519973	0.0209849998	-1.03419995	157	239	230
-0.718949974	0.019971	-1.03340006	157	239	230
-0.717390001	0.0209899992	-1.03439999	157	239	230
-0.717390001	0.0219999999	-1.03439999	157	239	230
-0.717390001	0.0230199993	-1.03439999	157	239	230
-0.719110012	0.0240979996	-1.03680003	157	239	230
-0.720669985	0.0240720008	-1.03569996	157	239	230
-0.721239984	0.0190200005	-1.03670001	157	239	230
-0.719680011	0.0190399997	-1.03770006	157	239	230
-0.72025001	0.017058	-1.03859997	157	239	230
-0.722379982	0.0170540009	-1.03830004	157	239	230
-0.722959995	0.0180270001	-1.03910005	157	239	230
-0.721390009	0.0180459991	-1.0402	157	239	230
-0.722959995	0.0158329997	-1.03919995	157	239	230
-0.715409994	0.0170530006	-1.03830004	157	239	230
-0.712140024	0.0157990009	-1.03690004	157	239	230
-0.709020019	0.0180249996	-1.03900003	157	239	230
-0.706330001	0.0180149991	-1.03849995	157	239	230
-0.706330001	0.0190529991	-1.03840005	157	239	230
-0.705760002	0.0200529993	-1.03760004	157	239	230
-0.704200029	0.0200730003	-1.03859997	157	239	230
-0.703639984	0.0190420002	-1.03779995	157	239	230
-0.703639984	0.0180040002	-1.03789997	157	239	230
-0.701520026	0.0180079993	-1.0381	157	239	230
-0.702069998	0.0190609992	-1.03890002	157	239	230
-0.702629983	0.0200939998	-1.03970003	157	239	230
-0.703190029	0.0170910005	-1.04059994	157	239	230
-0.705320001	0.0170869995	-1.04040003	157	239	230
-0.708570004	0.0171099994	-1.04180002	157	239	230
-0.711269975	0.01712	-1.0424	157	239	230
-0.71341002	0.0171160009	-1.04209995	157	239	230
-0.71341002	0.0158779994	-1.04209995	157	239	230
-0.71183002	0.0148170004	-1.04320002	157	239	230
-0.716109991	0.0171249993	-1.04270005	157	239	230
-0.716820002	0.0199759994	-1.03359997	157	239	230
-0.708890021	0.0210110005	-1.03540003	157	239	230
-0.701960027	0.0210079998	-1.03530002	157	239	230
-0.701399982	0.0220010001	-1.0345	157	239	230
-0.700839996	0.0230030008	-1.03359997	157	239	230
-0.701399982	0.0240419991	-1.03439999	157	239	230
-0.697719991	0.0240710005	-1.03569996	157	239	230
-0.696160018	0.0240959991	-1.03670001	157	239	230
-0.696160018	0.0230730008	-1.03680003	157	239	230
-0.694599986	0.0241199993	-1.03779995	157	239	230
-0.697269976	0.0220849998	-1.03840005	157	239	230
-0.698830009	0.0230870005	-1.03740001	157	239	230
-0.699389994	0.0220810007	-1.03820002	157	239	230
-0.698379993	0.0201030001	-1.0402	157	239	230
-0.698939979	0.0211229995	-1.04100001	157	239	230
-0.698939979	0.0170980003	-1.04100001	157	239	230
-0.700510025	0.0170809999	-1.03999996	157	239	230
-0.697920024	0.0171290003	-1.04289997	157	239	230
-0.696349978	0.0171460006	-1.04400003	157	239	230
-0.694779992	0.0171629991	-1.04499996	157	239	230
-0.691550016	0.0171390008	-1.04349995	157	239	230
-0.689970016	0.0171559993	-1.04460001	157	239	230
-0.693270028	0.0159920007	-1.04960001	157	239	230
-0.694850028	0.0159760006	-1.04859996	157	239	230
-0.697539985	0.0159859993	-1.04920006	157	239	230
-0.698559999	0.0159569997	-1.04729998	157	239	230
-0.701810002	0.0159789994	-1.04879999	157	239	230
-0.703390002	0.0159629993	-1.04770005	157	239	230
-0.705529988	0.0159600005	-1.04750001	157	239	230
-0.691680014	0.0160080008	-1.05069995	157	239	230
-0.691680014	0.0149229998	-1.05069995	157	239	230
-0.691919982	0.0190309994	-1.03729999	157	239	230
-0.693490028	0.0190120004	-1.03620005	157	239	230
-0.69404	0.0200420003	-1.03699994	157	239	230
-0.693490028	0.0210260004	-1.03620005	157	239	230
-0.69137001	0.0210299995	-1.03639996	157	239	230
-0.690819979	0.0200139992	-1.03559995	157	239	230
-0.688239992	0.0220849998	-1.03840005	157	239	230
-0.689809978	0.0261640009	-1.03729999	157	239	230
-0.691919982	0.0261579994	-1.03709996	157	239	230
-0.694490016	0.0250579994	-1.03419995	157	239	230
-0.696049988	0.0250330009	-1.03320003	157	239	230
-0.69660002	0.0260799993	-1.03400004	157	239	230
-0.69660002	0.0271129999	-1.03400004	157	239	230
-0.697600007	0.0270639993	-1.03209996	157	239	230
-0.701960027	0.0312770009	-1.03509998	157	239	230
-0.704079986	0.0312700011	-1.03480005	157	239	230
-0.704079986	0.0302220006	-1.03489995	157	239	230
-0.704639971	0.0323369987	-1.03559995	157	239	230
-0.705200016	0.0333990008	-1.03639996	157	239	230
-0.704639971	0.0343869999	-1.03559995	157	239	230
-0.703079998	0.0344230011	-1.03659999	157	239	230
-0.703639984	0.0354470015	-1.03740001	157	239	230
-0.703639984	0.0334330015	-1.03750002	157	239	230
-0.703079998	0.0323700011	-1.03670001	157	239	230
-0.701520026	0.0354540013	-1.03760004	157	239	230
-0.69994998	0.0354899988	-1.03869998	157	239	230
-0.697830021	0.0354980007	-1.03890002	157	239	230
-0.697269976	0.0344719999	-1.0381	157	239	230
-0.697269976	0.0334549993	-1.0381	157	239	230
-0.696709991	0.0323910005	-1.03729999	157	239	230
-0.695150018	0.0324230008	-1.03840005	157	239	230
-0.695150018	0.0334619991	-1.03840005	157	239	230
-0.693490028	0.0343969986	-1.03579998	157	239	230
-0.692929983	0.0353629999	-1.03499997	157	239	230
-0.690819979	0.0343759991	-1.0352	157	239	230
-0.690819979	0.0333609991	-1.0352	157	239	230
-0.68870002	0.0333679989	-1.03540003	157	239	230
-0.688149989	0.0343549997	-1.03460002	157	239	230
-0.687139988	0.0344169997	-1.03639996	157	239	230
-0.687139988	0.0334010012	-1.03649998	157	239	230
-0.685029984	0.0344230011	-1.03659999	157	239	230
-0.686129987	0.0354759991	-1.03830004	157	239	230
-0.687780023	0.0366020016	-1.04069996	157	239	230
-0.689899981	0.0365950018	-1.04050004	157	239	230
-0.689350009	0.035526	-1.03970003	157	239	230
-0.690909982	0.0365290008	-1.03869998	157	239	230
-0.691460013	0.0355190001	-1.0395	157	239	230
-0.692480028	0.0354549997	-1.03770006	157	239	230
-0.694140017	0.0365800001	-1.04009998	157	239	230
-0.696259975	0.0365730003	-1.03989995	157	239	230
-0.697830021	0.0376150012	-1.0388	157	239	230
-0.699389994	0.0375769995	-1.03779995	157	239	230
-0.701070011	0.0365869999	-1.04030001	157	239	230
-0.699500024	0.0366239995	-1.04139996	157	239	230
-0.697369993	0.0377129987	-1.04149997	157	239	230
-0.693120003	0.0377280004	-1.04200006	157	239	230
-0.698830009	0.0344379991	-1.03709996	157	239	230
-0.698830009	0.0334209986	-1.03709996	157	239	230
-0.699840009	0.0333600007	-1.0352	157	239	230
-0.699840009	0.0343750007	-1.0352	157	239	230
-0.703949988	0.0332319997	-1.03120005	157	239	230
-0.703949988	0.0322000012	-1.03129995	157	239	230
-0.705500007	0.0321669988	-1.0302	157	239	230
-0.705500007	0.033197999	-1.0302	157	239	230
-0.707610011	0.0331900008	-1.02989995	157	239	230
