-0.650110006	-0.682380021	-1.18449998	240	227	0
-0.650110006	-0.682609975	-1.18429995	240	227	0
-0.650110006	-0.683269978	-1.18400002	240	227	0
-0.650110006	-0.683470011	-1.1839	240	227	0
-0.650520027	-0.683910012	-1.1846	240	227	0
-0.650520027	-0.68384999	-1.18470001	240	227	0
-0.650520027	-0.683640003	-1.18480003	240	227	0
-0.650520027	-0.682829976	-1.18529999	240	227	0
-0.650520027	-0.682749987	-1.18529999	240	227	0
-0.650520027	-0.682630002	-1.18540001	240	227	0
-0.650520027	-0.682630002	-1.18540001	240	227	0
-0.650520027	-0.682619989	-1.18540001	240	227	0
-0.650520027	-0.68204999	-1.18570006	240	227	0
-0.650520027	-0.681490004	-1.18599999	240	227	0
-0.650940001	-0.682259977	-1.18669999	240	227	0
-0.650940001	-0.682500005	-1.18649995	240	227	0
-0.650940001	-0.682749987	-1.18640006	240	227	0
-0.650940001	-0.683659971	-1.18579996	240	227	0
-0.650940001	-0.683780015	-1.18579996	240	227	0
-0.650940001	-0.684379995	-1.18540001	240	227	0
-0.651759982	-0.683939993	-1.18780005	240	227	0
-0.651759982	-0.683409989	-1.18809998	240	227	0
-0.649609983	-0.683889985	-1.18889999	240	227	0
-0.650020003	-0.684350014	-1.18970001	240	227	0
-0.650020003	-0.684400022	-1.18970001	240	227	0
-0.649609983	-0.685140014	-1.1882	240	227	0
-0.649200022	-0.684840024	-1.18729997	240	227	0
-0.649200022	-0.68532002	-1.18710005	240	227	0
-0.647059977	-0.683920026	-1.18900001	240	227	0
-0.647469997	-0.684369981	-1.18980002	240	227	0
-0.647880018	-0.68483001	-1.19060004	240	227	0
-0.648280025	-0.685280025	-1.19130003	240	227	0
-0.648790002	-0.682179987	-1.18780005	240	227	0
-0.648790002	-0.68167001	-1.18809998	240	227	0
-0.648790002	-0.680239975	-1.18889999	240	227	0
-0.648790002	-0.679889977	-1.18910003	240	227	0
-0.647970021	-0.680499971	-1.18669999	240	227	0
-0.645020008	-0.678900003	-1.18659997	240	227	0
-0.642470002	-0.681659997	-1.18509996	240	227	0
-0.642470002	-0.682250023	-1.18470001	240	227	0
-0.642470002	-0.682280004	-1.18470001	240	227	0
-0.644200027	-0.681299984	-1.18309999	240	227	0
-0.64297998	-0.679949999	-1.18069994	240	227	0
-0.648060024	-0.679899991	-1.18060005	240	227	0
-0.640739977	-0.680429995	-1.18789995	240	227	0
-0.641139984	-0.681990027	-1.18809998	240	227	0
-0.642359972	-0.68096	-1.1918	240	227	0
-0.642759979	-0.681770027	-1.19239998	240	227	0
-0.642759979	-0.682410002	-1.19200003	240	227	0
-0.643169999	-0.681029975	-1.19389999	240	227	0
-0.642759979	-0.680180013	-1.19330001	240	227	0
-0.642759979	-0.678969979	-1.19400001	240	227	0
-0.642759979	-0.678550005	-1.19420004	240	227	0
-0.642759979	-0.678129971	-1.19449997	240	227	0
-0.643169999	-0.678110003	-1.19550002	240	227	0
-0.643169999	-0.677630007	-1.19579995	240	227	0
-0.643169999	-0.679820001	-1.19459999	240	227	0
-0.646130025	-0.681469977	-1.19459999	240	227	0
-0.646539986	-0.681509972	-1.19570005	240	227	0
-0.648689985	-0.681039989	-1.19480002	240	227	0
-0.648280025	-0.680180013	-1.19430006	240	227	0
-0.650839984	-0.67851001	-1.19519997	240	227	0
-0.651250005	-0.678009987	-1.19649994	240	227	0
-0.652069986	-0.67839998	-1.19840002	240	227	0
-0.652480006	-0.679840028	-1.19860005	240	227	0
-0.649100006	-0.676379979	-1.19850004	240	227	0
-0.649100006	-0.675890028	-1.19879997	240	227	0
-0.649100006	-0.675400019	-1.19910002	240	227	0
-0.649100006	-0.674199998	-1.1997	240	227	0
-0.649510026	-0.67404002	-1.20089996	240	227	0
-0.650730014	-0.674769998	-1.20360005	240	227	0
-0.645600021	-0.67543	-1.20340002	240	227	0
-0.645190001	-0.674369991	-1.20290005	240	227	0
-0.644789994	-0.672770023	-1.20280004	240	227	0
-0.644379973	-0.672900021	-1.20159996	240	227	0
-0.644789994	-0.675140023	-1.20140004	240	227	0
-0.644789994	-0.675750017	-1.20109999	240	227	0
-0.644789994	-0.676840007	-1.20050001	240	227	0
-0.645190001	-0.677779973	-1.20099998	240	227	0
-0.644379973	-0.675899982	-1.19990003	240	227	0
-0.643980026	-0.676970005	-1.1983	240	227	0
-0.644379973	-0.677959979	-1.19879997	240	227	0
-0.644379973	-0.678470016	-1.19850004	240	227	0
-0.641820014	-0.678489983	-1.19850004	240	227	0
-0.641820014	-0.677969992	-1.19879997	240	227	0
-0.641420007	-0.676989973	-1.1983	240	227	0
-0.642229974	-0.677349985	-1.20019996	240	227	0
-0.642229974	-0.676370025	-1.20079994	240	227	0
-0.642229974	-0.675769985	-1.20109999	240	227	0
-0.642629981	-0.675610006	-1.20229995	240	227	0
-0.643040001	-0.675450027	-1.20340002	240	227	0
-0.643040001	-0.677749991	-1.20210004	240	227	0
-0.640470028	-0.677770019	-1.20210004	240	227	0
-0.637910008	-0.677789986	-1.20220006	240	227	0
-0.637510002	-0.676850021	-1.20159996	240	227	0
-0.637510002	-0.676249981	-1.20200002	240	227	0
-0.637109995	-0.675189972	-1.20150006	240	227	0
-0.635510027	-0.675570011	-1.19710004	240	227	0
-0.635510027	-0.676110029	-1.19679999	240	227	0
-0.635510027	-0.676649988	-1.19649994	240	227	0
-0.635510027	-0.677160025	-1.19620001	240	227	0
-0.63391	-0.678460002	-1.19120002	240	227	0
-0.634310007	-0.681550026	-1.19050002	240	227	0
-0.634710014	-0.682299972	-1.19120002	240	227	0
-0.633109987	-0.681580007	-1.18729997	240	227	0
-0.628019989	-0.681330025	-1.1875	240	227	0
-0.628019989	-0.680779994	-1.18780005	240	227	0
-0.627629995	-0.680610001	-1.18690002	240	227	0
-0.628019989	-0.679899991	-1.18830001	240	227	0
-0.628019989	-0.679549992	-1.18850005	240	227	0
-0.62549001	-0.68107003	-1.18770003	240	227	0
-0.62470001	-0.679870009	-1.18620002	240	227	0
-0.623899996	-0.680819988	-1.18359995	240	227	0
-0.623899996	-0.681270003	-1.18330002	240	227	0
-0.623510003	-0.680360019	-1.18280005	240	227	0
-0.623899996	-0.682630002	-1.1825	240	227	0
-0.623899996	-0.682640016	-1.1825	240	227	0
-0.622950017	-0.684459984	-1.18570006	240	227	0
-0.622950017	-0.68453002	-1.18570006	240	227	0
-0.623340011	-0.684889972	-1.18649995	240	227	0
-0.623340011	-0.684979975	-1.18649995	240	227	0
-0.623340011	-0.684989989	-1.18649995	240	227	0
-0.623740017	-0.685239971	-1.18739998	240	227	0
-0.626670003	-0.685890019	-1.18809998	240	227	0
-0.628970027	-0.677730024	-1.18529999	240	227	0
-0.629220009	-0.677709997	-1.19280005	240	227	0
-0.61767	-0.681190014	-1.18019998	240	227	0
-0.640209973	-0.682430029	-1.19210005	240	227	0
-0.640209973	-0.681429982	-1.19260001	240	227	0
-0.641820014	-0.673500001	-1.20130002	240	227	0
-0.641820014	-0.672919989	-1.20169997	240	227	0
-0.642229974	-0.672789991	-1.20280004	240	227	0
-0.650200009	-0.669570029	-1.21179998	240	227	0
-0.651009977	-0.669749975	-1.21379995	240	227	0
-0.648440003	-0.669770002	-1.21379995	240	227	0
-0.648029983	-0.670040011	-1.21259999	240	227	0
-0.649789989	-0.666849971	-1.21229994	240	227	0
-0.652369976	-0.66681999	-1.21220005	240	227	0
-0.655350029	-0.667240024	-1.21300006	240	227	0
-0.65575999	-0.669250011	-1.21290004	240	227	0
-0.656170011	-0.671109974	-1.21290004	240	227	0
-0.656989992	-0.672730029	-1.2141	240	227	0
-0.659169972	-0.672259986	-1.21319997	240	227	0
-0.660929978	-0.67207998	-1.2112	240	227	0
-0.660929978	-0.672819972	-1.21070004	240	227	0
-0.660510004	-0.673110008	-1.20949996	240	227	0
-0.659690022	-0.672819972	-1.2076	240	227	0
-0.660099983	-0.670459986	-1.21000004	240	227	0
-0.660099983	-0.669719994	-1.21039999	240	227	0
-0.660099983	-0.669009984	-1.21080005	240	227	0
-0.663089991	-0.667919993	-1.21229994	240	227	0
-0.663919985	-0.668009996	-1.21440005	240	227	0
-0.663919985	-0.666570008	-1.21519995	240	227	0
-0.663510025	-0.66523999	-1.2148	240	227	0
-0.665679991	-0.664759994	-1.21399999	240	227	0
-0.666509986	-0.666530013	-1.21510005	240	227	0
-0.66693002	-0.667689979	-1.2155	240	227	0
-0.667339981	-0.668850005	-1.21589994	240	227	0
-0.66474998	-0.668169975	-1.21640003	240	227	0
-0.665260017	-0.667439997	-1.21150005	240	227	0
-0.664849997	-0.667789996	-1.21019995	240	227	0
-0.665260017	-0.668940008	-1.21060002	240	227	0
-0.665679991	-0.670080006	-1.21099997	240	227	0
-0.665679991	-0.670819998	-1.21060002	240	227	0
-0.666090012	-0.671999991	-1.21099997	240	227	0
-0.663510025	-0.672039986	-1.21109998	240	227	0
-0.667840004	-0.667400002	-1.21140003	240	227	0
-0.672950029	-0.672200024	-1.21490002	240	227	0
-0.676450014	-0.669629991	-1.2119	240	227	0
-0.678619981	-0.668439984	-1.21140003	240	227	0
-0.679040015	-0.669579983	-1.21179998	240	227	0
-0.679040015	-0.668089986	-1.21259999	240	227	0
-0.677770019	-0.66970998	-1.20860004	240	227	0
-0.677339971	-0.670009971	-1.20739996	240	227	0
-0.677770019	-0.671190023	-1.20780003	240	227	0
-0.678619981	-0.672800004	-1.20899999	240	227	0
-0.682060003	-0.673629999	-1.2105	240	227	0
-0.68423003	-0.673129976	-1.20959997	240	227	0
-0.683799982	-0.673290014	-1.20850003	240	227	0
-0.683369994	-0.671519995	-1.20840001	240	227	0
-0.68295002	-0.670340002	-1.20799994	240	227	0
-0.68554002	-0.67027998	-1.20790005	240	227	0
-0.686399996	-0.671899974	-1.20910001	240	227	0
-0.686399996	-0.672630012	-1.20869994	240	227	0
-0.686819971	-0.673669994	-1.20910001	240	227	0
-0.685970008	-0.673380017	-1.20720005	240	227	0
-0.685970008	-0.674109995	-1.20679998	240	227	0
-0.68554002	-0.674380004	-1.20560002	240	227	0
-0.68554002	-0.674960017	-1.20529997	240	227	0
-0.685109973	-0.675100029	-1.20420003	240	227	0
-0.687699974	-0.675040007	-1.20410001	240	227	0
-0.687699974	-0.674459994	-1.20439994	240	227	0
-0.686839998	-0.672999978	-1.20319998	240	227	0
-0.686839998	-0.674759984	-1.20220006	240	227	0
-0.68641001	-0.674929976	-1.20099998	240	227	0
-0.68641001	-0.67553997	-1.20070004	240	227	0
-0.685980022	-0.676180005	-1.19930005	240	227	0
-0.686839998	-0.677559972	-1.20060003	240	227	0
-0.68900001	-0.677049994	-1.1997	240	227	0
-0.68900001	-0.676559985	-1.20000005	240	227	0
-0.68900001	-0.674870014	-1.20089996	240	227	0
-0.68900001	-0.67426002	-1.20130002	240	227	0
-0.689429998	-0.674090028	-1.20239997	240	227	0
-0.68900001	-0.672490001	-1.20229995	240	227	0
-0.69115001	-0.671989977	-1.20140004	240	227	0
-0.69115001	-0.673749983	-1.20039999	240	227	0
-0.691579998	-0.674799979	-1.20079994	240	227	0
-0.69115001	-0.674969971	-1.1997	240	227	0
-0.69115001	-0.676050007	-1.19910002	240	227	0
-0.69115001	-0.676540017	-1.19879997	240	227	0
-0.69115001	-0.677619994	-1.19819999	240	227	0
-0.69028002	-0.677240014	-1.19630003	240	227	0
-0.69028002	-0.677749991	-1.19599998	240	227	0
-0.69028002	-0.678240001	-1.19579995	240	227	0
-0.689849973	-0.678269982	-1.1947	240	227	0
-0.689419985	-0.678659976	-1.19350004	240	227	0
-0.688979983	-0.679019988	-1.19219995	240	227	0
-0.688549995	-0.678969979	-1.19120002	240	227	0
-0.688120008	-0.678929985	-1.19019997	240	227	0
-0.688979983	-0.680239975	-1.19149995	240	227	0
-0.688979983	-0.680649996	-1.19130003	240	227	0
-0.688979983	-0.681010008	-1.1911	240	227	0
-0.688120008	-0.681339979	-1.18879998	240	227	0
-0.688120008	-0.681630015	-1.18859994	240	227	0
-0.687680006	-0.682210028	-1.18729997	240	227	0
-0.687680006	-0.682510018	-1.18710005	240	227	0
-0.687680006	-0.68276	-1.18700004	240	227	0
-0.687680006	-0.683290005	-1.18669999	240	227	0
-0.687680006	-0.68384999	-1.18630004	240	227	0
-0.687680006	-0.684520006	-1.18589997	240	227	0
-0.687250018	-0.683899999	-1.18529999	240	227	0
-0.687250018	-0.683950007	-1.18519998	240	227	0
-0.687250018	-0.683979988	-1.18519998	240	227	0
-0.687250018	-0.684119999	-1.18509996	240	227	0
-0.687250018	-0.684159994	-1.18509996	240	227	0
-0.687250018	-0.684189975	-1.18509996	240	227	0
-0.687250018	-0.683329999	-1.18560004	240	227	0
-0.687250018	-0.682929993	-1.18579996	240	227	0
-0.687250018	-0.682889998	-1.18579996	240	227	0
-0.687250018	-0.682879984	-1.18589997	240	227	0
-0.687250018	-0.682569981	-1.18599999	240	227	0
-0.687250018	-0.682309985	-1.18620002	240	227	0
-0.688120008	-0.683210015	-1.18770003	240	227	0
-0.688549995	-0.683659971	-1.18850005	240	227	0
-0.688979983	-0.684109986	-1.18929994	240	227	0
-0.689419985	-0.684560001	-1.19009995	240	227	0
-0.689419985	-0.683749974	-1.19050002	240	227	0
-0.69155997	-0.68404001	-1.18920004	240	227	0
-0.69155997	-0.684090018	-1.18920004	240	227	0
-0.691999972	-0.684490025	-1.19000006	240	227	0
-0.692430019	-0.684939981	-1.19070005	240	227	0
-0.691999972	-0.683430016	-1.19060004	240	227	0
-0.691129982	-0.682780027	-1.18889999	240	227	0
-0.690689981	-0.681829989	-1.18840003	240	227	0
-0.690689981	-0.679690003	-1.18959999	240	227	0
-0.691129982	-0.679729998	-1.19060004	240	227	0
-0.691129982	-0.679310024	-1.19089997	240	227	0
-0.691129982	-0.678910017	-1.1911	240	227	0
-0.691999972	-0.679390013	-1.19289994	240	227	0
-0.692430019	-0.679440022	-1.19389999	240	227	0
-0.692430019	-0.679030001	-1.19410002	240	227	0
-0.692870021	-0.679059982	-1.19509995	240	227	0
-0.692870021	-0.678640008	-1.1954	240	227	0
-0.693300009	-0.677619994	-1.19700003	240	227	0
-0.692870021	-0.676660001	-1.19649994	240	227	0
-0.692870021	-0.675589979	-1.19710004	240	227	0
-0.693300009	-0.67553997	-1.19819999	240	227	0
-0.692430019	-0.674170017	-1.19690001	240	227	0
-0.691999972	-0.67523998	-1.19519997	240	227	0
-0.689849973	-0.675750017	-1.1961	240	227	0
-0.69028002	-0.674679995	-1.19780004	240	227	0
-0.688130021	-0.674589992	-1.199	240	227	0
-0.687699974	-0.674740016	-1.19790006	240	227	0
-0.687269986	-0.675819993	-1.19630003	240	227	0
-0.686839998	-0.676419973	-1.19490004	240	227	0
-0.687699974	-0.677820027	-1.19620001	240	227	0
-0.687699974	-0.678300023	-1.19589996	240	227	0
-0.687269986	-0.678749979	-1.19459999	240	227	0
-0.686839998	-0.678719997	-1.19360006	240	227	0
-0.686399996	-0.679080009	-1.19229996	240	227	0
-0.686399996	-0.679480016	-1.19210005	240	227	0
-0.686399996	-0.680719972	-1.19140005	240	227	0
-0.68554002	-0.680180013	-1.18959999	240	227	0
-0.685109973	-0.680079997	-1.18859994	240	227	0
-0.685109973	-0.680660009	-1.18830001	240	227	0
-0.685109973	-0.681509972	-1.18780005	240	227	0
-0.685109973	-0.68226999	-1.18739998	240	227	0
-0.685109973	-0.682820022	-1.18710005	240	227	0
-0.685109973	-0.683269978	-1.1868	240	227	0
-0.684669971	-0.682959974	-1.18599999	240	227	0
-0.684669971	-0.682990015	-1.18589997	240	227	0
-0.684669971	-0.683160007	-1.18579996	240	227	0
-0.684669971	-0.683160007	-1.18579996	240	227	0
-0.684669971	-0.683470011	-1.18570006	240	227	0
-0.684669971	-0.683969975	-1.18540001	240	227	0
-0.684239984	-0.683730006	-1.18449998	240	227	0
-0.684239984	-0.683679998	-1.18449998	240	227	0
-0.684239984	-0.683770001	-1.18439996	240	227	0
-0.684239984	-0.683200002	-1.18480003	240	227	0
-0.684239984	-0.683080018	-1.18480003	240	227	0
-0.684239984	-0.682510018	-1.18519998	240	227	0
-0.684239984	-0.682449996	-1.18519998	240	227	0
-0.684239984	-0.682179987	-1.18540001	240	227	0
-0.684239984	-0.681919992	-1.18550003	240	227	0
-0.684669971	-0.682370007	-1.18630004	240	227	0
-0.684669971	-0.681569993	-1.1868	240	227	0
-0.684239984	-0.680869997	-1.18610001	240	227	0
-0.684239984	-0.679470003	-1.18690002	240	227	0
-0.682099998	-0.68028003	-1.18760002	240	227	0
-0.682099998	-0.679690003	-1.18799996	240	227	0
-0.682099998	-0.679340005	-1.1882	240	227	0
-0.68167001	-0.679530025	-1.18700004	240	227	0
-0.679099977	-0.67930001	-1.18729997	240	227	0
-0.678669989	-0.679139972	-1.18630004	240	227	0
-0.676110029	-0.679199994	-1.18640006	240	227	0
-0.676110029	-0.678900003	-1.18659997	240	227	0
-0.673969984	-0.679700017	-1.18729997	240	227	0
-0.674390018	-0.680729985	-1.18780005	240	227	0
-0.673969984	-0.680830002	-1.18669999	240	227	0
-0.673539996	-0.680119991	-1.18599999	240	227	0
-0.673539996	-0.680639982	-1.18570006	240	227	0
-0.674390018	-0.681789994	-1.18710005	240	227	0
-0.674820006	-0.680299997	-1.18900001	240	227	0
-0.675670028	-0.681789994	-1.19029999	240	227	0
-0.676100016	-0.680530012	-1.19200003	240	227	0
-0.67651999	-0.681389987	-1.19260001	240	227	0
-0.67651999	-0.68175	-1.19239998	240	227	0
-0.67651999	-0.680559993	-1.19309998	240	227	0
-0.676100016	-0.679310024	-1.19270003	240	227	0
-0.676100016	-0.678910017	-1.19299996	240	227	0
-0.675670028	-0.678059995	-1.19239998	240	227	0
-0.675670028	-0.677640021	-1.19260001	240	227	0
-0.675670028	-0.676750004	-1.19309998	240	227	0
-0.673529983	-0.677250028	-1.19400001	240	227	0
-0.673529983	-0.678139985	-1.19350004	240	227	0
-0.673529983	-0.678560019	-1.19330001	240	227	0
-0.673950016	-0.679409981	-1.19379997	240	227	0
-0.674369991	-0.680260003	-1.19439995	240	227	0
-0.673950016	-0.680620015	-1.19319999	240	227	0
-0.673950016	-0.681029975	-1.19289994	240	227	0
-0.671379983	-0.680670023	-1.19319999	240	227	0
-0.671800017	-0.68265003	-1.19309998	240	227	0
-0.671379983	-0.682500005	-1.19219995	240	227	0
-0.671379983	-0.682789981	-1.19200003	240	227	0
-0.670109987	-0.681729972	-1.18949997	240	227	0
-0.670109987	-0.683600008	-1.18840003	240	227	0
-0.669690013	-0.683149993	-1.18760002	240	227	0
-0.669690013	-0.683790028	-1.18729997	240	227	0
-0.670109987	-0.684880018	-1.18770003	240	227	0
-0.670109987	-0.685459971	-1.18729997	240	227	0
-0.672249973	-0.684859991	-1.18649995	240	227	0
-0.670530021	-0.684050024	-1.18920004	240	227	0
-0.668380022	-0.684549987	-1.19009995	240	227	0
-0.667959988	-0.682519972	-1.19019997	240	227	0
-0.667540014	-0.682330012	-1.18929994	240	227	0
-0.667540014	-0.681779981	-1.18959999	240	227	0
-0.665820003	-0.683009982	-1.1911	240	227	0
-0.668799996	-0.680310011	-1.19350004	240	227	0
-0.668799996	-0.678680003	-1.19449997	240	227	0
-0.668799996	-0.678260028	-1.1947	240	227	0
-0.669229984	-0.678240001	-1.19579995	240	227	0
-0.669650018	-0.678200006	-1.19679999	240	227	0
-0.670069993	-0.677630007	-1.19819999	240	227	0
-0.669650018	-0.675610006	-1.1983	240	227	0
-0.669650018	-0.675119996	-1.19860005	240	227	0
-0.669650018	-0.674530029	-1.19889998	240	227	0
-0.669650018	-0.673919976	-1.19920003	240	227	0
-0.671800017	-0.67404002	-1.19799995	240	227	0
-0.672219992	-0.673870027	-1.19920003	240	227	0
-0.669229984	-0.675660014	-1.19719994	240	227	0
-0.669229984	-0.676190019	-1.19690001	240	227	0
-0.66790998	-0.678120017	-1.19910002	240	227	0
-0.66790998	-0.678629994	-1.19879997	240	227	0
-0.670910001	-0.679030001	-1.19949996	240	227	0
-0.669650018	-0.680800021	-1.1954	240	227	0
-0.667490005	-0.681299984	-1.19620001	240	227	0
-0.664919972	-0.681339979	-1.19630003	240	227	0
-0.66061002	-0.677600026	-1.20070004	240	227	0
-0.661019981	-0.674650013	-1.20340002	240	227	0
-0.660679996	-0.684669971	-1.19029999	240	227	0
-0.660269976	-0.684220016	-1.18949997	240	227	0
-0.660269976	-0.684809983	-1.18920004	240	227	0
-0.659850001	-0.684350014	-1.18840003	240	227	0
-0.659850001	-0.683770001	-1.18869996	240	227	0
-0.659430027	-0.68392998	-1.18760002	240	227	0
-0.659430027	-0.684099972	-1.1875	240	227	0
-0.659430027	-0.684560001	-1.18719995	240	227	0
-0.659430027	-0.68513	-1.18690002	240	227	0
-0.659430027	-0.685150027	-1.18690002	240	227	0
-0.659430027	-0.685190022	-1.1868	240	227	0
-0.659850001	-0.685360014	-1.18780005	240	227	0
-0.660269976	-0.686070025	-1.18840003	240	227	0
-0.662410021	-0.685580015	-1.18760002	240	227	0
-0.662410021	-0.685370028	-1.18770003	240	227	0
-0.658119977	-0.684710026	-1.1904	240	227	0
-0.657700002	-0.684260011	-1.18959999	240	227	0
-0.655560017	-0.684740007	-1.1904	240	227	0
-0.656870008	-0.685029984	-1.18700004	240	227	0
-0.656870008	-0.685140014	-1.18700004	240	227	0
-0.656870008	-0.685169995	-1.18690002	240	227	0
-0.656870008	-0.685180008	-1.18690002	240	227	0
-0.656870008	-0.685230017	-1.18690002	240	227	0
-0.656870008	-0.680599988	-1.18959999	240	227	0
-0.657289982	-0.679939985	-1.19099998	240	227	0
-0.657289982	-0.679520011	-1.19120002	240	227	0
-0.653410017	-0.680939972	-1.19369996	240	227	0
-0.671400011	-0.681389987	-1.18640006	240	227	0
-0.671400011	-0.68088001	-1.18669999	240	227	0
-0.670979977	-0.68017	-1.18610001	240	227	0
-0.670560002	-0.680239975	-1.18499994	240	227	0
-0.669279993	-0.679700017	-1.18219995	240	227	0
-0.669279993	-0.681460023	-1.18120003	240	227	0
-0.67098999	-0.678990006	-1.18040001	240	227	0
-0.675249994	-0.681680024	-1.18289995	240	227	0
-0.675249994	-0.681829989	-1.18280005	240	227	0
-0.675249994	-0.682139993	-1.18270004	240	227	0
-0.677389979	-0.681330025	-1.18200004	240	227	0
-0.677389979	-0.68118	-1.18200004	240	227	0
-0.677820027	-0.682079971	-1.18260002	240	227	0
-0.677820027	-0.682190001	-1.1825	240	227	0
-0.677820027	-0.682529986	-1.18229997	240	227	0
-0.678250015	-0.683009982	-1.18309999	240	227	0
-0.678250015	-0.683019996	-1.18309999	240	227	0
-0.678250015	-0.682659984	-1.18330002	240	227	0
-0.678250015	-0.681140006	-1.18410003	240	227	0
-0.677820027	-0.680689991	-1.18340003	240	227	0
-0.679949999	-0.680180013	-1.1825	240	227	0
-0.680379987	-0.680630028	-1.18330002	240	227	0
-0.680379987	-0.681879997	-1.1825	240	227	0
-0.679949999	-0.681580007	-1.18169999	240	227	0
-0.679949999	-0.68204999	-1.18139994	240	227	0
-0.679520011	-0.681230009	-1.18079996	240	227	0
-0.681649983	-0.680719972	-1.17999995	240	227	0
-0.687650025	-0.681779981	-1.18110001	240	227	0
-0.688080013	-0.682259977	-1.18190002	240	227	0
-0.688080013	-0.682290018	-1.18190002	240	227	0
-0.688950002	-0.683179975	-1.18340003	240	227	0
-0.688950002	-0.682869971	-1.18359995	240	227	0
-0.688950002	-0.68283999	-1.18359995	240	227	0
-0.689390004	-0.681800008	-1.18529999	240	227	0
-0.688080013	-0.680450022	-1.18289995	240	227	0
-0.691529989	-0.678830028	-1.18579996	240	227	0
-0.691529989	-0.678539991	-1.18599999	240	227	0
-0.691959977	-0.679570019	-1.18640006	240	227	0
-0.691959977	-0.680149972	-1.18610001	240	227	0
-0.692399979	-0.680310011	-1.18700004	240	227	0
-0.694980025	-0.680239975	-1.18690002	240	227	0
-0.695410013	-0.679809988	-1.1882	240	227	0
-0.696290016	-0.680350006	-1.18990004	240	227	0
-0.696290016	-0.680000007	-1.19009995	240	227	0
-0.696290016	-0.679589987	-1.1904	240	227	0
-0.696730018	-0.679210007	-1.19159997	240	227	0
-0.696730018	-0.67881	-1.19190001	240	227	0
-0.696730018	-0.678409994	-1.19210005	240	227	0
-0.697170019	-0.678449988	-1.19309998	240	227	0
-0.698050022	-0.678919971	-1.19490004	240	227	0
-0.69848001	-0.678939998	-1.19589996	240	227	0
-0.698920012	-0.678430021	-1.19719994	240	227	0
-0.699360013	-0.679359972	-1.19770002	240	227	0
-0.6972	-0.679870009	-1.19869995	240	227	0
-0.696770012	-0.678950012	-1.19809997	240	227	0
-0.695890009	-0.677550018	-1.19690001	240	227	0
-0.695460021	-0.676590025	-1.19640005	240	227	0
-0.69502002	-0.675620019	-1.19589996	240	227	0
-0.695460021	-0.675520003	-1.19700003	240	227	0
-0.698050022	-0.675979972	-1.19659996	240	227	0
-0.69848001	-0.675890028	-1.19760001	240	227	0
-0.69848001	-0.676959991	-1.19700003	240	227	0
-0.698050022	-0.677030027	-1.19599998	240	227	0
-0.695460021	-0.678990006	-1.19500005	240	227	0
-0.69502002	-0.678960025	-1.19400001	240	227	0
-0.69502002	-0.679369986	-1.19379997	240	227	0
-0.694580019	-0.677680016	-1.19369996	240	227	0
-0.694149971	-0.678879976	-1.19200003	240	227	0
-0.694149971	-0.679279983	-1.19169998	240	227	0
-0.694149971	-0.680100024	-1.19130003	240	227	0
-0.693710029	-0.680069983	-1.19029999	240	227	0
-0.693710029	-0.680419981	-1.19009995	240	227	0
-0.693710029	-0.682210028	-1.18900001	240	227	0
-0.696290016	-0.682129979	-1.18889999	240	227	0
-0.696290016	-0.681869984	-1.18910003	240	227	0
-0.696730018	-0.681439996	-1.19029999	240	227	0
-0.699750006	-0.681810021	-1.19099998	240	227	0
-0.700630009	-0.680869997	-1.19360006	240	227	0
-0.69848001	-0.681389987	-1.19449997	240	227	0
-0.695890009	-0.681469977	-1.19459999	240	227	0
-0.69374001	-0.679059982	-1.19719994	240	227	0
-0.694180012	-0.679019988	-1.1983	240	227	0
-0.696770012	-0.676360011	-1.19959998	240	227	0
-0.696770012	-0.675870001	-1.19990003	240	227	0
-0.696770012	-0.674049973	-1.20089996	240	227	0
-0.697640002	-0.673169971	-1.20350003	240	227	0
-0.698080003	-0.674769998	-1.20360005	240	227	0
-0.698080003	-0.675979972	-1.20290005	240	227	0
-0.698509991	-0.677030027	-1.20340002	240	227	0
-0.701110005	-0.676349998	-1.20360005	240	227	0
-0.700680017	-0.675300002	-1.20309997	240	227	0
-0.699800014	-0.673810005	-1.20190001	240	227	0
-0.699800014	-0.675639987	-1.20089996	240	227	0
-0.699800014	-0.676230013	-1.20050001	240	227	0
-0.699800014	-0.676720023	-1.20029998	240	227	0
-0.701950014	-0.673300028	-1.20099998	240	227	0
-0.704990029	-0.67365998	-1.20159996	240	227	0
-0.705429971	-0.675310016	-1.20169997	240	227	0
-0.705869973	-0.675140023	-1.20280004	240	227	0
-0.706319988	-0.674390018	-1.20430005	240	227	0
-0.706319988	-0.673810005	-1.20459998	240	227	0
-0.704150021	-0.670979977	-1.20739996	240	227	0
-0.701990008	-0.671490014	-1.20829999	240	227	0
-0.701990008	-0.672219992	-1.20790005	240	227	0
-0.701990008	-0.672810018	-1.2076	240	227	0
-0.70243001	-0.67385	-1.20809996	240	227	0
-0.701990008	-0.674139977	-1.2069	240	227	0
-0.701990008	-0.674849987	-1.20650005	240	227	0
-0.701550007	-0.674989998	-1.20539999	240	227	0
-0.698949993	-0.675069988	-1.20550001	240	227	0
-0.698509991	-0.673340023	-1.20539999	240	227	0
-0.698509991	-0.672010005	-1.2062	240	227	0
-0.698509991	-0.671419978	-1.20650005	240	227	0
-0.698080003	-0.669510007	-1.20650005	240	227	0
-0.698509991	-0.669210017	-1.20770001	240	227	0
-0.699389994	-0.669340014	-1.20969999	240	227	0
-0.699389994	-0.668640018	-1.21010005	240	227	0
-0.69678998	-0.668709993	-1.21019995	240	227	0
-0.69678998	-0.669420004	-1.2098	240	227	0
-0.697220027	-0.670589983	-1.21019995	240	227	0
-0.696349978	-0.670459986	-1.20819998	240	227	0
-0.694190025	-0.670220017	-1.20959997	240	227	0
-0.694190025	-0.66948998	-1.21000004	240	227	0
-0.694620013	-0.669219971	-1.21109998	240	227	0
-0.695050001	-0.668940008	-1.21229994	240	227	0
-0.694620013	-0.66693002	-1.21239996	240	227	0
-0.695050001	-0.666649997	-1.21360004	240	227	0
-0.694190025	-0.665059984	-1.21239996	240	227	0
-0.692019999	-0.666279972	-1.21290004	240	227	0
-0.691590011	-0.665130019	-1.21249998	240	227	0
-0.689419985	-0.665629983	-1.21340001	240	227	0
-0.690710008	-0.667649984	-1.21539998	240	227	0
-0.690710008	-0.668370008	-1.21500003	240	227	0
-0.690710008	-0.669160008	-1.21459997	240	227	0
-0.688539982	-0.669659972	-1.2155	240	227	0
-0.688109994	-0.668429971	-1.21510005	240	227	0
-0.688109994	-0.667710006	-1.2155	240	227	0
-0.688109994	-0.666989982	-1.21589994	240	227	0
-0.688970029	-0.666960001	-1.21800005	240	227	0
-0.689400017	-0.666480005	-1.21930003	240	227	0
-0.688970029	-0.665269971	-1.21889997	240	227	0
-0.688539982	-0.664049983	-1.21860003	240	227	0
-0.690710008	-0.663550019	-1.2177	240	227	0
-0.691139996	-0.664770007	-1.21800005	240	227	0
-0.691569984	-0.665989995	-1.2184	240	227	0
-0.691139996	-0.666469991	-1.21710002	240	227	0
-0.693750024	-0.666400015	-1.21700001	240	227	0
-0.69461	-0.665570021	-1.21949995	240	227	0
-0.694180012	-0.663450003	-1.21959996	240	227	0
-0.694180012	-0.661660016	-1.22060001	240	227	0
-0.692439973	-0.663460016	-1.22179997	240	227	0
-0.692009985	-0.663950026	-1.22049999	240	227	0
-0.689830005	-0.664439976	-1.22140002	240	227	0
-0.689830005	-0.663519979	-1.22189999	240	227	0
-0.689400017	-0.661350012	-1.22210002	240	227	0
-0.690259993	-0.661270022	-1.22420001	240	227	0
-0.690689981	-0.660759985	-1.22549999	240	227	0
-0.691110015	-0.660239995	-1.22679996	240	227	0
-0.690259993	-0.658420026	-1.22570002	240	227	0
-0.690689981	-0.657880008	-1.227	240	227	0
-0.692870021	-0.657389998	-1.22609997	240	227	0
-0.692439973	-0.657930017	-1.22479999	240	227	0
-0.693300009	-0.659739971	-1.22590005	240	227	0
-0.692870021	-0.660269976	-1.22459996	240	227	0
-0.692439973	-0.660780013	-1.22329998	240	227	0
-0.691139996	-0.660420001	-1.22039998	240	227	0
-0.689849973	-0.66000998	-1.21749997	240	227	0
-0.688109994	-0.660929978	-1.21920002	240	227	0
-0.686789989	-0.662280023	-1.22169995	240	227	0
-0.686789989	-0.663150012	-1.22130001	240	227	0
-0.686789989	-0.661409974	-1.22220004	240	227	0
-0.687219977	-0.660899997	-1.22350001	240	227	0
-0.688069999	-0.659870028	-1.22609997	240	227	0
-0.688499987	-0.659340024	-1.22739995	240	227	0
-0.688499987	-0.661249995	-1.22640002	240	227	0
-0.686320007	-0.658860028	-1.22880006	240	227	0
-0.683709979	-0.658909976	-1.22899997	240	227	0
-0.683709979	-0.659889996	-1.22839999	240	227	0
-0.683279991	-0.660409987	-1.22710001	240	227	0
-0.683709979	-0.661800027	-1.22739995	240	227	0
-0.684130013	-0.66316998	-1.2277	240	227	0
-0.681519985	-0.663219988	-1.22780001	240	227	0
-0.681940019	-0.662710011	-1.22909999	240	227	0
-0.681940019	-0.661759973	-1.22959995	240	227	0
-0.681100011	-0.659940004	-1.22850001	240	227	0
-0.681100011	-0.657989979	-1.22959995	240	227	0
-0.681100011	-0.656949997	-1.23010004	240	227	0
-0.681940019	-0.656769991	-1.23230004	240	227	0
-0.682370007	-0.65625	-1.23360002	240	227	0
-0.682370007	-0.655309975	-1.23409998	240	227	0
-0.679750025	-0.655359983	-1.2342	240	227	0
-0.679329991	-0.655879974	-1.23290002	240	227	0
-0.679329991	-0.656819999	-1.23239994	240	227	0
-0.678489983	-0.657000005	-1.23020005	240	227	0
-0.678489983	-0.658050001	-1.22969997	240	227	0
-0.678070009	-0.658590019	-1.22839999	240	227	0
-0.678070009	-0.659560025	-1.22780001	240	227	0
-0.678489983	-0.660950005	-1.22809994	240	227	0
-0.678489983	-0.661909997	-1.22759998	240	227	0
-0.678910017	-0.66328001	-1.22790003	240	227	0
-0.676299989	-0.661430001	-1.22899997	240	227	0
-0.675880015	-0.660040021	-1.22870004	240	227	0
-0.675459981	-0.658640027	-1.22839999	240	227	0
-0.675880015	-0.658100009	-1.22979999	240	227	0
-0.676299989	-0.657480001	-1.23109996	240	227	0
-0.677139997	-0.657299995	-1.23329997	240	227	0
-0.677139997	-0.656359971	-1.23380005	240	227	0
-0.677139997	-0.655409992	-1.23430002	240	227	0
-0.673169971	-0.656780005	-1.23689997	240	227	0
-0.671509981	-0.656019986	-1.23319995	240	227	0
-0.671509981	-0.656970024	-1.23269999	240	227	0
-0.671509981	-0.657999992	-1.23210001	240	227	0
-0.671509981	-0.659049988	-1.23150003	240	227	0
-0.671090007	-0.659590006	-1.23020005	240	227	0
-0.670669973	-0.660139978	-1.22889996	240	227	0
-0.671090007	-0.661520004	-1.22920001	240	227	0
-0.670260012	-0.661620021	-1.22710001	240	227	0
-0.668900013	-0.662	-1.23010004	240	227	0
-0.669319987	-0.663389981	-1.23029995	240	227	0
-0.668070018	-0.659200013	-1.22950006	240	227	0
-0.667659998	-0.659749985	-1.22819996	240	227	0
-0.668900013	-0.658039987	-1.23220003	240	227	0
-0.668489993	-0.656579971	-1.23189998	240	227	0
-0.670149982	-0.660380006	-1.23399997	240	227	0
-0.667949975	-0.660849988	-1.2349	240	227	0
-0.66286999	-0.662169993	-1.22809994	240	227	0
-0.662460029	-0.66267997	-1.22679996	240	227	0
-0.666410029	-0.662240028	-1.22370005	240	227	0
-0.671190023	-0.661719978	-1.22280002	240	227	0
-0.673370004	-0.659370005	-1.22290003	240	227	0
-0.678560019	-0.663810015	-1.22029996	240	227	0
-0.678560019	-0.664709985	-1.2198	240	227	0
-0.678560019	-0.665489972	-1.21930003	240	227	0
-0.680739999	-0.665790021	-1.21800005	240	227	0
-0.680739999	-0.666710019	-1.21749997	240	227	0
-0.681159973	-0.668039978	-1.21780002	240	227	0
-0.683340013	-0.666649997	-1.21739995	240	227	0
-0.682910025	-0.66782999	-1.21570003	240	227	0
-0.68550998	-0.667770028	-1.21560001	240	227	0
-0.685940027	-0.667490005	-1.21679997	240	227	0
-0.686789989	-0.667460024	-1.21889997	240	227	0
-0.686789989	-0.666540027	-1.21940005	240	227	0
-0.686789989	-0.665759981	-1.2198	240	227	0
-0.686789989	-0.664969981	-1.22029996	240	227	0
-0.687650025	-0.66494	-1.22230005	240	227	0
-0.684610009	-0.66703999	-1.22029996	240	227	0
-0.684189975	-0.668420017	-1.21850002	240	227	0
-0.68550998	-0.669279993	-1.2148	240	227	0
-0.68423003	-0.667190015	-1.21290004	240	227	0
-0.68423003	-0.668760002	-1.21200001	240	227	0
-0.684660017	-0.670610011	-1.21200001	240	227	0
-0.68423003	-0.670920014	-1.21080005	240	227	0
-0.686819971	-0.670859993	-1.21070004	240	227	0
-0.686819971	-0.670120001	-1.21109998	240	227	0
-0.686819971	-0.66940999	-1.21150005	240	227	0
-0.686819971	-0.66869998	-1.2119	240	227	0
-0.688989997	-0.668200016	-1.21099997	240	227	0
-0.689419985	-0.670050025	-1.21099997	240	227	0
-0.689419985	-0.670790017	-1.21060002	240	227	0
-0.688989997	-0.67110002	-1.20940006	240	227	0
-0.688989997	-0.671840012	-1.20899999	240	227	0
-0.688560009	-0.672129989	-1.20780003	240	227	0
-0.688560009	-0.672730029	-1.20739996	240	227	0
-0.688560009	-0.674049973	-1.20669997	240	227	0
-0.689419985	-0.674199998	-1.20869994	240	227	0
-0.691590011	-0.673699975	-1.20780003	240	227	0
-0.691590011	-0.674419999	-1.20739996	240	227	0
-0.693319976	-0.673479974	-1.20570004	240	227	0
-0.692889988	-0.674329996	-1.20420003	240	227	0
-0.692019999	-0.674030006	-1.20229995	240	227	0
-0.690289974	-0.674390018	-1.20430005	240	227	0
-0.689429998	-0.670910001	-1.20420003	240	227	0
-0.690289974	-0.671190023	-1.20609999	240	227	0
-0.691160023	-0.671339989	-1.20809996	240	227	0
-0.692019999	-0.671469986	-1.21010005	240	227	0
-0.692449987	-0.671169996	-1.21130002	240	227	0
-0.692019999	-0.669990003	-1.21089995	240	227	0
-0.691590011	-0.668850005	-1.2105	240	227	0
-0.691160023	-0.667699993	-1.21010005	240	227	0
-0.689849973	-0.669780016	-1.21220005	240	227	0
-0.692449987	-0.667439997	-1.21329999	240	227	0
-0.693750024	-0.669529974	-1.21529996	240	227	0
-0.69678998	-0.6699	-1.21589994	240	227	0
-0.698960006	-0.669390023	-1.21500003	240	227	0
-0.698090017	-0.669309974	-1.21300006	240	227	0
-0.697220027	-0.666869998	-1.21229994	240	227	0
-0.697220027	-0.666149974	-1.21270001	240	227	0
-0.697220027	-0.665419996	-1.21309996	240	227	0
-0.700259984	-0.666509986	-1.21329999	240	227	0
-0.700699985	-0.667659998	-1.21370006	240	227	0
-0.701139987	-0.669669986	-1.21360004	240	227	0
-0.701569974	-0.669319987	-1.21490002	240	227	0
-0.703740001	-0.66881001	-1.21389997	240	227	0
-0.703310013	-0.667580009	-1.21360004	240	227	0
-0.703310013	-0.666859984	-1.21399999	240	227	0
-0.703740001	-0.666570008	-1.21519995	240	227	0
-0.704620004	-0.666540027	-1.21720004	240	227	0
-0.704620004	-0.665629983	-1.2177	240	227	0
-0.705500007	-0.665709972	-1.21969998	240	227	0
-0.705940008	-0.66535002	-1.22099996	240	227	0
-0.705060005	-0.663590014	-1.21990001	240	227	0
-0.702449977	-0.663670003	-1.22000003	240	227	0
-0.700269997	-0.664170027	-1.22090006	240	227	0
-0.700269997	-0.663250029	-1.22140002	240	227	0
-0.701139987	-0.663240016	-1.22350001	240	227	0
-0.701569974	-0.66279	-1.22479999	240	227	0
-0.700699985	-0.661000013	-1.22370005	240	227	0
-0.702880025	-0.66049999	-1.2227	240	227	0
-0.703760028	-0.662289977	-1.22379994	240	227	0
-0.703320026	-0.662739992	-1.22259998	240	227	0
-0.703760028	-0.664040029	-1.22290003	240	227	0
-0.703760028	-0.665859997	-1.22189999	240	227	0
-0.703320026	-0.666220009	-1.22070003	240	227	0
-0.700699985	-0.666289985	-1.22080004	240	227	0
-0.700699985	-0.665499985	-1.22119999	240	227	0
-0.699829996	-0.666209996	-1.21879995	240	227	0
-0.698960006	-0.666260004	-1.21669996	240	227	0
-0.69678998	-0.666769981	-1.21759999	240	227	0
-0.697660029	-0.666719973	-1.21969998	240	227	0
-0.698090017	-0.666360021	-1.22090006	240	227	0
-0.697660029	-0.664240003	-1.22109997	240	227	0
-0.698090017	-0.663749993	-1.22239995	240	227	0
-0.698090017	-0.662880003	-1.22280002	240	227	0
-0.698090017	-0.662010014	-1.22329998	240	227	0
-0.697660029	-0.660640001	-1.22300005	240	227	0
-0.697660029	-0.65970999	-1.22350001	240	227	0
-0.695479989	-0.6602	-1.22440004	240	227	0
-0.695909977	-0.661570013	-1.22469997	240	227	0
-0.695479989	-0.66207999	-1.2234	240	227	0
-0.695479989	-0.663820028	-1.22249997	240	227	0
-0.695479989	-0.667219996	-1.22060001	240	227	0
-0.695490003	-0.662989974	-1.21659994	240	227	0
-0.692449987	-0.662630022	-1.21589994	240	227	0
-0.701139987	-0.665759981	-1.21580005	240	227	0
-0.701569974	-0.667079985	-1.21609998	240	227	0
-0.702009976	-0.665709972	-1.21790004	240	227	0
-0.705910027	-0.66426003	-1.21519995	240	227	0
-0.706350029	-0.666499972	-1.21500003	240	227	0
-0.706350029	-0.667219996	-1.21459997	240	227	0
-0.70678997	-0.668370008	-1.21500003	240	227	0
-0.70678997	-0.669160008	-1.21459997	240	227	0
-0.70678997	-0.669950008	-1.2141	240	227	0
-0.70678997	-0.670660019	-1.21379995	240	227	0
-0.707229972	-0.671800017	-1.2141	240	227	0
-0.70897001	-0.670140028	-1.21280003	240	227	0
-0.70897001	-0.669430017	-1.21319997	240	227	0
-0.70897001	-0.668649971	-1.21360004	240	227	0
-0.709410012	-0.668290019	-1.21490002	240	227	0
-0.709410012	-0.667569995	-1.21529996	240	227	0
-0.70897001	-0.666419983	-1.21490002	240	227	0
-0.710690022	-0.665470004	-1.21319997	240	227	0
-0.711579978	-0.667770028	-1.21389997	240	227	0
-0.71201998	-0.667490005	-1.21510005	240	227	0
-0.71201998	-0.665870011	-1.21599996	240	227	0
-0.714190006	-0.66624999	-1.21459997	240	227	0
-0.714640021	-0.667400002	-1.21500003	240	227	0
-0.715080023	-0.666209996	-1.21659994	240	227	0
-0.715080023	-0.663730025	-1.21800005	240	227	0
-0.712459981	-0.663820028	-1.21809995	240	227	0
-0.713349998	-0.665459991	-1.21930003	240	227	0
-0.713349998	-0.66624999	-1.21889997	240	227	0
-0.711170018	-0.665979981	-1.22019994	240	227	0
-0.711170018	-0.667680025	-1.21930003	240	227	0
-0.709850013	-0.665470004	-1.21739995	240	227	0
-0.709410012	-0.66346997	-1.21749997	240	227	0
-0.710290015	-0.663429976	-1.21959996	240	227	0
-0.707669973	-0.663510025	-1.21969998	240	227	0
-0.707229972	-0.663980007	-1.2184	240	227	0
-0.707229972	-0.664770007	-1.21800005	240	227	0
-0.707229972	-0.666469991	-1.21710002	240	227	0
-0.704180002	-0.670029998	-1.21430004	240	227	0
-0.703740001	-0.670300007	-1.21309996	240	227	0
-0.703310013	-0.670580029	-1.2119	240	227	0
-0.701990008	-0.670750022	-1.20879996	240	227	0
-0.701550007	-0.669570029	-1.20840001	240	227	0
-0.699819982	-0.671999991	-1.20930004	240	227	0
-0.699819982	-0.673929989	-1.20819998	240	227	0
-0.69678998	-0.673560023	-1.20749998	240	227	0
-0.69678998	-0.675580025	-1.20640004	240	227	0
-0.695919991	-0.675279975	-1.20449996	240	227	0
-0.695479989	-0.672969997	-1.20480001	240	227	0
-0.695050001	-0.671209991	-1.20469999	240	227	0
-0.69461	-0.670180023	-1.20430005	240	227	0
-0.694180012	-0.669009984	-1.20389998	240	227	0
-0.692019999	-0.670239985	-1.20439994	240	227	0
-0.692449987	-0.669960022	-1.20560002	240	227	0
-0.692889988	-0.671720028	-1.20560002	240	227	0
-0.693319976	-0.67009002	-1.2076	240	227	0
-0.694190025	-0.673629999	-1.20770001	240	227	0
-0.694180012	-0.672360003	-1.20200002	240	227	0
-0.69374001	-0.673680007	-1.20019996	240	227	0
-0.69374001	-0.674290001	-1.19990003	240	227	0
-0.694180012	-0.675339997	-1.20029998	240	227	0
-0.688560009	-0.677680016	-1.1983	240	227	0
-0.688560009	-0.679669976	-1.19719994	240	227	0
-0.688130021	-0.680459976	-1.19570005	240	227	0
-0.69028002	-0.679949999	-1.19480002	240	227	0
-0.690720022	-0.679570019	-1.19599998	240	227	0
-0.69155997	-0.680939972	-1.19099998	240	227	0
-0.685970008	-0.681850016	-1.18970001	240	227	0
-0.685970008	-0.682139993	-1.18949997	240	227	0
-0.68554002	-0.683030009	-1.18799996	240	227	0
-0.68554002	-0.683269978	-1.18789995	240	227	0
-0.685970008	-0.683719993	-1.18859994	240	227	0
-0.685970008	-0.683990002	-1.18850005	240	227	0
-0.686399996	-0.684170008	-1.18939996	240	227	0
-0.686839998	-0.684620023	-1.19019997	240	227	0
-0.684260011	-0.684679985	-1.19029999	240	227	0
-0.683820009	-0.684499979	-1.18939996	240	227	0
-0.683820009	-0.68423003	-1.18949997	240	227	0
-0.683390021	-0.683539987	-1.18889999	240	227	0
-0.683390021	-0.683780015	-1.18869996	240	227	0
-0.682959974	-0.683329999	-1.18799996	240	227	0
-0.682529986	-0.682879984	-1.18719995	240	227	0
-0.682529986	-0.68313998	-1.18700004	240	227	0
-0.682529986	-0.683470011	-1.1868	240	227	0
-0.682529986	-0.684669971	-1.18610001	240	227	0
-0.682959974	-0.684970021	-1.18700004	240	227	0
-0.679960012	-0.684700012	-1.18630004	240	227	0
-0.679960012	-0.68463999	-1.18630004	240	227	0
-0.679960012	-0.684580028	-1.18630004	240	227	0
-0.679960012	-0.684729993	-1.18620002	240	227	0
-0.679960012	-0.684759974	-1.18620002	240	227	0
-0.679960012	-0.684769988	-1.18620002	240	227	0
-0.679960012	-0.684790015	-1.18620002	240	227	0
-0.679960012	-0.684220016	-1.18649995	240	227	0
-0.679530025	-0.684300005	-1.18550003	240	227	0
-0.677389979	-0.684849977	-1.18630004	240	227	0
-0.677389979	-0.684759974	-1.18640006	240	227	0
-0.677820027	-0.685239971	-1.18710005	240	227	0
-0.677820027	-0.685280025	-1.18710005	240	227	0
-0.677820027	-0.685090005	-1.18719995	240	227	0
-0.681249976	-0.684289992	-1.18959999	240	227	0
-0.681680024	-0.684740007	-1.1904	240	227	0
-0.682110012	-0.685190022	-1.19120002	240	227	0
-0.681249976	-0.682709992	-1.19050002	240	227	0
-0.680819988	-0.682529986	-1.18959999	240	227	0
-0.678240001	-0.681739986	-1.19019997	240	227	0
-0.677820027	-0.680350006	-1.18990004	240	227	0
-0.678240001	-0.680029988	-1.19120002	240	227	0
-0.678240001	-0.679610014	-1.19140005	240	227	0
-0.678669989	-0.680890024	-1.19169998	240	227	0
-0.678240001	-0.677999973	-1.19229996	240	227	0
-0.678240001	-0.677169979	-1.19280005	240	227	0
-0.677820027	-0.677139997	-1.1918	240	227	0
-0.678669989	-0.675639987	-1.1947	240	227	0
-0.680819988	-0.675140023	-1.19379997	240	227	0
-0.682110012	-0.676989973	-1.19589996	240	227	0
-0.682110012	-0.675939977	-1.19649994	240	227	0
-0.683820009	-0.675530016	-1.19449997	240	227	0
-0.682959974	-0.678390026	-1.19719994	240	227	0
-0.682110012	-0.673219979	-1.19799995	240	227	0
-0.678669989	-0.672389984	-1.19649994	240	227	0
-0.67651999	-0.672890007	-1.19739997	240	227	0
-0.67651999	-0.67614001	-1.19560003	240	227	0
-0.676949978	-0.677100003	-1.1961	240	227	0
-0.676949978	-0.67760998	-1.19579995	240	227	0
-0.674799979	-0.678110003	-1.19669998	240	227	0
-0.674369991	-0.677150011	-1.19620001	240	227	0
-0.674369991	-0.676639974	-1.19649994	240	227	0
-0.67268002	-0.676829994	-1.19219995	240	227	0
-0.67268002	-0.678870022	-1.19099998	240	227	0
-0.67268002	-0.680100024	-1.19029999	240	227	0
-0.67268002	-0.680450022	-1.19009995	240	227	0
-0.67268002	-0.680800021	-1.18990004	240	227	0
-0.67268002	-0.681100011	-1.18970001	240	227	0
-0.67268002	-0.681680024	-1.18939996	240	227	0
-0.673969984	-0.677470028	-1.18859994	240	227	0
-0.674390018	-0.675880015	-1.19050002	240	227	0
-0.674799979	-0.683640003	-1.19350004	240	227	0
-0.683820009	-0.68265003	-1.1904	240	227	0
-0.68554002	-0.678990006	-1.19029999	240	227	0
-0.685109973	-0.678960025	-1.18929994	240	227	0
-0.688549995	-0.68550998	-1.1875	240	227	0
-0.693710029	-0.685280025	-1.18729997	240	227	0
-0.693710029	-0.685370028	-1.18719995	240	227	0
-0.694540024	-0.681659997	-1.18499994	240	227	0
-0.693660021	-0.680760026	-1.18350005	240	227	0
-0.693220019	-0.680310011	-1.18270004	240	227	0
-0.693220019	-0.680899978	-1.18239999	240	227	0
-0.692780018	-0.679859996	-1.18190002	240	227	0
-0.694920003	-0.679350019	-1.18099999	240	227	0
-0.693660021	-0.682630002	-1.18239999	240	227	0
-0.694100022	-0.679050028	-1.18550003	240	227	0
-0.69799	-0.678619981	-1.18869996	240	227	0
-0.699689984	-0.681509972	-1.18480003	240	227	0
-0.698809981	-0.680610001	-1.1832	240	227	0
-0.69836998	-0.68017	-1.1825	240	227	0
-0.698809981	-0.68246001	-1.18219995	240	227	0
-0.699249983	-0.682919979	-1.18289995	240	227	0
-0.703960001	-0.682330012	-1.18190002	240	227	0
-0.704410017	-0.682780027	-1.18270004	240	227	0
-0.704850018	-0.683189988	-1.18340003	240	227	0
-0.704850018	-0.683210015	-1.18340003	240	227	0
-0.704850018	-0.683149993	-1.18350005	240	227	0
-0.704850018	-0.682630002	-1.18379998	240	227	0
-0.704850018	-0.682370007	-1.1839	240	227	0
-0.705299973	-0.683669984	-1.18420005	240	227	0
-0.705739975	-0.684000015	-1.18499994	240	227	0
-0.705739975	-0.684090018	-1.18499994	240	227	0
-0.705739975	-0.684090018	-1.18499994	240	227	0
-0.705739975	-0.683939993	-1.18509996	240	227	0
-0.705739975	-0.683879972	-1.18509996	240	227	0
-0.705739975	-0.683759987	-1.18519998	240	227	0
-0.705739975	-0.683650017	-1.18529999	240	227	0
-0.703599989	-0.683390021	-1.18659997	240	227	0
-0.703599989	-0.683220029	-1.18669999	240	227	0
-0.703599989	-0.682770014	-1.18700004	240	227	0
-0.70352	-0.680800021	-1.18169999	240	227	0
-0.709119976	-0.680289984	-1.18270004	240	227	0
-0.716090024	-0.681640029	-1.18560004	240	227	0
-0.716090024	-0.680840015	-1.18599999	240	227	0
-0.716989994	-0.680029988	-1.18859994	240	227	0
-0.716989994	-0.678919971	-1.18920004	240	227	0
-0.717899978	-0.679390013	-1.19099998	240	227	0
-0.718800008	-0.681100011	-1.19210005	240	227	0
-0.719250023	-0.681900024	-1.19260001	240	227	0
-0.719250023	-0.680310011	-1.19350004	240	227	0
-0.719250023	-0.679910004	-1.19379997	240	227	0
-0.718800008	-0.679059982	-1.19319999	240	227	0
-0.719699979	-0.679120004	-1.19529998	240	227	0
-0.720149994	-0.679139972	-1.19630003	240	227	0
-0.720149994	-0.678669989	-1.19649994	240	227	0
-0.720149994	-0.678189993	-1.19679999	240	227	0
-0.720149994	-0.677680016	-1.19710004	240	227	0
-0.719250023	-0.676289976	-1.19579995	240	227	0
-0.719250023	-0.675750017	-1.1961	240	227	0
-0.717100024	-0.67681998	-1.19679999	240	227	0
-0.71754998	-0.677770019	-1.19729996	240	227	0
-0.71754998	-0.676720023	-1.19790006	240	227	0
-0.717999995	-0.676620007	-1.19889998	240	227	0
-0.71845001	-0.676569998	-1.20000005	240	227	0
-0.717999995	-0.67505002	-1.19980001	240	227	0
-0.71754998	-0.675199986	-1.19869995	240	227	0
-0.71754998	-0.673399985	-1.1997	240	227	0
-0.71754998	-0.672789991	-1.20009995	240	227	0
-0.71845001	-0.673080027	-1.20200002	240	227	0
-0.71934998	-0.673380017	-1.20379996	240	227	0
-0.71934998	-0.672670007	-1.20420003	240	227	0
-0.721499979	-0.672839999	-1.20290005	240	227	0
-0.721949995	-0.67256999	-1.20410001	240	227	0
-0.722859979	-0.672720015	-1.20599997	240	227	0
-0.723309994	-0.671959996	-1.20749998	240	227	0
-0.723309994	-0.670490026	-1.20829999	240	227	0
-0.724210024	-0.672100008	-1.20940006	240	227	0
-0.724210024	-0.673420012	-1.20869994	240	227	0
-0.722039998	-0.67395997	-1.20969999	240	227	0
-0.724210024	-0.670610011	-1.21029997	240	227	0
-0.724210024	-0.669870019	-1.21070004	240	227	0
-0.723309994	-0.668299973	-1.20949996	240	227	0
-0.725920022	-0.66821003	-1.20930004	240	227	0
-0.725920022	-0.668910027	-1.20889997	240	227	0
-0.726379991	-0.670080006	-1.20930004	240	227	0
-0.725920022	-0.67039001	-1.20809996	240	227	0
-0.726379991	-0.671559989	-1.20850003	240	227	0
-0.728540003	-0.670289993	-1.20790005	240	227	0
-0.728089988	-0.669120014	-1.2076	240	227	0
-0.728089988	-0.668380022	-1.20799994	240	227	0
-0.728990018	-0.668540001	-1.20990002	240	227	0
-0.729449987	-0.668259978	-1.21109998	240	227	0
-0.730359972	-0.668330014	-1.21309996	240	227	0
-0.730809987	-0.667249978	-1.21469998	240	227	0
-0.730359972	-0.666100025	-1.21430004	240	227	0
-0.730359972	-0.665210009	-1.2148	240	227	0
-0.729089975	-0.665679991	-1.21780002	240	227	0
-0.729089975	-0.664900005	-1.21829998	240	227	0
-0.72953999	-0.664539993	-1.21949995	240	227	0
-0.729990005	-0.667450011	-1.21889997	240	227	0
-0.730449975	-0.668780029	-1.21920002	240	227	0
-0.730449975	-0.669499993	-1.21879995	240	227	0
-0.727819979	-0.668879986	-1.21940005	240	227	0
-0.728269994	-0.665920019	-1.222	240	227	0
-0.725639999	-0.666019976	-1.22220004	240	227	0
-0.725639999	-0.665120006	-1.2227	240	227	0
-0.726010025	-0.667890012	-1.21580005	240	227	0
-0.726010025	-0.668609977	-1.21539998	240	227	0
-0.726010025	-0.670189977	-1.21459997	240	227	0
-0.723839998	-0.670710027	-1.2155	240	227	0
-0.722109973	-0.67167002	-1.21730006	240	227	0
-0.722940028	-0.667550027	-1.21519995	240	227	0
-0.724659979	-0.668099999	-1.21270001	240	227	0
-0.727280021	-0.668789983	-1.21210003	240	227	0
-0.727729976	-0.668439984	-1.21329999	240	227	0
-0.72864002	-0.66851002	-1.21529996	240	227	0
-0.731260002	-0.668410003	-1.21510005	240	227	0
-0.732519984	-0.667010009	-1.21249998	240	227	0
-0.73161	-0.666939974	-1.21060002	240	227	0
-0.731159985	-0.667999983	-1.20899999	240	227	0
-0.733640015	-0.668839991	-1.20190001	240	227	0
-0.735339999	-0.665679991	-1.20130002	240	227	0
-0.739170015	-0.663429976	-1.199	240	227	0
-0.737779975	-0.66286999	-1.19630003	240	227	0
-0.737779975	-0.663609982	-1.19589996	240	227	0
-0.737309992	-0.664629996	-1.19430006	240	227	0
-0.736850023	-0.663479984	-1.19389999	240	227	0
-0.737309992	-0.665809989	-1.19360006	240	227	0
-0.737309992	-0.666530013	-1.19319999	240	227	0
-0.739449978	-0.666679978	-1.19190001	240	227	0
-0.738520026	-0.665120006	-1.19070005	240	227	0
-0.738059998	-0.663969994	-1.19029999	240	227	0
-0.738979995	-0.664240003	-1.19219995	240	227	0
-0.738059998	-0.661339998	-1.1918	240	227	0
-0.742309988	-0.658800006	-1.19070005	240	227	0
-0.743719995	-0.658689976	-1.19369996	240	227	0
-0.738240004	-0.666079998	-1.19550002	240	227	0
-0.740840018	-0.669130027	-1.19360006	240	227	0
