-0.699940026	-0.342290014	-1.24419999	154	240	0
-0.697929978	-0.342570007	-1.24520004	154	240	0
-0.698390007	-0.34404999	-1.2457	154	240	0
-0.698390007	-0.345310003	-1.24539995	154	240	0
-0.699320018	-0.347039998	-1.24670005	154	240	0
-0.699320018	-0.348289996	-1.2464	154	240	0
-0.699779987	-0.34977001	-1.24689996	154	240	0
-0.700709999	-0.351500005	-1.24820006	154	240	0
-0.701170027	-0.353009999	-1.24870002	154	240	0
-0.69915998	-0.353289992	-1.24969995	154	240	0
-0.698689997	-0.351790011	-1.24919999	154	240	0
-0.698689997	-0.350540012	-1.24960005	154	240	0
-0.69777	-0.348809987	-1.24820006	154	240	0
-0.697309971	-0.346069992	-1.24810004	154	240	0
-0.695299983	-0.346340001	-1.24909997	154	240	0
-0.695299983	-0.347609997	-1.24870002	154	240	0
-0.694379985	-0.348379999	-1.24670005	154	240	0
-0.694840014	-0.349860013	-1.24720001	154	240	0
-0.692820013	-0.350140005	-1.24820006	154	240	0
-0.69374001	-0.35187	-1.24950004	154	240	0
-0.694199979	-0.353379995	-1.25	154	240	0
-0.694660008	-0.354950011	-1.25049996	154	240	0
-0.696680009	-0.354669988	-1.24950004	154	240	0
-0.696219981	-0.353100002	-1.24899995	154	240	0
-0.696680009	-0.352070004	-1.25020003	154	240	0
-0.699620008	-0.354869992	-1.25020003	154	240	0
-0.700540006	-0.356640011	-1.25160003	154	240	0
-0.698520005	-0.356929988	-1.25259995	154	240	0
-0.697600007	-0.357639998	-1.25049996	154	240	0
-0.697600007	-0.358830005	-1.25020003	154	240	0
-0.695569992	-0.359120011	-1.25119996	154	240	0
-0.696030021	-0.358170003	-1.25240004	154	240	0
-0.696030021	-0.356970012	-1.25269997	154	240	0
-0.694010019	-0.358449996	-1.25339997	154	240	0
-0.693549991	-0.359409988	-1.25220001	154	240	0
-0.691980004	-0.359939992	-1.25399995	154	240	0
-0.68858999	-0.359490007	-1.25250006	154	240	0
-0.687460005	-0.360269994	-1.25520003	154	240	0
-0.687919974	-0.361750007	-1.25569999	154	240	0
-0.687919974	-0.363009989	-1.25530005	154	240	0
-0.688369989	-0.364580005	-1.25580001	154	240	0
-0.688369989	-0.365859985	-1.25539994	154	240	0
-0.68633002	-0.366149992	-1.25639999	154	240	0
-0.68633002	-0.364859998	-1.25680006	154	240	0
-0.684300005	-0.365150005	-1.25779998	154	240	0
-0.68384999	-0.366189986	-1.25650001	154	240	0
-0.681360006	-0.366219997	-1.25660002	154	240	0
-0.679319978	-0.366510004	-1.25759995	154	240	0
-0.682259977	-0.365440011	-1.25870001	154	240	0
-0.680909991	-0.363370001	-1.25650001	154	240	0
-0.68046999	-0.361860007	-1.25600004	154	240	0
-0.68204999	-0.362589985	-1.25380003	154	240	0
-0.684080005	-0.362300009	-1.2529	154	240	0
-0.684979975	-0.36153999	-1.25489998	154	240	0
-0.68542999	-0.360549986	-1.25619996	154	240	0
-0.683399975	-0.360830009	-1.25709999	154	240	0
-0.68384999	-0.362320006	-1.25759995	154	240	0
-0.68204999	-0.358889997	-1.25489998	154	240	0
-0.68204999	-0.35769999	-1.25530005	154	240	0
-0.684080005	-0.357419997	-1.2543	154	240	0
-0.684080005	-0.35611999	-1.25460005	154	240	0
-0.68453002	-0.35503	-1.25590003	154	240	0
-0.68611002	-0.354510009	-1.25399995	154	240	0
-0.687680006	-0.353980005	-1.25220001	154	240	0
-0.687219977	-0.355069995	-1.25090003	154	240	0
-0.687680006	-0.35661	-1.25139999	154	240	0
-0.687219977	-0.357560009	-1.25020003	154	240	0
-0.684750021	-0.35758999	-1.25039995	154	240	0
-0.684750021	-0.35510999	-1.25109994	154	240	0
-0.684750021	-0.352510005	-1.25179994	154	240	0
-0.682730019	-0.352789998	-1.25279999	154	240	0
-0.686320007	-0.351990014	-1.25	154	240	0
-0.685410023	-0.35025999	-1.24860001	154	240	0
-0.68787998	-0.350219995	-1.24849999	154	240	0
-0.688790023	-0.35194999	-1.24979997	154	240	0
-0.688329995	-0.352979988	-1.24860001	154	240	0
-0.690810025	-0.352939993	-1.24849999	154	240	0
-0.690810025	-0.351669997	-1.24880004	154	240	0
-0.690349996	-0.35018	-1.24829996	154	240	0
-0.689429998	-0.348459989	-1.24699998	154	240	0
-0.690989971	-0.347939998	-1.24510002	154	240	0
-0.690530002	-0.346460015	-1.24460006	154	240	0
-0.690530002	-0.34393999	-1.24530005	154	240	0
-0.692529976	-0.342409998	-1.24460006	154	240	0
-0.691609979	-0.340700001	-1.24329996	154	240	0
-0.693610013	-0.340429991	-1.24230003	154	240	0
-0.697000027	-0.340849996	-1.24380004	154	240	0
-0.699010015	-0.339359999	-1.24310005	154	240	0
-0.698539972	-0.33792001	-1.24259996	154	240	0
-0.702409983	-0.342240006	-1.24399996	154	240	0
-0.703339994	-0.343959987	-1.24539995	154	240	0
-0.702409983	-0.344749987	-1.24329996	154	240	0
-0.703339994	-0.346480012	-1.24469995	154	240	0
-0.700869977	-0.346520007	-1.24479997	154	240	0
-0.700869977	-0.345270008	-1.24520004	154	240	0
-0.700869977	-0.344009995	-1.24549997	154	240	0
-0.704879999	-0.342200011	-1.24389994	154	240	0
-0.706879973	-0.341910005	-1.2428	154	240	0
-0.708410025	-0.338939995	-1.24160004	154	240	0
-0.708880007	-0.337960005	-1.2428	154	240	0
-0.709930003	-0.338429987	-1.23969996	154	240	0
-0.708760023	-0.344099998	-1.24590003	154	240	0
-0.708289981	-0.345129997	-1.24469995	154	240	0
-0.708289981	-0.346379995	-1.24430001	154	240	0
-0.708760023	-0.347860008	-1.24479997	154	240	0
-0.706749976	-0.348150015	-1.24590003	154	240	0
-0.706279993	-0.346670002	-1.24539995	154	240	0
-0.706279993	-0.345409989	-1.2457	154	240	0
-0.706279993	-0.344150007	-1.24609995	154	240	0
-0.696389973	-0.346850008	-1.24600005	154	240	0
-0.695919991	-0.344090015	-1.24590003	154	240	0
-0.695460021	-0.342610002	-1.24530005	154	240	0
-0.693449974	-0.344130009	-1.24600005	154	240	0
-0.692359984	-0.346150011	-1.24839997	154	240	0
-0.690810025	-0.347930014	-1.24989998	154	240	0
-0.69125998	-0.354510009	-1.24899995	154	240	0
-0.692179978	-0.356290013	-1.25030005	154	240	0
-0.690609992	-0.356810004	-1.25220001	154	240	0
-0.689700007	-0.357520014	-1.25010002	154	240	0
-0.689700007	-0.355040014	-1.25080001	154	240	0
-0.68611002	-0.357140005	-1.25329995	154	240	0
-0.68362999	-0.358370006	-1.25310004	154	240	0
-0.695379972	-0.361629993	-1.25520003	154	240	0
-0.697409987	-0.361339986	-1.25419998	154	240	0
-0.698520005	-0.36056	-1.25150001	154	240	0
-0.700540006	-0.360269994	-1.25049996	154	240	0
-0.700079978	-0.35879001	-1.25	154	240	0
-0.699620008	-0.357349992	-1.24950004	154	240	0
-0.705049992	-0.35631001	-1.25039995	154	240	0
-0.707539976	-0.354970008	-1.25059998	154	240	0
-0.698119998	-0.366979986	-1.25919998	154	240	0
-0.698580027	-0.368429989	-1.25979996	154	240	0
-0.699029982	-0.369890004	-1.26030004	154	240	0
-0.699490011	-0.371419996	-1.26069999	154	240	0
-0.69994998	-0.372949988	-1.26119995	154	240	0
-0.702000022	-0.372649997	-1.26020002	154	240	0
-0.702000022	-0.371369988	-1.26059997	154	240	0
-0.701539993	-0.36985001	-1.26010001	154	240	0
-0.703580022	-0.36954999	-1.25909996	154	240	0
-0.704039991	-0.371080011	-1.25960004	154	240	0
-0.704039991	-0.372350007	-1.25919998	154	240	0
-0.704959989	-0.374150008	-1.26049995	154	240	0
-0.706080019	-0.370779991	-1.25849998	154	240	0
-0.708769977	-0.366939992	-1.25469995	154	240	0
-0.697899997	-0.373250008	-1.2622	154	240	0
-0.698360026	-0.374799997	-1.26269996	154	240	0
-0.69927001	-0.376569986	-1.26400006	154	240	0
-0.700179994	-0.378289998	-1.26540005	154	240	0
-0.700179994	-0.379519999	-1.26499999	154	240	0
-0.697669983	-0.379559994	-1.2651	154	240	0
-0.695159972	-0.379610002	-1.26530004	154	240	0
-0.69265002	-0.379649997	-1.26540005	154	240	0
-0.693099976	-0.381260008	-1.26590002	154	240	0
-0.690590024	-0.382600009	-1.26559997	154	240	0
-0.690140009	-0.381040007	-1.26520002	154	240	0
-0.689689994	-0.37944001	-1.26470006	154	240	0
-0.689689994	-0.378199995	-1.2651	154	240	0
-0.691739976	-0.377909988	-1.26409996	154	240	0
-0.691739976	-0.376700014	-1.26450002	154	240	0
-0.691290021	-0.375180006	-1.26400006	154	240	0
-0.693350017	-0.37489	-1.26300001	154	240	0
-0.693799973	-0.376410007	-1.26349998	154	240	0
-0.693799973	-0.377609998	-1.26310003	154	240	0
-0.695850015	-0.377310008	-1.26209998	154	240	0
-0.69630003	-0.376359999	-1.26329994	154	240	0
-0.695850015	-0.374839991	-1.26279998	154	240	0
-0.694939971	-0.373039991	-1.2615	154	240	0
-0.692439973	-0.373079985	-1.26170003	154	240	0
-0.696990013	-0.371470004	-1.26090002	154	240	0
-0.696529984	-0.369940013	-1.26040006	154	240	0
-0.696529984	-0.368719995	-1.2608	154	240	0
-0.699479997	-0.384429991	-1.26740003	154	240	0
-0.702000022	-0.384389997	-1.26719999	154	240	0
-0.701539993	-0.385340005	-1.26600003	154	240	0
-0.702459991	-0.387140006	-1.26730001	154	240	0
-0.699940026	-0.387190014	-1.26750004	154	240	0
-0.700389981	-0.38872999	-1.26789999	154	240	0
-0.697870016	-0.388779998	-1.26810002	154	240	0
-0.697870016	-0.387490004	-1.26849997	154	240	0
-0.697870016	-0.386209995	-1.26890004	154	240	0
-0.700839996	-0.386420012	-1.26960003	154	240	0
-0.70381999	-0.389200002	-1.26950002	154	240	0
-0.704729974	-0.391009986	-1.27079999	154	240	0
-0.705190003	-0.392569989	-1.27129996	154	240	0
-0.705640018	-0.394149989	-1.27170002	154	240	0
-0.706560016	-0.395999998	-1.273	154	240	0
-0.704479992	-0.396310002	-1.27400005	154	240	0
-0.704930007	-0.397890002	-1.2744	154	240	0
-0.70747	-0.397830009	-1.27429998	154	240	0
-0.706560016	-0.398589998	-1.27219999	154	240	0
-0.70747	-0.400240004	-1.27349997	154	240	0
-0.710009992	-0.400189996	-1.27339995	154	240	0
-0.710009992	-0.397780001	-1.27409995	154	240	0
-0.709089994	-0.39594999	-1.27279997	154	240	0
-0.711170018	-0.395630002	-1.27180004	154	240	0
-0.71025002	-0.393790007	-1.27049994	154	240	0
-0.70818001	-0.39410001	-1.27149999	154	240	0
-0.707260013	-0.392259985	-1.27020001	154	240	0
-0.706809998	-0.390700012	-1.26979995	154	240	0
-0.706809998	-0.389420003	-1.27020001	154	240	0
-0.706350029	-0.387870014	-1.26970005	154	240	0
-0.70589	-0.386319995	-1.26929998	154	240	0
-0.704980016	-0.384600013	-1.26789999	154	240	0
-0.704060018	-0.382889986	-1.26660001	154	240	0
-0.706120014	-0.382580012	-1.26559997	154	240	0
-0.70818001	-0.382279992	-1.26460004	154	240	0
-0.709559977	-0.384240001	-1.26670003	154	240	0
-0.710020006	-0.385699987	-1.26719999	154	240	0
-0.710940003	-0.387499988	-1.26849997	154	240	0
-0.713469982	-0.38745001	-1.26839995	154	240	0
-0.713010013	-0.385910004	-1.26789999	154	240	0
-0.711619973	-0.383929998	-1.26569998	154	240	0
-0.707499981	-0.384550005	-1.26779997	154	240	0
-0.707499981	-0.385760009	-1.26740003	154	240	0
-0.70796001	-0.387300014	-1.26789999	154	240	0
-0.709789991	-0.389620006	-1.27090001	154	240	0
-0.710709989	-0.391429991	-1.27219999	154	240	0
-0.71232003	-0.390859991	-1.27030003	154	240	0
-0.713240027	-0.390089989	-1.27240002	154	240	0
-0.71578002	-0.392619997	-1.27139997	154	240	0
-0.71717	-0.392100006	-1.27429998	154	240	0
-0.71717	-0.390810013	-1.27470005	154	240	0
-0.717850029	-0.387140006	-1.27199996	154	240	0
-0.716929972	-0.385410011	-1.27059996	154	240	0
-0.716929972	-0.387910008	-1.26989996	154	240	0
-0.720390022	-0.383370012	-1.27289999	154	240	0
-0.721319973	-0.38251999	-1.27499998	154	240	0
-0.721989989	-0.380199999	-1.27180004	154	240	0
-0.716210008	-0.382369995	-1.26489997	154	240	0
-0.719850004	-0.373849988	-1.26419997	154	240	0
-0.721430004	-0.369509995	-1.26339996	154	240	0
-0.726660013	-0.38023001	-1.28100002	154	240	0
-0.728060007	-0.382279992	-1.28320003	154	240	0
-0.710940003	-0.391360015	-1.26730001	154	240	0
-0.709330022	-0.391939998	-1.26919997	154	240	0
-0.702660024	-0.392619997	-1.27139997	154	240	0
-0.702210009	-0.391059995	-1.27100003	154	240	0
-0.699679971	-0.391110003	-1.27110004	154	240	0
-0.698059976	-0.392980009	-1.27260005	154	240	0
-0.698960006	-0.394829988	-1.27390003	154	240	0
-0.699859977	-0.396679997	-1.27520001	154	240	0
-0.699859977	-0.397980005	-1.27479994	154	240	0
-0.70194	-0.397670001	-1.27380002	154	240	0
-0.70194	-0.39636001	-1.27419996	154	240	0
-0.701489985	-0.39478001	-1.2737	154	240	0
-0.70104003	-0.393189996	-1.27330005	154	240	0
-0.704020023	-0.394730002	-1.27359998	154	240	0
-0.705839992	-0.400830001	-1.27540004	154	240	0
-0.705839992	-0.402209997	-1.27499998	154	240	0
-0.703750014	-0.402530015	-1.27600002	154	240	0
-0.704200029	-0.404080003	-1.27639997	154	240	0
-0.703750014	-0.404960006	-1.27520001	154	240	0
-0.702109993	-0.405550003	-1.27709997	154	240	0
-0.703019977	-0.404940009	-1.27909994	154	240	0
-0.700020015	-0.404720008	-1.27839994	154	240	0
-0.700020015	-0.405869991	-1.27810001	154	240	0
-0.697929978	-0.406190008	-1.27909994	154	240	0
-0.697929978	-0.405039996	-1.27939999	154	240	0
-0.697480023	-0.403479993	-1.27900004	154	240	0
-0.696590006	-0.401560009	-1.27769995	154	240	0
-0.698679984	-0.401239991	-1.27670002	154	240	0
-0.698230028	-0.399850011	-1.27620006	154	240	0
-0.697780013	-0.398299992	-1.27579999	154	240	0
-0.696879983	-0.396459997	-1.27450001	154	240	0
-0.696430027	-0.394870013	-1.27400005	154	240	0
-0.693899989	-0.394919991	-1.27419996	154	240	0
-0.694350004	-0.396499991	-1.27460003	154	240	0
-0.694350004	-0.397810012	-1.27419996	154	240	0
-0.692260027	-0.398119986	-1.27520001	154	240	0
-0.692260027	-0.396809995	-1.27559996	154	240	0
-0.693159997	-0.399940014	-1.27649999	154	240	0
-0.693159997	-0.401069999	-1.27610004	154	240	0
-0.694050014	-0.40298	-1.27740002	154	240	0
-0.691959977	-0.403299987	-1.27839994	154	240	0
-0.692399979	-0.40485999	-1.27890003	154	240	0
-0.691510022	-0.405470014	-1.27680004	154	240	0
-0.692399979	-0.407350004	-1.27810001	154	240	0
-0.68987	-0.407389998	-1.27820003	154	240	0
-0.687770009	-0.407700002	-1.27919996	154	240	0
-0.685679972	-0.408010006	-1.2802	154	240	0
-0.685239971	-0.406399995	-1.27970004	154	240	0
-0.684360027	-0.404709995	-1.27839994	154	240	0
-0.684360027	-0.403420001	-1.27880001	154	240	0
-0.683480024	-0.401499987	-1.27750003	154	240	0
-0.683920026	-0.400640011	-1.27869999	154	240	0
-0.681389987	-0.400680006	-1.27880001	154	240	0
-0.680949986	-0.399120003	-1.27839994	154	240	0
-0.680069983	-0.397269994	-1.27709997	154	240	0
-0.68216002	-0.396970004	-1.27610004	154	240	0
-0.684239984	-0.396670014	-1.27509999	154	240	0
-0.683799982	-0.397709996	-1.27390003	154	240	0
-0.681280017	-0.397740006	-1.27400005	154	240	0
-0.680069983	-0.400990009	-1.27590001	154	240	0
-0.677550018	-0.401030004	-1.27600002	154	240	0
-0.679289997	-0.400979996	-1.27980006	154	240	0
-0.68017	-0.40022999	-1.28190005	154	240	0
-0.678070009	-0.401829988	-1.28250003	154	240	0
-0.677200019	-0.402410001	-1.28040004	154	240	0
-0.679729998	-0.403759986	-1.27989995	154	240	0
-0.681819975	-0.403459996	-1.27890003	154	240	0
-0.68313998	-0.405559987	-1.28110003	154	240	0
-0.68313998	-0.406709999	-1.28069997	154	240	0
-0.683579981	-0.408329993	-1.28110003	154	240	0
-0.684449971	-0.410109997	-1.28250003	154	240	0
-0.68234998	-0.410420001	-1.28340006	154	240	0
-0.681909978	-0.408910006	-1.28299999	154	240	0
-0.68147999	-0.407290012	-1.28250003	154	240	0
-0.68147999	-0.40614	-1.28289998	154	240	0
-0.67938	-0.406450003	-1.28390002	154	240	0
-0.679809988	-0.405420005	-1.28509998	154	240	0
-0.680249989	-0.408149987	-1.2852	154	240	0
-0.681119978	-0.410039991	-1.28649998	154	240	0
-0.680679977	-0.411000013	-1.28530002	154	240	0
-0.678569973	-0.411309987	-1.28620005	154	240	0
-0.679440022	-0.413020015	-1.28760004	154	240	0
-0.677330017	-0.413329989	-1.28849995	154	240	0
-0.677760005	-0.412440002	-1.28980005	154	240	0
-0.678629994	-0.411749989	-1.29190004	154	240	0
-0.678189993	-0.410129994	-1.29149997	154	240	0
-0.679880023	-0.410899997	-1.28919995	154	240	0
-0.679440022	-0.409269989	-1.2888	154	240	0
-0.678569973	-0.407570004	-1.28740001	154	240	0
-0.679009974	-0.406540006	-1.28869998	154	240	0
-0.677709997	-0.404339999	-1.28659999	154	240	0
-0.67938	-0.401329994	-1.28550005	154	240	0
-0.677640021	-0.398950011	-1.28250003	154	240	0
-0.679289997	-0.397049993	-1.28100002	154	240	0
-0.679729998	-0.395990014	-1.2823	154	240	0
-0.680949986	-0.395150006	-1.27960002	154	240	0
-0.680949986	-0.396479994	-1.27919996	154	240	0
-0.683480024	-0.396450013	-1.27909994	154	240	0
-0.684679985	-0.395610005	-1.27639997	154	240	0
-0.687210023	-0.396890014	-1.27590001	154	240	0
-0.686320007	-0.397670001	-1.2737	154	240	0
-0.688849986	-0.397630006	-1.27359998	154	240	0
-0.688849986	-0.396319985	-1.27400005	154	240	0
-0.688399971	-0.394739985	-1.27359998	154	240	0
-0.688399971	-0.393409997	-1.27400005	154	240	0
-0.688399971	-0.392120004	-1.2744	154	240	0
-0.690479994	-0.39181	-1.27339995	154	240	0
-0.690479994	-0.393110007	-1.273	154	240	0
-0.690479994	-0.394430012	-1.27260005	154	240	0
-0.692560017	-0.392800003	-1.27199996	154	240	0
-0.692560017	-0.39151001	-1.27240002	154	240	0
-0.695079982	-0.392760009	-1.27190006	154	240	0
-0.693729997	-0.390679985	-1.26970005	154	240	0
-0.69194001	-0.385780007	-1.26750004	154	240	0
-0.691489995	-0.384310007	-1.26699996	154	240	0
-0.688970029	-0.385560006	-1.26670003	154	240	0
-0.686020017	-0.381639987	-1.26709998	154	240	0
-0.68513	-0.382420003	-1.26499999	154	240	0
-0.684400022	-0.382189989	-1.26900005	154	240	0
-0.684840024	-0.383749992	-1.2694	154	240	0
-0.682780027	-0.385239989	-1.2701	154	240	0
-0.682330012	-0.386200011	-1.26880002	154	240	0
-0.680270016	-0.386489987	-1.26979995	154	240	0
-0.679820001	-0.385019988	-1.26929998	154	240	0
-0.67938	-0.383569986	-1.26880002	154	240	0
-0.678939998	-0.381999999	-1.26839995	154	240	0
-0.67938	-0.380910009	-1.26960003	154	240	0
-0.681450009	-0.381969988	-1.26820004	154	240	0
-0.681450009	-0.383269995	-1.26789999	154	240	0
-0.680559993	-0.37887001	-1.26730001	154	240	0
-0.67967999	-0.379590005	-1.26520002	154	240	0
-0.679229975	-0.376890004	-1.2651	154	240	0
-0.679229975	-0.375620008	-1.26549995	154	240	0
-0.681289971	-0.376599997	-1.26409996	154	240	0
-0.683960021	-0.379339993	-1.26890004	154	240	0
-0.684840024	-0.381099999	-1.27020001	154	240	0
-0.686179996	-0.385729998	-1.27170002	154	240	0
-0.68572998	-0.386680007	-1.27040005	154	240	0
-0.685289979	-0.387699991	-1.26919997	154	240	0
-0.683220029	-0.388000011	-1.27020001	154	240	0
-0.681150019	-0.388300002	-1.27110004	154	240	0
-0.681590021	-0.389849991	-1.27160001	154	240	0
-0.679520011	-0.390150011	-1.27260005	154	240	0
-0.679080009	-0.388599992	-1.27209997	154	240	0
-0.678640008	-0.387050003	-1.27160001	154	240	0
-0.677760005	-0.385309994	-1.27030003	154	240	0
-0.677439988	-0.389160007	-1.27390003	154	240	0
-0.678319991	-0.390969992	-1.27530003	154	240	0
-0.67918998	-0.39278999	-1.2766	154	240	0
-0.681280017	-0.39249	-1.27559996	154	240	0
-0.681720018	-0.394059986	-1.27610004	154	240	0
-0.682919979	-0.391930014	-1.27380002	154	240	0
-0.682470024	-0.392960012	-1.27250004	154	240	0
-0.684989989	-0.391629994	-1.27279997	154	240	0
-0.684109986	-0.389809996	-1.27149999	154	240	0
-0.686179996	-0.389510006	-1.27049994	154	240	0
-0.685880005	-0.393449992	-1.27409995	154	240	0
-0.685880005	-0.39478001	-1.2737	154	240	0
-0.688090026	-0.401149988	-1.27639997	154	240	0
-0.688539982	-0.400299996	-1.27760005	154	240	0
-0.690630019	-0.399989992	-1.2766	154	240	0
-0.691510022	-0.401650012	-1.278	154	240	0
-0.688539982	-0.402799994	-1.27680004	154	240	0
-0.688979983	-0.404359996	-1.2773	154	240	0
-0.688979983	-0.405510008	-1.27690005	154	240	0
-0.686890006	-0.405820012	-1.27789998	154	240	0
-0.686450005	-0.404399991	-1.27740002	154	240	0
-0.686890006	-0.403380007	-1.27869999	154	240	0
-0.686890006	-0.40200001	-1.27909994	154	240	0
-0.686890006	-0.400869995	-1.27950001	154	240	0
-0.694939971	-0.404810011	-1.27869999	154	240	0
-0.694939971	-0.405959994	-1.27839994	154	240	0
-0.694939971	-0.407299995	-1.27789998	154	240	0
-0.695389986	-0.408800006	-1.27839994	154	240	0
-0.69374001	-0.409390002	-1.2802	154	240	0
-0.694630027	-0.411089987	-1.2816	154	240	0
-0.696730018	-0.410769999	-1.28059995	154	240	0
-0.698830009	-0.410450011	-1.27960002	154	240	0
-0.697929978	-0.408760011	-1.27820003	154	240	0
-0.698379993	-0.407799989	-1.27950001	154	240	0
-0.700919986	-0.408980012	-1.27890003	154	240	0
-0.701820016	-0.408289999	-1.28100002	154	240	0
-0.704370022	-0.40823999	-1.2809	154	240	0
-0.704819977	-0.409750015	-1.28129995	154	240	0
-0.704370022	-0.410629988	-1.28009999	154	240	0
-0.702269971	-0.410950005	-1.28110003	154	240	0
-0.700619996	-0.412829995	-1.28260005	154	240	0
-0.698509991	-0.414620012	-1.28310001	154	240	0
-0.698509991	-0.415809989	-1.28269994	154	240	0
-0.695959985	-0.415859997	-1.28289998	154	240	0
-0.69641	-0.41494	-1.28410006	154	240	0
-0.695519984	-0.412930012	-1.28289998	154	240	0
-0.697619975	-0.412609994	-1.28190005	154	240	0
-0.692969978	-0.414440006	-1.28250003	154	240	0
-0.690419972	-0.414480001	-1.28269994	154	240	0
-0.68997997	-0.412739992	-1.2823	154	240	0
-0.690859973	-0.412	-1.28439999	154	240	0
-0.692529976	-0.411410004	-1.28260005	154	240	0
-0.692080021	-0.409979999	-1.28209996	154	240	0
-0.689540029	-0.410030007	-1.28219998	154	240	0
-0.686999977	-0.410070002	-1.2823	154	240	0
-0.687439978	-0.412779987	-1.28240001	154	240	0
-0.68787998	-0.414519995	-1.28279996	154	240	0
-0.688319981	-0.412039995	-1.2845	154	240	0
-0.685769975	-0.41207999	-1.28470004	154	240	0
-0.686649978	-0.413919985	-1.28600001	154	240	0
-0.684539974	-0.414240003	-1.28690004	154	240	0
-0.684970021	-0.415980011	-1.28729999	154	240	0
-0.684970021	-0.417180002	-1.28690004	154	240	0
-0.685410023	-0.418740004	-1.28740001	154	240	0
-0.685850024	-0.420439988	-1.28779995	154	240	0
-0.686280012	-0.421889991	-1.28820002	154	240	0
-0.686720014	-0.423480004	-1.28869998	154	240	0
-0.687160015	-0.425170004	-1.28900003	154	240	0
-0.689279974	-0.423429996	-1.28849995	154	240	0
-0.689279974	-0.422129989	-1.28900003	154	240	0
-0.689279974	-0.420960009	-1.28929996	154	240	0
-0.691839993	-0.420920014	-1.28919995	154	240	0
-0.691839993	-0.422089994	-1.2888	154	240	0
-0.692279994	-0.423669994	-1.28929996	154	240	0
-0.693159997	-0.425650001	-1.29050004	154	240	0
-0.695280015	-0.423909992	-1.28999996	154	240	0
-0.697399974	-0.423579991	-1.28900003	154	240	0
-0.696959972	-0.421999991	-1.28859997	154	240	0
-0.696510017	-0.420549989	-1.2881	154	240	0
-0.696070015	-0.418850005	-1.28770006	154	240	0
-0.69818002	-0.418520004	-1.28670001	154	240	0
-0.698629975	-0.420219988	-1.28709996	154	240	0
-0.698629975	-0.421389997	-1.28670001	154	240	0
-0.699069977	-0.422969997	-1.28709996	154	240	0
-0.70164001	-0.422919989	-1.28699994	154	240	0
-0.70073998	-0.421070009	-1.28569996	154	240	0
-0.70073998	-0.4199	-1.28610003	154	240	0
-0.699850023	-0.417919993	-1.28480005	154	240	0
-0.701510012	-0.417320013	-1.28299999	154	240	0
-0.701960027	-0.416310012	-1.28429997	154	240	0
-0.701960027	-0.415120006	-1.28460002	154	240	0
-0.704069972	-0.415989995	-1.28330004	154	240	0
-0.703620017	-0.416990012	-1.28199995	154	240	0
-0.703620017	-0.413060009	-1.28330004	154	240	0
-0.706170022	-0.413010001	-1.28310001	154	240	0
-0.709179997	-0.413230002	-1.28380001	154	240	0
-0.709630013	-0.414970011	-1.28419995	154	240	0
-0.710089982	-0.416429996	-1.28460002	154	240	0
-0.710089982	-0.417710006	-1.28419995	154	240	0
-0.707979977	-0.418049991	-1.2852	154	240	0
-0.707530022	-0.416489989	-1.28480005	154	240	0
-0.707530022	-0.415289998	-1.2852	154	240	0
-0.705420017	-0.415619999	-1.28620005	154	240	0
-0.705860019	-0.41979	-1.28579998	154	240	0
-0.706309974	-0.421240002	-1.28620005	154	240	0
-0.706759989	-0.422820002	-1.28670001	154	240	0
-0.704649985	-0.423150003	-1.28770006	154	240	0
-0.705089986	-0.422129989	-1.28890002	154	240	0
-0.705990016	-0.425410002	-1.28980005	154	240	0
-0.705990016	-0.426560014	-1.28939998	154	240	0
-0.705990016	-0.427839994	-1.28900003	154	240	0
-0.70431	-0.428449988	-1.29079998	154	240	0
-0.702189982	-0.428790003	-1.29180002	154	240	0
-0.700500011	-0.429399997	-1.29369998	154	240	0
-0.700500011	-0.428119987	-1.29410005	154	240	0
-0.70006001	-0.426679999	-1.29359996	154	240	0
-0.697929978	-0.428169996	-1.29419994	154	240	0
-0.69836998	-0.429729998	-1.29470003	154	240	0
-0.69836998	-0.431140006	-1.29419994	154	240	0
-0.697929978	-0.432020009	-1.29299998	154	240	0
-0.698809981	-0.433880001	-1.29419994	154	240	0
-0.700940013	-0.43355	-1.29320002	154	240	0
-0.700500011	-0.43197	-1.29279995	154	240	0
-0.700500011	-0.430810004	-1.29320002	154	240	0
-0.70352	-0.431039989	-1.29390001	154	240	0
-0.704410017	-0.432770014	-1.29519999	154	240	0
-0.70352	-0.433499992	-1.2931	154	240	0
-0.705649972	-0.433160007	-1.29209995	154	240	0
-0.706099987	-0.432150006	-1.29330003	154	240	0
-0.705649972	-0.430709988	-1.29289997	154	240	0
-0.708230019	-0.430649996	-1.29270005	154	240	0
-0.708679974	-0.432099998	-1.29320002	154	240	0
-0.707780004	-0.432819992	-1.29110003	154	240	0
-0.709119976	-0.434969991	-1.29320002	154	240	0
-0.710020006	-0.436839998	-1.29439998	154	240	0
-0.710470021	-0.438430011	-1.29480004	154	240	0
-0.70788002	-0.438490003	-1.29499996	154	240	0
-0.705739975	-0.438829988	-1.296	154	240	0
-0.704850018	-0.436949998	-1.29470003	154	240	0
-0.704410017	-0.435360014	-1.29429996	154	240	0
-0.706539989	-0.43502	-1.29330003	154	240	0
-0.706990004	-0.436610013	-1.29369998	154	240	0
-0.702719986	-0.437279999	-1.29579997	154	240	0
-0.702269971	-0.435699999	-1.29530001	154	240	0
-0.699689984	-0.435750008	-1.29550004	154	240	0
-0.699689984	-0.437050015	-1.29509997	154	240	0
-0.697549999	-0.437379986	-1.296	154	240	0
-0.697549999	-0.436089993	-1.29649997	154	240	0
-0.694540024	-0.435849994	-1.29579997	154	240	0
-0.694540024	-0.437139988	-1.29530001	154	240	0
-0.69283998	-0.437759995	-1.29719996	154	240	0
-0.690689981	-0.43810001	-1.29820001	154	240	0
-0.690689981	-0.439410001	-1.29770005	154	240	0
-0.688979983	-0.440030009	-1.29949999	154	240	0
-0.688549995	-0.438430011	-1.29910004	154	240	0
-0.686839998	-0.439040005	-1.301	154	240	0
-0.686399996	-0.440070003	-1.29970002	154	240	0
-0.686399996	-0.441379994	-1.29920006	154	240	0
-0.683820009	-0.441419989	-1.29929996	154	240	0
-0.681680024	-0.44174999	-1.3003	154	240	0
-0.681680024	-0.443049997	-1.29990005	154	240	0
-0.679530025	-0.442079991	-1.30130005	154	240	0
-0.679530025	-0.44077	-1.3017	154	240	0
-0.681680024	-0.440439999	-1.30079997	154	240	0
-0.680819988	-0.438549995	-1.29949999	154	240	0
-0.678669989	-0.438870013	-1.30050004	154	240	0
-0.678240001	-0.437279999	-1.29999995	154	240	0
-0.678669989	-0.436269999	-1.30130005	154	240	0
-0.677820027	-0.434390008	-1.29999995	154	240	0
-0.677389979	-0.432940006	-1.29960001	154	240	0
-0.677389979	-0.431519985	-1.30009997	154	240	0
-0.676540017	-0.429670006	-1.29879999	154	240	0
-0.676110029	-0.428220004	-1.29830003	154	240	0
-0.676540017	-0.427080005	-1.29960001	154	240	0
-0.677820027	-0.426200002	-1.29690003	154	240	0
-0.677820027	-0.427619994	-1.29649997	154	240	0
-0.678250015	-0.429069996	-1.29690003	154	240	0
-0.678250015	-0.430350006	-1.29649997	154	240	0
-0.678669989	-0.43204999	-1.29690003	154	240	0
-0.679099977	-0.433499992	-1.2974	154	240	0
-0.679099977	-0.434789985	-1.29690003	154	240	0
-0.679099977	-0.436089993	-1.29649997	154	240	0
-0.681240022	-0.435770005	-1.29550004	154	240	0
-0.681240022	-0.434469998	-1.296	154	240	0
-0.683380008	-0.43415001	-1.29499996	154	240	0
-0.683380008	-0.432850003	-1.29540002	154	240	0
-0.68295002	-0.431400001	-1.29499996	154	240	0
-0.68295002	-0.429989994	-1.29540002	154	240	0
-0.685079992	-0.429670006	-1.29449999	154	240	0
-0.684650004	-0.430790007	-1.2931	154	240	0
-0.686779976	-0.429060012	-1.29260004	154	240	0
-0.686339974	-0.42750001	-1.29219997	154	240	0
-0.688470006	-0.427179992	-1.29120004	154	240	0
-0.688899994	-0.428739995	-1.29170001	154	240	0
-0.691470027	-0.428689986	-1.29149997	154	240	0
-0.691470027	-0.42741999	-1.29200006	154	240	0
-0.690150023	-0.425410002	-1.28980005	154	240	0
-0.694400012	-0.422049999	-1.28869998	154	240	0
-0.694400012	-0.420870006	-1.28910005	154	240	0
-0.692629993	-0.418339998	-1.28610003	154	240	0
-0.692629993	-0.417050004	-1.28649998	154	240	0
-0.694739997	-0.416729987	-1.28559995	154	240	0
-0.690079987	-0.418379992	-1.28629994	154	240	0
-0.689639986	-0.41681999	-1.28579998	154	240	0
-0.68708998	-0.416860014	-1.28600001	154	240	0
-0.687960029	-0.41870001	-1.28719997	154	240	0
-0.683730006	-0.420760006	-1.28869998	154	240	0
-0.684159994	-0.422210008	-1.28919995	154	240	0
-0.684159994	-0.423519999	-1.2888	154	240	0
-0.682039976	-0.423830003	-1.28970003	154	240	0
-0.682039976	-0.422529995	-1.2902	154	240	0
-0.679920018	-0.422850013	-1.29110003	154	240	0
-0.67948997	-0.421389997	-1.29069996	154	240	0
-0.67948997	-0.419970006	-1.29110003	154	240	0
-0.677370012	-0.421710014	-1.29159999	154	240	0
-0.678229988	-0.423449993	-1.29299998	154	240	0
-0.676100016	-0.423759997	-1.29390001	154	240	0
-0.675670028	-0.422300011	-1.29349995	154	240	0
-0.678229988	-0.420839995	-1.2938	154	240	0
-0.676530004	-0.420139998	-1.29610002	154	240	0
-0.677389979	-0.41949001	-1.29820001	154	240	0
-0.679520011	-0.417699993	-1.29770005	154	240	0
-0.679920018	-0.416280001	-1.29330003	154	240	0
-0.679059982	-0.417199999	-1.29110003	154	240	0
-0.678189993	-0.417840004	-1.28900003	154	240	0
-0.676079988	-0.418159992	-1.28989995	154	240	0
-0.677370012	-0.417789996	-1.29289997	154	240	0
-0.677370012	-0.415019989	-1.2938	154	240	0
-0.676079988	-0.413029999	-1.29159999	154	240	0
-0.680310011	-0.41486001	-1.28890002	154	240	0
-0.682420015	-0.414550006	-1.28789997	154	240	0
-0.682860017	-0.416299999	-1.28830004	154	240	0
-0.682860017	-0.417490005	-1.28789997	154	240	0
-0.682860017	-0.418779999	-1.28750002	154	240	0
-0.680310011	-0.41753	-1.28799999	154	240	0
-0.679880023	-0.418540001	-1.28670001	154	240	0
-0.680310011	-0.420240015	-1.28709996	154	240	0
-0.68118	-0.416889995	-1.29009998	154	240	0
-0.681550026	-0.412710011	-1.28659999	154	240	0
-0.683229983	-0.412120014	-1.28480005	154	240	0
-0.684889972	-0.414290011	-1.28209996	154	240	0
-0.691640019	-0.412149996	-1.28040004	154	240	0
-0.683290005	-0.424369991	-1.28659999	154	240	0
-0.682479978	-0.425529987	-1.29009998	154	240	0
-0.681219995	-0.426420003	-1.29279995	154	240	0
-0.681219995	-0.425000012	-1.29330003	154	240	0
-0.679090023	-0.425319999	-1.29429996	154	240	0
-0.679520011	-0.427020013	-1.29460001	154	240	0
-0.679520011	-0.428180009	-1.29429996	154	240	0
-0.679949999	-0.429740012	-1.29470003	154	240	0
-0.679949999	-0.431149989	-1.29419994	154	240	0
-0.680379987	-0.432599992	-1.29470003	154	240	0
-0.681649983	-0.427859992	-1.29330003	154	240	0
-0.683780015	-0.427540004	-1.29229999	154	240	0
-0.687650025	-0.431039989	-1.29390001	154	240	0
-0.685949981	-0.432810009	-1.29530001	154	240	0
-0.686380029	-0.434390008	-1.29569995	154	240	0
-0.687250018	-0.436260015	-1.29700005	154	240	0
-0.689819992	-0.43621999	-1.29690003	154	240	0
-0.688950002	-0.434350014	-1.29560006	154	240	0
-0.688950002	-0.43305999	-1.296	154	240	0
-0.691089988	-0.432729989	-1.29509997	154	240	0
-0.691089988	-0.43156001	-1.29550004	154	240	0
-0.691089988	-0.434020013	-1.29460001	154	240	0
-0.691529989	-0.435600013	-1.29509997	154	240	0
-0.693660021	-0.433979988	-1.29449999	154	240	0
-0.693660021	-0.432680011	-1.29489994	154	240	0
-0.694100022	-0.431800008	-1.29620004	154	240	0
-0.696680009	-0.431760013	-1.296	154	240	0
-0.696240008	-0.432639986	-1.29480004	154	240	0
-0.696240008	-0.43393001	-1.29439998	154	240	0
-0.695800006	-0.429780006	-1.29480004	154	240	0
-0.695360005	-0.428220004	-1.29439998	154	240	0
-0.696160018	-0.425889999	-1.29120004	154	240	0
-0.70085001	-0.425509989	-1.29009998	154	240	0
-0.70085001	-0.426670015	-1.28970003	154	240	0
-0.702970028	-0.426340014	-1.28869998	154	240	0
-0.703419983	-0.425460011	-1.28989995	154	240	0
-0.70855999	-0.42535001	-1.28960001	154	240	0
-0.709010005	-0.426789999	-1.29009998	154	240	0
-0.70855999	-0.427780002	-1.2888	154	240	0
-0.711579978	-0.428009987	-1.2895	154	240	0
-0.711579978	-0.426739991	-1.28989995	154	240	0
-0.711130023	-0.425300002	-1.28939998	154	240	0
-0.710229993	-0.423319995	-1.28820002	154	240	0
-0.712350011	-0.422989994	-1.28719997	154	240	0
-0.711440027	-0.421130002	-1.2859	154	240	0
-0.711899996	-0.420240015	-1.28709996	154	240	0
-0.71401	-0.4199	-1.28610003	154	240	0
-0.714919984	-0.421629995	-1.28740001	154	240	0
-0.716579974	-0.418430001	-1.28639996	154	240	0
-0.716120005	-0.415670007	-1.28639996	154	240	0
-0.715210021	-0.416319996	-1.28429997	154	240	0
-0.713100016	-0.417930007	-1.28489995	154	240	0
-0.712189972	-0.416099995	-1.28359997	154	240	0
-0.712189972	-0.414909989	-1.28400004	154	240	0
-0.711740017	-0.41317001	-1.28359997	154	240	0
-0.710829973	-0.411339998	-1.2823	154	240	0
-0.709919989	-0.409640014	-1.28100002	154	240	0
-0.707819998	-0.409969985	-1.28199995	154	240	0
-0.707369983	-0.410849988	-1.28079998	154	240	0
-0.706470013	-0.407920003	-1.27989995	154	240	0
-0.708109975	-0.407330006	-1.278	154	240	0
-0.707199991	-0.405449986	-1.27670002	154	240	0
-0.706749976	-0.404029995	-1.27620006	154	240	0
-0.709290028	-0.402689993	-1.27649999	154	240	0
-0.711380005	-0.402370006	-1.27550006	154	240	0
-0.711380005	-0.399870008	-1.27629995	154	240	0
-0.713919997	-0.399809986	-1.27610004	154	240	0
-0.714380026	-0.401199996	-1.2766	154	240	0
-0.714380026	-0.402579993	-1.27610004	154	240	0
-0.716929972	-0.402520001	-1.27600002	154	240	0
-0.719470024	-0.398669988	-1.27699995	154	240	0
-0.722490013	-0.394910008	-1.27880001	154	240	0
-0.715089977	-0.395040005	-1.27460003	154	240	0
-0.714630008	-0.396100014	-1.27330005	154	240	0
-0.715089977	-0.397670001	-1.27380002	154	240	0
-0.712539971	-0.397729993	-1.27390003	154	240	0
-0.706749976	-0.400240004	-1.27740002	154	240	0
-0.704659998	-0.400559992	-1.27849996	154	240	0
-0.704200029	-0.401410013	-1.2773	154	240	0
-0.701659977	-0.401459992	-1.27740002	154	240	0
-0.701659977	-0.402839988	-1.27699995	154	240	0
-0.699119985	-0.402889997	-1.27709997	154	240	0
-0.702570021	-0.400869995	-1.27950001	154	240	0
-0.695240021	-0.39963001	-1.27550006	154	240	0
-0.710200012	-0.404520005	-1.27779996	154	240	0
-0.710200012	-0.405660003	-1.27740002	154	240	0
-0.710659981	-0.407270014	-1.27779996	154	240	0
-0.713660002	-0.407489985	-1.27849996	154	240	0
-0.714579999	-0.406690001	-1.28059995	154	240	0
-0.716669977	-0.405209988	-1.27999997	154	240	0
-0.718050003	-0.407169998	-1.28209996	154	240	0
-0.718050003	-0.40851	-1.28170002	154	240	0
-0.716859996	-0.41060999	-1.28400004	154	240	0
-0.717320025	-0.413329989	-1.28410006	154	240	0
-0.718230009	-0.412580013	-1.28620005	154	240	0
-0.714299977	-0.411830008	-1.28390002	154	240	0
-0.714299977	-0.413109988	-1.28340006	154	240	0
-0.712480009	-0.409590006	-1.28079998	154	240	0
-0.712750018	-0.404460013	-1.27760005	154	240	0
-0.708880007	-0.420020014	-1.28649998	154	240	0
-0.708880007	-0.421189994	-1.28610003	154	240	0
-0.703299999	-0.419849992	-1.2859	154	240	0
-0.71371001	-0.426400006	-1.28890002	154	240	0
-0.714160025	-0.425520003	-1.29009998	154	240	0
-0.714609981	-0.428229988	-1.29009998	154	240	0
-0.713389993	-0.430539995	-1.2924	154	240	0
-0.713840008	-0.431989998	-1.29279995	154	240	0
-0.714290023	-0.433560014	-1.29330003	154	240	0
-0.711260021	-0.433340013	-1.29260004	154	240	0
-0.711260021	-0.432040006	-1.29299998	154	240	0
-0.710359991	-0.430319995	-1.29170001	154	240	0
-0.713500023	-0.436049998	-1.29639995	154	240	0
-0.713500023	-0.437350005	-1.29589999	154	240	0
-0.713500023	-0.438659996	-1.29550004	154	240	0
-0.711809993	-0.440600008	-1.29690003	154	240	0
-0.709670007	-0.440950006	-1.29789996	154	240	0
-0.710560024	-0.442820013	-1.29920006	154	240	0
-0.713150024	-0.442770004	-1.29900002	154	240	0
-0.714049995	-0.444640011	-1.3003	154	240	0
-0.711899996	-0.444990009	-1.30130005	154	240	0
-0.712790012	-0.446869999	-1.30250001	154	240	0
-0.714129984	-0.449039996	-1.3046	154	240	0
-0.714579999	-0.450569987	-1.30499995	154	240	0
-0.711520016	-0.451590002	-1.3039	154	240	0
-0.71063	-0.449750006	-1.30270004	154	240	0
-0.70848	-0.450100005	-1.30369997	154	240	0
-0.708920002	-0.451649994	-1.30410004	154	240	0
-0.708920002	-0.453020006	-1.30359995	154	240	0
-0.709360003	-0.454670012	-1.30400002	154	240	0
-0.706759989	-0.454730004	-1.30420005	154	240	0
-0.707199991	-0.453660011	-1.30550003	154	240	0
-0.706759989	-0.451999992	-1.30509996	154	240	0
-0.705869973	-0.450159997	-1.30379999	154	240	0
-0.704990029	-0.448329985	-1.30260003	154	240	0
-0.702830017	-0.44867	-1.30359995	154	240	0
-0.703270018	-0.450210005	-1.30400002	154	240	0
-0.703270018	-0.451460004	-1.30359995	154	240	0
-0.700680017	-0.451510012	-1.30369997	154	240	0
-0.700240016	-0.449970007	-1.30330002	154	240	0
-0.697640002	-0.450019985	-1.30340004	154	240	0
-0.697640002	-0.451270014	-1.30299997	154	240	0
-0.695479989	-0.451609999	-1.30400002	154	240	0
-0.695479989	-0.452980012	-1.30350006	154	240	0
-0.693750024	-0.453619987	-1.30540001	154	240	0
-0.694190025	-0.45254001	-1.30669999	154	240	0
-0.691590011	-0.453960001	-1.30630004	154	240	0
-0.691160023	-0.452289999	-1.30599999	154	240	0
-0.688989997	-0.452630013	-1.30690002	154	240	0
-0.688989997	-0.45401001	-1.30649996	154	240	0
-0.689849973	-0.455960006	-1.30770004	154	240	0
-0.690710008	-0.457859993	-1.3089	154	240	0
-0.690710008	-0.45916	-1.30850005	154	240	0
-0.690710008	-0.460409999	-1.30809999	154	240	0
-0.691569984	-0.462260008	-1.30929995	154	240	0
-0.693750024	-0.461919993	-1.30830002	154	240	0
-0.692879975	-0.46006	-1.30710006	154	240	0
-0.692879975	-0.458819985	-1.3075	154	240	0
-0.692879975	-0.457520008	-1.30799997	154	240	0
-0.693319976	-0.456510007	-1.30929995	154	240	0
-0.695050001	-0.455870003	-1.30739999	154	240	0
-0.695050001	-0.457179993	-1.30700004	154	240	0
-0.695490003	-0.458770007	-1.30739999	154	240	0
-0.696359992	-0.460610002	-1.30859995	154	240	0
-0.697220027	-0.462469995	-1.30990005	154	240	0
-0.69678998	-0.463530004	-1.30859995	154	240	0
-0.695050001	-0.464179993	-1.31040001	154	240	0
-0.694159985	-0.465429991	-1.31389999	154	240	0
-0.69502002	-0.467379987	-1.31519997	154	240	0
-0.692830026	-0.467729986	-1.3161	154	240	0
-0.692399979	-0.46608001	-1.31579995	154	240	0
-0.691969991	-0.468369991	-1.31400001	154	240	0
-0.694159985	-0.468019992	-1.31299996	154	240	0
-0.696340024	-0.467669994	-1.31200004	154	240	0
-0.697210014	-0.467029989	-1.31420004	154	240	0
-0.698960006	-0.466369987	-1.31229997	154	240	0
-0.699819982	-0.468230009	-1.31359994	154	240	0
-0.700689971	-0.470090002	-1.31480002	154	240	0
-0.701129973	-0.471729994	-1.31519997	154	240	0
-0.703750014	-0.471679986	-1.31509995	154	240	0
-0.702880025	-0.469740003	-1.31379998	154	240	0
-0.702449977	-0.468180001	-1.31340003	154	240	0
-0.701569974	-0.466320008	-1.31219995	154	240	0
-0.700699985	-0.464379996	-1.31099999	154	240	0
-0.699829996	-0.462419987	-1.30980003	154	240	0
-0.698960006	-0.460559994	-1.30850005	154	240	0
-0.698090017	-0.458719999	-1.30719995	154	240	0
-0.697660029	-0.457130015	-1.30680001	154	240	0
-0.697660029	-0.455819994	-1.30729997	154	240	0
-0.699819982	-0.455480009	-1.30630004	154	240	0
-0.700259984	-0.457080007	-1.30669999	154	240	0
-0.700699985	-0.45866999	-1.30710006	154	240	0
-0.701139987	-0.460209996	-1.3075	154	240	0
-0.703310013	-0.458620012	-1.30700004	154	240	0
-0.702870011	-0.457029998	-1.30659997	154	240	0
-0.701990008	-0.455130011	-1.3053	154	240	0
-0.701550007	-0.453480005	-1.30490005	154	240	0
-0.698949993	-0.453530014	-1.30509996	154	240	0
-0.70371002	-0.454490006	-1.30350006	154	240	0
-0.704590023	-0.453720003	-1.30560005	154	240	0
-0.705910027	-0.457269996	-1.30729997	154	240	0
-0.706350029	-0.45886001	-1.30760002	154	240	0
-0.704180002	-0.460460007	-1.3082	154	240	0
-0.702880025	-0.462669998	-1.31050003	154	240	0
-0.703760028	-0.464630008	-1.31169999	154	240	0
-0.704190016	-0.46627	-1.31200004	154	240	0
-0.705070019	-0.468120009	-1.31330001	154	240	0
-0.705500007	-0.469680011	-1.31369996	154	240	0
-0.708130002	-0.468369991	-1.31400001	154	240	0
-0.708570004	-0.469929993	-1.31439996	154	240	0
-0.709010005	-0.471569985	-1.31480002	154	240	0
-0.709439993	-0.473199993	-1.31509995	154	240	0
-0.709879994	-0.474869996	-1.31550002	154	240	0
-0.707249999	-0.474929988	-1.31560004	154	240	0
-0.707249999	-0.473560005	-1.3161	154	240	0
-0.706809998	-0.471920013	-1.31579995	154	240	0
-0.705060005	-0.473919988	-1.31710005	154	240	0
-0.705489993	-0.475600004	-1.3175	154	240	0
-0.706359982	-0.477560014	-1.31869996	154	240	0
-0.707229972	-0.47942999	-1.31990004	154	240	0
-0.706799984	-0.480390012	-1.31860006	154	240	0
-0.709439993	-0.48032999	-1.31850004	154	240	0
-0.709869981	-0.479369998	-1.31980002	154	240	0
-0.708999991	-0.477499992	-1.31850004	154	240	0
-0.711199999	-0.477140009	-1.3175	154	240	0
-0.713829994	-0.477079988	-1.31739998	154	240	0
-0.712949991	-0.475120008	-1.31620002	154	240	0
-0.712069988	-0.473150015	-1.31500006	154	240	0
-0.711189985	-0.471199989	-1.31369996	154	240	0
-0.711629987	-0.470180005	-1.31509995	154	240	0
-0.711629987	-0.468919992	-1.31550002	154	240	0
-0.714709997	-0.469159991	-1.31620002	154	240	0
-0.715149999	-0.470719993	-1.31659997	154	240	0
-0.713819981	-0.471139997	-1.31359994	154	240	0
-0.714680016	-0.466039985	-1.31140006	154	240	0
-0.714240015	-0.464399993	-1.31099999	154	240	0
-0.714240015	-0.463039994	-1.31149995	154	240	0
-0.713349998	-0.461180001	-1.31029999	154	240	0
-0.712909997	-0.459639996	-1.30990005	154	240	0
-0.710730016	-0.461239994	-1.31040001	154	240	0
-0.711170018	-0.462799996	-1.31079996	154	240	0
-0.711170018	-0.464159995	-1.31040001	154	240	0
-0.708989978	-0.464520007	-1.31140006	154	240	0
-0.709429979	-0.463459998	-1.31270003	154	240	0
-0.706809998	-0.463510007	-1.31289995	154	240	0
-0.706369996	-0.464579999	-1.31149995	154	240	0
-0.705940008	-0.465609998	-1.31019998	154	240	0
-0.708109975	-0.465259999	-1.30920005	154	240	0
-0.710290015	-0.464899987	-1.3082	154	240	0
-0.708109975	-0.461299986	-1.31060004	154	240	0
-0.709850013	-0.459399998	-1.30920005	154	240	0
-0.711579978	-0.457459986	-1.30780005	154	240	0
-0.71329999	-0.455500007	-1.30639994	154	240	0
-0.712409973	-0.453550011	-1.30519998	154	240	0
-0.716359973	-0.455729991	-1.30700004	154	240	0
-0.71724999	-0.454959989	-1.30920005	154	240	0
-0.716809988	-0.453289986	-1.30879998	154	240	0
-0.719420016	-0.451970011	-1.30910003	154	240	0
-0.719420016	-0.450720012	-1.30949998	154	240	0
-0.719420016	-0.449420005	-1.30999994	154	240	0
-0.720690012	-0.445879996	-1.30809999	154	240	0
-0.71845001	-0.445740014	-1.30350006	154	240	0
-0.71845001	-0.443129987	-1.30439997	154	240	0
-0.718349993	-0.440039992	-1.29960001	154	240	0
-0.717899978	-0.438430011	-1.29920006	154	240	0
-0.716989994	-0.436560005	-1.29789996	154	240	0
-0.717779994	-0.434069991	-1.29480004	154	240	0
-0.722180009	-0.43125999	-1.29929996	154	240	0
-0.722500026	-0.425929993	-1.29610002	154	240	0
-0.716729999	-0.42403999	-1.29040003	154	240	0
-0.709299982	-0.446350008	-1.301	154	240	0
-0.709299982	-0.447640002	-1.30060005	154	240	0
-0.707149982	-0.447979987	-1.30159998	154	240	0
-0.706260026	-0.44611001	-1.3003	154	240	0
-0.704110026	-0.446460009	-1.30130005	154	240	0
-0.701510012	-0.44521001	-1.30190003	154	240	0
-0.701070011	-0.446220011	-1.30060005	154	240	0
-0.698920012	-0.447849989	-1.30120003	154	240	0
-0.696330011	-0.447899997	-1.30130005	154	240	0
-0.695460021	-0.446020007	-1.30009997	154	240	0
-0.695460021	-0.44472	-1.30050004	154	240	0
-0.69502002	-0.443129987	-1.30009997	154	240	0
-0.694580019	-0.441540003	-1.29970002	154	240	0
-0.696730018	-0.441210002	-1.29869998	154	240	0
-0.695850015	-0.439319998	-1.2974	154	240	0
-0.693710029	-0.439649999	-1.29840004	154	240	0
-0.691999972	-0.441590011	-1.29980004	154	240	0
-0.689849973	-0.441920012	-1.30079997	154	240	0
-0.688130021	-0.443850011	-1.30219996	154	240	0
-0.688130021	-0.445149988	-1.30180001	154	240	0
-0.688560009	-0.446740001	-1.30219996	154	240	0
-0.689429998	-0.448619992	-1.30340004	154	240	0
-0.689859986	-0.450150013	-1.30379999	154	240	0
-0.687699974	-0.450489998	-1.30480003	154	240	0
-0.687699974	-0.449250013	-1.30519998	154	240	0
-0.685109973	-0.449290007	-1.30540001	154	240	0
-0.68554002	-0.450830013	-1.30579996	154	240	0
-0.686399996	-0.452670008	-1.30710006	154	240	0
-0.686399996	-0.454050004	-1.30659997	154	240	0
-0.687250018	-0.456	-1.30780005	154	240	0
-0.688109994	-0.457910001	-1.30910003	154	240	0
-0.688539982	-0.459500015	-1.30949998	154	240	0
-0.689400017	-0.461349994	-1.31070006	154	240	0
-0.689830005	-0.462909997	-1.31110001	154	240	0
-0.687650025	-0.463250011	-1.31210005	154	240	0
-0.687650025	-0.461989999	-1.31260002	154	240	0
-0.685039997	-0.462029994	-1.31270003	154	240	0
-0.685039997	-0.463290006	-1.31219995	154	240	0
-0.685469985	-0.464960009	-1.31260002	154	240	0
-0.683279991	-0.465299994	-1.31359994	154	240	0
-0.684130013	-0.46724999	-1.31480002	154	240	0
-0.684560001	-0.468800008	-1.31519997	154	240	0
-0.684979975	-0.470369995	-1.31560004	154	240	0
-0.684979975	-0.471700013	-1.31509995	154	240	0
-0.685400009	-0.473340005	-1.31550002	154	240	0
-0.685829997	-0.475019991	-1.31589997	154	240	0
-0.68362999	-0.475360006	-1.3168	154	240	0
-0.68362999	-0.474000007	-1.31729996	154	240	0
-0.683210015	-0.472350001	-1.31700003	154	240	0
-0.682789981	-0.470710009	-1.31659997	154	240	0
-0.681940019	-0.468840003	-1.31529999	154	240	0
-0.68017	-0.469489992	-1.31710005	154	240	0
-0.68017	-0.470750004	-1.31669998	154	240	0
-0.677980006	-0.471089989	-1.31760001	154	240	0
-0.677980006	-0.469830006	-1.31809998	154	240	0
-0.677980006	-0.468580008	-1.31850004	154	240	0
-0.677559972	-0.466930002	-1.31819999	154	240	0
-0.677139997	-0.465249985	-1.31780005	154	240	0
-0.678910017	-0.46461001	-1.31599998	154	240	0
-0.678489983	-0.463050008	-1.31560004	154	240	0
-0.677649975	-0.461199999	-1.31429994	154	240	0
-0.678070009	-0.460189998	-1.31560004	154	240	0
-0.678489983	-0.459179997	-1.31690001	154	240	0
-0.676720023	-0.461129993	-1.31830001	154	240	0
-0.676720023	-0.46243	-1.31780005	154	240	0
-0.67839998	-0.464890003	-1.32079995	154	240	0
-0.676620007	-0.464269996	-1.32309997	154	240	0
-0.676199973	-0.462660015	-1.32270002	154	240	0
-0.678820014	-0.461299986	-1.32299995	154	240	0
-0.676620007	-0.460260004	-1.32449996	154	240	0
-0.676620007	-0.458869994	-1.32490003	154	240	0
-0.676199973	-0.457289994	-1.32449996	154	240	0
-0.675369978	-0.455440015	-1.32319999	154	240	0
-0.675369978	-0.454129994	-1.32369995	154	240	0
-0.676199973	-0.453390002	-1.32589996	154	240	0
-0.675779998	-0.451779991	-1.32550001	154	240	0
-0.677559972	-0.451160014	-1.32360005	154	240	0
-0.67839998	-0.453070015	-1.32490003	154	240	0
-0.677139997	-0.453509986	-1.32190001	154	240	0
-0.676720023	-0.454519987	-1.32060003	154	240	0
-0.677139997	-0.456070006	-1.32099998	154	240	0
-0.677980006	-0.457940012	-1.32229996	154	240	0
-0.677559972	-0.459030002	-1.32089996	154	240	0
-0.678070009	-0.454860002	-1.3175	154	240	0
-0.677649975	-0.455830008	-1.31620002	154	240	0
-0.67723	-0.456910014	-1.31480002	154	240	0
-0.678979993	-0.457650006	-1.3125	154	240	0
-0.678979993	-0.458959997	-1.31210005	154	240	0
-0.679409981	-0.460559994	-1.3125	154	240	0
-0.680249989	-0.462410003	-1.31379998	154	240	0
-0.681100011	-0.464280009	-1.31500006	154	240	0
-0.680249989	-0.465039998	-1.31280005	154	240	0
-0.680670023	-0.46667999	-1.3132	154	240	0
-0.679329991	-0.467629999	-1.31589997	154	240	0
-0.679329991	-0.466280013	-1.31630003	154	240	0
-0.682430029	-0.462069988	-1.31280005	154	240	0
-0.682009995	-0.46303001	-1.31149995	154	240	0
-0.681590021	-0.460220009	-1.31149995	154	240	0
-0.680739999	-0.458330005	-1.31029999	154	240	0
-0.682910025	-0.457989991	-1.30929995	154	240	0
-0.685079992	-0.457650006	-1.30830002	154	240	0
-0.68423003	-0.455749989	-1.30710006	154	240	0
-0.683369994	-0.453790009	-1.30589998	154	240	0
-0.681209981	-0.454129994	-1.30680001	154	240	0
-0.681630015	-0.455790013	-1.30719995	154	240	0
-0.679889977	-0.456420004	-1.30900002	154	240	0
-0.679889977	-0.453680009	-1.30999994	154	240	0
-0.679889977	-0.452419996	-1.31040001	154	240	0
-0.681630015	-0.451790005	-1.30859995	154	240	0
-0.682489991	-0.453640014	-1.30990005	154	240	0
-0.684660017	-0.453310013	-1.3089	154	240	0
-0.683369994	-0.451160014	-1.30680001	154	240	0
-0.682089984	-0.449030012	-1.3046	154	240	0
-0.681659997	-0.447450012	-1.30420005	154	240	0
-0.681240022	-0.445850015	-1.30379999	154	240	0
-0.680379987	-0.443969995	-1.30250001	154	240	0
-0.678229988	-0.444290012	-1.30350006	154	240	0
-0.6778	-0.442699999	-1.30309999	154	240	0
-0.677380025	-0.441089988	-1.30270004	154	240	0
-0.677380025	-0.439770013	-1.30309999	154	240	0
-0.677380025	-0.438470006	-1.30359995	154	240	0
-0.677380025	-0.435860008	-1.30439997	154	240	0
-0.676949978	-0.434399992	-1.30400002	154	240	0
-0.678229988	-0.433840007	-1.30700004	154	240	0
-0.678229988	-0.432539999	-1.30739999	154	240	0
