0.429129988	-0.223069996	-1.2507	210	146	88
0.429129988	-0.22428	-1.25049996	210	146	88
0.4287	-0.225449994	-1.24940002	210	146	88
0.429549992	-0.227080002	-1.25090003	210	146	88
0.431519985	-0.225610003	-1.25020003	210	146	88
0.431939989	-0.224439994	-1.25139999	210	146	88
0.433910012	-0.224270001	-1.25049996	210	146	88
0.433910012	-0.223069996	-1.2507	210	146	88
0.43434	-0.222049996	-1.25179994	210	146	88
0.435880005	-0.221729994	-1.25	210	146	88
0.435449988	-0.222739995	-1.24890006	210	146	88
0.436309993	-0.224270001	-1.25039995	210	146	88
0.438279986	-0.222900003	-1.24969995	210	146	88
0.438279986	-0.221719995	-1.24989998	210	146	88
0.437420011	-0.220190004	-1.24839997	210	146	88
0.435449988	-0.220359996	-1.2493	210	146	88
0.435030013	-0.218970001	-1.24860001	210	146	88
0.434599996	-0.217500001	-1.24800003	210	146	88
0.434170008	-0.216000006	-1.24730003	210	146	88
0.43373999	-0.214619994	-1.24660003	210	146	88
0.43373999	-0.213440001	-1.24679995	210	146	88
0.435699999	-0.213280007	-1.24590003	210	146	88
0.435699999	-0.212190002	-1.24609995	210	146	88
0.435699999	-0.214469999	-1.2457	210	146	88
0.436129987	-0.215839997	-1.2464	210	146	88
0.436560005	-0.217340007	-1.24699998	210	146	88
0.436129987	-0.218490005	-1.24590003	210	146	88
0.437660009	-0.214310005	-1.24479997	210	146	88
0.438520014	-0.213430002	-1.24679995	210	146	88
0.438089997	-0.212180004	-1.24609995	210	146	88
0.437660009	-0.210679993	-1.24539995	210	146	88
0.437229991	-0.209279999	-1.24469995	210	146	88
0.436800003	-0.207870007	-1.24399996	210	146	88
0.439179987	-0.207859993	-1.24399996	210	146	88
0.439619988	-0.20927	-1.24469995	210	146	88
0.439619988	-0.210519999	-1.24450004	210	146	88
0.442000002	-0.210519999	-1.24440002	210	146	88
0.441339999	-0.212479994	-1.24779999	210	146	88
0.442209989	-0.215069994	-1.24919999	210	146	88
0.439810008	-0.216299996	-1.24899995	210	146	88
0.440239996	-0.219109997	-1.24940002	210	146	88
0.440239996	-0.220349997	-1.24919999	210	146	88
0.441100001	-0.223049998	-1.25059998	210	146	88
0.439559996	-0.224580005	-1.25220001	210	146	88
0.437590003	-0.22608	-1.2529	210	146	88
0.438019991	-0.22755	-1.25349998	210	146	88
0.438439995	-0.228949994	-1.25419998	210	146	88
0.436470002	-0.229120001	-1.25510001	210	146	88
0.436040014	-0.230199993	-1.25399995	210	146	88
0.436470002	-0.231629997	-1.25460005	210	146	88
0.434909999	-0.231969997	-1.25639999	210	146	88
0.435759991	-0.233559996	-1.25800002	210	146	88
0.435759991	-0.234799996	-1.25779998	210	146	88
0.436179996	-0.236210003	-1.25839996	210	146	88
0.436179996	-0.237450004	-1.25820005	210	146	88
0.436179996	-0.238680005	-1.2579	210	146	88
0.434199989	-0.238859996	-1.25890005	210	146	88
0.433770001	-0.237460002	-1.25820005	210	146	88
0.43136999	-0.237460002	-1.25820005	210	146	88
0.431789994	-0.238859996	-1.25890005	210	146	88
0.429800004	-0.239030004	-1.25979996	210	146	88
0.429800004	-0.237800002	-1.25999999	210	146	88
0.430640012	-0.240590006	-1.26129997	210	146	88
0.432630002	-0.24041	-1.26040006	210	146	88
0.435460001	-0.240580007	-1.26129997	210	146	88
0.436309993	-0.242160007	-1.26279998	210	146	88
0.436729997	-0.243640006	-1.26349998	210	146	88
0.436729997	-0.244949996	-1.26320004	210	146	88
0.434309989	-0.244949996	-1.26320004	210	146	88
0.433890015	-0.246069998	-1.26209998	210	146	88
0.431890011	-0.244949996	-1.26329994	210	146	88
0.431890011	-0.243650004	-1.26349998	210	146	88
0.431470007	-0.242160007	-1.26289999	210	146	88
0.429479986	-0.243650004	-1.26349998	210	146	88
0.429899991	-0.245130002	-1.26419997	210	146	88
0.429899991	-0.246429995	-1.26390004	210	146	88
0.430310011	-0.247889996	-1.26460004	210	146	88
0.430310011	-0.249149993	-1.26429999	210	146	88
0.430729985	-0.250589997	-1.26499999	210	146	88
0.431149989	-0.252009988	-1.26559997	210	146	88
0.433149993	-0.251830012	-1.26470006	210	146	88
0.433149993	-0.253120005	-1.26440001	210	146	88
0.435149997	-0.252939999	-1.26349998	210	146	88
0.434729993	-0.250230014	-1.26310003	210	146	88
0.434309989	-0.248789996	-1.26250005	210	146	88
0.432309985	-0.248970002	-1.26339996	210	146	88
0.432729989	-0.250409991	-1.26400006	210	146	88
0.433569998	-0.248229995	-1.26629996	210	146	88
0.433149993	-0.246769994	-1.26569998	210	146	88
0.435149997	-0.247879997	-1.26450002	210	146	88
0.437150002	-0.248960003	-1.26339996	210	146	88
0.437999994	-0.248050004	-1.26540005	210	146	88
0.437579989	-0.246590003	-1.26479995	210	146	88
0.439150006	-0.244939998	-1.26320004	210	146	88
0.438730001	-0.24346	-1.26259995	210	146	88
0.438300014	-0.241980001	-1.26189995	210	146	88
0.439449996	-0.240229994	-1.25950003	210	146	88
0.43987	-0.239189997	-1.26059997	210	146	88
0.43987	-0.237949997	-1.2608	210	146	88
0.439020008	-0.236369997	-1.25929999	210	146	88
0.437739998	-0.234630004	-1.25680006	210	146	88
0.437739998	-0.233390003	-1.25709999	210	146	88
0.439300001	-0.231790006	-1.25549996	210	146	88
0.439729989	-0.230690002	-1.25660002	210	146	88
0.442570001	-0.232120007	-1.2572	210	146	88
0.44058001	-0.233549997	-1.2579	210	146	88
0.442290008	-0.236699998	-1.26100004	210	146	88
0.437029988	-0.240239993	-1.25950003	210	146	88
0.44242999	-0.245279998	-1.26489997	210	146	88
0.443280011	-0.244310006	-1.26699996	210	146	88
0.442849994	-0.242829993	-1.26629996	210	146	88
0.443569988	-0.240899995	-1.26300001	210	146	88
0.441269994	-0.247099996	-1.26740003	210	146	88
0.442119986	-0.248740003	-1.26890004	210	146	88
0.44084999	-0.249479994	-1.26600003	210	146	88
0.437999994	-0.250569999	-1.26489997	210	146	88
0.436419994	-0.25218001	-1.26639998	210	146	88
0.43483001	-0.255219996	-1.26769996	210	146	88
0.435669988	-0.256900012	-1.26919997	210	146	88
0.435250014	-0.257939994	-1.26810002	210	146	88
0.437260002	-0.257759988	-1.26719999	210	146	88
0.437680006	-0.255389988	-1.26859999	210	146	88
0.438520014	-0.257070005	-1.2701	210	146	88
0.436089993	-0.259530008	-1.26960003	210	146	88
0.433239996	-0.259350002	-1.2687	210	146	88
0.432819992	-0.257950008	-1.26810002	210	146	88
0.433239996	-0.256900012	-1.26919997	210	146	88
0.431219995	-0.257090002	-1.2701	210	146	88
0.431219995	-0.25830999	-1.26989996	210	146	88
0.429210007	-0.258489996	-1.27079999	210	146	88
0.428380013	-0.256909996	-1.26929998	210	146	88
0.426779985	-0.257270008	-1.27110004	210	146	88
0.426779985	-0.25850001	-1.27079999	210	146	88
0.424760014	-0.259900004	-1.27149999	210	146	88
0.425590008	-0.261489987	-1.273	210	146	88
0.424760014	-0.262360007	-1.27090001	210	146	88
0.422749996	-0.262549996	-1.27180004	210	146	88
0.422749996	-0.261310011	-1.27209997	210	146	88
0.421929985	-0.259719998	-1.27059996	210	146	88
0.419910014	-0.261119992	-1.27119994	210	146	88
0.419910014	-0.262360007	-1.27090001	210	146	88
0.417890012	-0.262540013	-1.27180004	210	146	88
0.417079985	-0.260930002	-1.27030003	210	146	88
0.417079985	-0.259710014	-1.27049994	210	146	88
0.417079985	-0.258489996	-1.27079999	210	146	88
0.416669995	-0.257079989	-1.2701	210	146	88
0.418689996	-0.256909996	-1.26929998	210	146	88
0.418280005	-0.257950008	-1.26810002	210	146	88
0.418689996	-0.259350002	-1.26880002	210	146	88
0.420700014	-0.257950008	-1.26810002	210	146	88
0.421110004	-0.256909996	-1.26929998	210	146	88
0.420700014	-0.255409986	-1.26859999	210	146	88
0.422710001	-0.25523001	-1.26779997	210	146	88
0.423119992	-0.25672999	-1.26839995	210	146	88
0.422710001	-0.257770002	-1.26719999	210	146	88
0.424719989	-0.255050004	-1.26689994	210	146	88
0.424299985	-0.253479987	-1.26619995	210	146	88
0.424719989	-0.25237	-1.26740003	210	146	88
0.424719989	-0.251120001	-1.26760006	210	146	88
0.426719993	-0.250939995	-1.26680005	210	146	88
0.427139997	-0.25237	-1.26740003	210	146	88
0.427139997	-0.253659993	-1.26709998	210	146	88
0.427139997	-0.255050004	-1.26689994	210	146	88
0.428730011	-0.253300011	-1.26530004	210	146	88
0.429140002	-0.252189994	-1.2665	210	146	88
0.429140002	-0.250939995	-1.26670003	210	146	88
0.427890003	-0.249149993	-1.26429999	210	146	88
0.427890003	-0.247889996	-1.26460004	210	146	88
0.425480008	-0.247889996	-1.26460004	210	146	88
0.425889999	-0.249329999	-1.26520002	210	146	88
0.423480004	-0.249329999	-1.26520002	210	146	88
0.422650009	-0.247710004	-1.26370001	210	146	88
0.420240015	-0.247710004	-1.26370001	210	146	88
0.421059996	-0.249329999	-1.26520002	210	146	88
0.421880007	-0.250939995	-1.26670003	210	146	88
0.419880003	-0.251120001	-1.26760006	210	146	88
0.420700014	-0.252730012	-1.26919997	210	146	88
0.419880003	-0.253659993	-1.26709998	210	146	88
0.417459995	-0.253659993	-1.26709998	210	146	88
0.417869985	-0.252550006	-1.26830006	210	146	88
0.417050004	-0.250939995	-1.26670003	210	146	88
0.414640009	-0.250930011	-1.26670003	210	146	88
0.414640009	-0.252189994	-1.2665	210	146	88
0.41505	-0.25365001	-1.26709998	210	146	88
0.415859997	-0.255400002	-1.26859999	210	146	88
0.413850009	-0.255580008	-1.26950002	210	146	88
0.414249986	-0.257079989	-1.2701	210	146	88
0.413439989	-0.257939994	-1.26810002	210	146	88
0.411839992	-0.258300006	-1.26979995	210	146	88
0.411839992	-0.257079989	-1.2701	210	146	88
0.411839992	-0.25575	-1.27040005	210	146	88
0.408609986	-0.256709993	-1.26830006	210	146	88
0.409020007	-0.258109987	-1.26890004	210	146	88
0.40981999	-0.2597	-1.27049994	210	146	88
0.409420013	-0.260740012	-1.26929998	210	146	88
0.407799989	-0.259880006	-1.27129996	210	146	88
0.407400012	-0.258469999	-1.27069998	210	146	88
0.407000005	-0.257059991	-1.26999998	210	146	88
0.404989988	-0.257239997	-1.27090001	210	146	88
0.405389994	-0.258639991	-1.27149999	210	146	88
0.404590011	-0.255730003	-1.27030003	210	146	88
0.405389994	-0.254700005	-1.2723	210	146	88
0.40377	-0.255059987	-1.27409995	210	146	88
0.40377	-0.256449997	-1.27380002	210	146	88
0.40456	-0.258139998	-1.27530003	210	146	88
0.40456	-0.260600001	-1.27479994	210	146	88
0.404960006	-0.262010008	-1.27550006	210	146	88
0.405360013	-0.263440013	-1.27610004	210	146	88
0.40456	-0.264349997	-1.27409995	210	146	88
0.404170007	-0.265450001	-1.27289999	210	146	88
0.406580001	-0.264180005	-1.27320004	210	146	88
0.406580001	-0.262890011	-1.27349997	210	146	88
0.406580001	-0.261640012	-1.2737	210	146	88
0.406580001	-0.260419995	-1.27400005	210	146	88
0.409009993	-0.261649996	-1.27380002	210	146	88
0.40941	-0.263080001	-1.2744	210	146	88
0.409009993	-0.264180005	-1.27320004	210	146	88
0.408609986	-0.265280008	-1.27209997	210	146	88
0.40941	-0.266930014	-1.27359998	210	146	88
0.409810007	-0.268379986	-1.27419996	210	146	88
0.407779992	-0.268559992	-1.27509999	210	146	88
0.407779992	-0.26730001	-1.27540004	210	146	88
0.405750006	-0.267479986	-1.27620006	210	146	88
0.405750006	-0.268739998	-1.27600002	210	146	88
0.404119998	-0.269109994	-1.27769995	210	146	88
0.404520005	-0.270550013	-1.27839994	210	146	88
0.404909998	-0.268220007	-1.27980006	210	146	88
0.404119998	-0.266570002	-1.27830005	210	146	88
0.402929991	-0.264719993	-1.27579999	210	146	88
0.403329998	-0.26236999	-1.2773	210	146	88
0.403719991	-0.261319995	-1.27839994	210	146	88
0.404119998	-0.26027	-1.27960002	210	146	88
0.403329998	-0.258679986	-1.278	210	146	88
0.403329998	-0.257340014	-1.27830005	210	146	88
0.403719991	-0.25613001	-1.27950001	210	146	88
0.403329998	-0.254640013	-1.27880001	210	146	88
0.402929991	-0.253199995	-1.27820003	210	146	88
0.403719991	-0.25229001	-1.2802	210	146	88
0.401690006	-0.251170009	-1.28129995	210	146	88
0.402090013	-0.253910005	-1.28170002	210	146	88
0.402090013	-0.255169988	-1.28149998	210	146	88
0.40456	-0.25158	-1.27670002	210	146	88
0.405790001	-0.251060009	-1.27400005	210	146	88
0.403369993	-0.252319992	-1.2737	210	146	88
0.402969986	-0.249599993	-1.27330005	210	146	88
0.402179986	-0.247950003	-1.27180004	210	146	88
0.404190004	-0.249080002	-1.27059996	210	146	88
0.40338999	-0.247439995	-1.26909995	210	146	88
0.40338999	-0.244819999	-1.26960003	210	146	88
0.402999997	-0.243330002	-1.26900005	210	146	88
0.402999997	-0.242090002	-1.26919997	210	146	88
0.40259999	-0.240689993	-1.26849997	210	146	88
0.401800007	-0.239109993	-1.26699996	210	146	88
0.404599994	-0.241750002	-1.26740003	210	146	88
0.403800011	-0.242650002	-1.26540005	210	146	88
0.402999997	-0.243619993	-1.26329994	210	146	88
0.403800011	-0.245269999	-1.26489997	210	146	88
0.403400004	-0.24639	-1.26370001	210	146	88
0.405000001	-0.24605	-1.26199996	210	146	88
0.404599994	-0.244580001	-1.26129997	210	146	88
0.404190004	-0.243100002	-1.26069999	210	146	88
0.406190008	-0.242939994	-1.25979996	210	146	88
0.406190008	-0.241630003	-1.26010001	210	146	88
0.406190008	-0.240390003	-1.26030004	210	146	88
0.406190008	-0.239179999	-1.26049995	210	146	88
0.405779988	-0.237770006	-1.25989997	210	146	88
0.407770008	-0.237609997	-1.25899994	210	146	88
0.408179998	-0.239020005	-1.25969994	210	146	88
0.408179998	-0.240229994	-1.25950003	210	146	88
0.408580005	-0.241640002	-1.26010001	210	146	88
0.408179998	-0.242770001	-1.25899994	210	146	88
0.408989996	-0.244420007	-1.26049995	210	146	88
0.406989992	-0.244589999	-1.26139998	210	146	88
0.408199996	-0.246409997	-1.26380002	210	146	88
0.408199996	-0.247690007	-1.26359999	210	146	88
0.408609986	-0.249129996	-1.26419997	210	146	88
0.41060999	-0.248960003	-1.26329994	210	146	88
0.411009997	-0.247879997	-1.26450002	210	146	88
0.413010001	-0.247700006	-1.26359999	210	146	88
0.412609994	-0.248789996	-1.26250005	210	146	88
0.415419996	-0.247710004	-1.26359999	210	146	88
0.415010005	-0.246250004	-1.26300001	210	146	88
0.414189994	-0.244599998	-1.2615	210	146	88
0.416189998	-0.244430006	-1.26059997	210	146	88
0.416189998	-0.243129998	-1.2608	210	146	88
0.416599989	-0.24199	-1.26199996	210	146	88
0.418590009	-0.241819993	-1.26110005	210	146	88
0.419	-0.243310004	-1.26170003	210	146	88
0.419	-0.244609997	-1.2615	210	146	88
0.419	-0.245900005	-1.26119995	210	146	88
0.42058	-0.245560005	-1.25950003	210	146	88
0.420170009	-0.244090006	-1.25880003	210	146	88
0.422580004	-0.244090006	-1.25880003	210	146	88
0.423409998	-0.245729998	-1.26040006	210	146	88
0.423409998	-0.243139997	-1.26090002	210	146	88
0.423409998	-0.241830006	-1.26110005	210	146	88
0.425399989	-0.24165	-1.26020002	210	146	88
0.425399989	-0.242960006	-1.25999999	210	146	88
0.428220004	-0.241819993	-1.26110005	210	146	88
0.427810013	-0.240419999	-1.26040006	210	146	88
0.426970005	-0.238869995	-1.25890005	210	146	88
0.426550001	-0.237460002	-1.25820005	210	146	88
0.42414999	-0.237460002	-1.25820005	210	146	88
0.42456001	-0.238869995	-1.25890005	210	146	88
0.42456001	-0.240079999	-1.25870001	210	146	88
0.42216	-0.240079999	-1.25870001	210	146	88
0.42058	-0.24165	-1.26020002	210	146	88
0.421000004	-0.243129998	-1.26090002	210	146	88
0.423319995	-0.235890001	-1.25670004	210	146	88
0.423319995	-0.234650001	-1.25689995	210	146	88
0.422899991	-0.233239993	-1.25629997	210	146	88
0.422069997	-0.231649995	-1.25469995	210	146	88
0.423629999	-0.231319994	-1.2529	210	146	88
0.423629999	-0.230049998	-1.25310004	210	146	88
0.424459994	-0.22913	-1.25520003	210	146	88
0.426440001	-0.228970006	-1.2543	210	146	88
0.426440001	-0.230210006	-1.25399995	210	146	88
0.426860005	-0.231649995	-1.25469995	210	146	88
0.427700013	-0.233239993	-1.25619996	210	146	88
0.427280009	-0.234310001	-1.25510001	210	146	88
0.427700013	-0.235719994	-1.25580001	210	146	88
0.42967999	-0.235550001	-1.25489998	210	146	88
0.42967999	-0.234310001	-1.25510001	210	146	88
0.430099994	-0.233239993	-1.25619996	210	146	88
0.42967999	-0.231810004	-1.25559998	210	146	88
0.429259986	-0.23037	-1.25489998	210	146	88
0.42967999	-0.229289994	-1.25600004	210	146	88
0.431659997	-0.23037	-1.25489998	210	146	88
0.432080001	-0.231810004	-1.25559998	210	146	88
0.433640003	-0.230210006	-1.25399995	210	146	88
0.434489995	-0.229279995	-1.25600004	210	146	88
0.435189992	-0.227390006	-1.25259995	210	146	88
0.434760004	-0.225930005	-1.25199997	210	146	88
0.432790011	-0.227400005	-1.25269997	210	146	88
0.430819988	-0.228799999	-1.25339997	210	146	88
0.428420007	-0.227559999	-1.2536	210	146	88
0.425599992	-0.227400005	-1.25269997	210	146	88
0.432929993	-0.234640002	-1.25689995	210	146	88
0.432929993	-0.235880002	-1.25660002	210	146	88
0.433349997	-0.233559996	-1.25800002	210	146	88
0.425300002	-0.235719994	-1.25580001	210	146	88
0.425300002	-0.234479994	-1.25600004	210	146	88
0.425720006	-0.233410001	-1.25709999	210	146	88
0.426649988	-0.244790003	-1.26240003	210	146	88
0.427060008	-0.246250004	-1.26300001	210	146	88
0.41742	-0.246250004	-1.26300001	210	146	88
0.41742	-0.247539997	-1.26279998	210	146	88
0.415829986	-0.249149993	-1.26429999	210	146	88
0.418650001	-0.249329999	-1.26520002	210	146	88
0.413419992	-0.246590003	-1.26479995	210	146	88
0.4102	-0.246240005	-1.26300001	210	146	88
0.411390007	-0.244430006	-1.26049995	210	146	88
0.410979986	-0.242950007	-1.25989997	210	146	88
0.410569996	-0.241469994	-1.25919998	210	146	88
0.410169989	-0.238849998	-1.25880003	210	146	88
0.410169989	-0.237619996	-1.25909996	210	146	88
0.413379997	-0.24165	-1.26020002	210	146	88
0.413379997	-0.242950007	-1.25989997	210	146	88
0.411009997	-0.251639992	-1.26370001	210	146	88
0.409009993	-0.253109992	-1.26440001	210	146	88
0.407409996	-0.25345999	-1.26610005	210	146	88
0.408210009	-0.255199999	-1.26760006	210	146	88
0.405800015	-0.255199999	-1.26760006	210	146	88
0.405800015	-0.253809988	-1.26789999	210	146	88
0.405000001	-0.252160013	-1.26629996	210	146	88
0.405000001	-0.250910014	-1.26660001	210	146	88
0.405800015	-0.25	-1.26859999	210	146	88
0.407409996	-0.250919998	-1.26660001	210	146	88
0.407009989	-0.249479994	-1.26600003	210	146	88
0.406610012	-0.248040006	-1.26530004	210	146	88
0.404599994	-0.248209998	-1.26619995	210	146	88
0.40338999	-0.251260012	-1.26830006	210	146	88
0.403789997	-0.252689987	-1.26900005	210	146	88
0.402179986	-0.253039986	-1.27079999	210	146	88
0.40941	-0.250750005	-1.2658	210	146	88
0.412230015	-0.250930011	-1.26670003	210	146	88
0.412230015	-0.253470004	-1.26619995	210	146	88
0.408199996	-0.251459986	-1.26279998	210	146	88
0.406199992	-0.251630008	-1.26370001	210	146	88
0.405000001	-0.242139995	-1.26269996	210	146	88
0.404599994	-0.240730003	-1.26209998	210	146	88
0.403789997	-0.23917	-1.26049995	210	146	88
0.40338999	-0.237770006	-1.25979996	210	146	88
0.402200013	-0.23827	-1.26250005	210	146	88
0.402200013	-0.23951	-1.26230001	210	146	88
0.405000001	-0.237200007	-1.26370001	210	146	88
0.404590011	-0.246659994	-1.27209997	210	146	88
0.401349992	-0.248649999	-1.27530003	210	146	88
0.401749998	-0.250120014	-1.27600002	210	146	88
0.401690006	-0.259030014	-1.27980006	210	146	88
0.405750006	-0.259920001	-1.27779996	210	146	88
0.405310005	-0.264539987	-1.28149998	210	146	88
0.403659999	-0.266200006	-1.28299999	210	146	88
0.403659999	-0.267500013	-1.28269994	210	146	88
0.403659999	-0.270049989	-1.28219998	210	146	88
0.403270006	-0.271109998	-1.28100002	210	146	88
0.403659999	-0.27384001	-1.28139997	210	146	88
0.406100005	-0.272570014	-1.28170002	210	146	88
0.40733999	-0.272000015	-1.27900004	210	146	88
0.406940013	-0.273090005	-1.27789998	210	146	88
0.40654999	-0.274179995	-1.27670002	210	146	88
0.404909998	-0.274560004	-1.27839994	210	146	88
0.404909998	-0.273270011	-1.27869999	210	146	88
0.402480006	-0.274549991	-1.27839994	210	146	88
0.403270006	-0.277539998	-1.27960002	210	146	88
0.404060006	-0.276639998	-1.28170002	210	146	88
0.406100005	-0.276450008	-1.2809	210	146	88
0.405699998	-0.277550012	-1.27970004	210	146	88
0.406100005	-0.27899	-1.28030002	210	146	88
0.404449999	-0.27937001	-1.28209996	210	146	88
0.404449999	-0.283230007	-1.28120005	210	146	88
0.402410001	-0.283419997	-1.28209996	210	146	88
0.408529997	-0.277749985	-1.28059995	210	146	88
0.407739997	-0.276069999	-1.27909994	210	146	88
0.40733999	-0.278409988	-1.27769995	210	146	88
0.410169989	-0.277370006	-1.27890003	210	146	88
0.410569996	-0.276270002	-1.27999997	210	146	88
0.412209988	-0.275889993	-1.27830005	210	146	88
0.412209988	-0.277179986	-1.278	210	146	88
0.413010001	-0.278820008	-1.27950001	210	146	88
0.412609994	-0.279879987	-1.27830005	210	146	88
0.410970002	-0.279009998	-1.28040004	210	146	88
0.411370009	-0.28046	-1.28100002	210	146	88
0.408930004	-0.28046	-1.28100002	210	146	88
0.41505	-0.27737999	-1.27890003	210	146	88
0.415850013	-0.276479989	-1.28100002	210	146	88
0.417479992	-0.27610001	-1.27919996	210	146	88
0.417890012	-0.277579993	-1.27980006	210	146	88
0.419519991	-0.27590999	-1.27830005	210	146	88
0.41911	-0.274399996	-1.27769995	210	146	88
0.421149999	-0.274210006	-1.27680004	210	146	88
0.421149999	-0.272929996	-1.27709997	210	146	88
0.421149999	-0.275519997	-1.27649999	210	146	88
0.423990011	-0.274410009	-1.27769995	210	146	88
0.424809992	-0.27610001	-1.27919996	210	146	88
0.424809992	-0.273499995	-1.27980006	210	146	88
0.42561999	-0.271459997	-1.27649999	210	146	88
0.42561999	-0.270209998	-1.27680004	210	146	88
0.425209999	-0.268779993	-1.27610004	210	146	88
0.424800009	-0.267320007	-1.27550006	210	146	88
0.424389988	-0.265859991	-1.27489996	210	146	88
0.424800009	-0.264759988	-1.27600002	210	146	88
0.42640999	-0.265679985	-1.27400005	210	146	88
0.425999999	-0.264209986	-1.27339995	210	146	88
0.428429991	-0.265489995	-1.27310002	210	146	88
0.428849995	-0.264389992	-1.27419996	210	146	88
0.430869997	-0.265489995	-1.27310002	210	146	88
0.432889998	-0.265300006	-1.27219999	210	146	88
0.432889998	-0.262730002	-1.27269995	210	146	88
0.432469994	-0.261299998	-1.27209997	210	146	88
0.432469994	-0.26008001	-1.2723	210	146	88
0.430869997	-0.260450006	-1.27409995	210	146	88
0.428429991	-0.261669993	-1.27390003	210	146	88
0.42802	-0.26027	-1.27320004	210	146	88
0.429630011	-0.261119992	-1.27119994	210	146	88
0.429630011	-0.262360007	-1.27090001	210	146	88
0.430040002	-0.263830006	-1.27160001	210	146	88
0.42761001	-0.262549996	-1.27180004	210	146	88
0.428849995	-0.266950011	-1.2737	210	146	88
0.429259986	-0.268400013	-1.27429998	210	146	88
0.42723	-0.268590003	-1.27520001	210	146	88
0.427650005	-0.270020008	-1.27590001	210	146	88
0.42723	-0.271079987	-1.27470005	210	146	88
0.431699991	-0.268400013	-1.27429998	210	146	88
0.431699991	-0.267129987	-1.27460003	210	146	88
0.434139997	-0.267129987	-1.27460003	210	146	88
0.436159998	-0.266939998	-1.2737	210	146	88
0.436159998	-0.265670002	-1.27390003	210	146	88
0.436580002	-0.264569998	-1.27509999	210	146	88
0.434139997	-0.264569998	-1.27509999	210	146	88
0.435330003	-0.262719989	-1.27269995	210	146	88
0.434909999	-0.261299998	-1.27209997	210	146	88
0.438190013	-0.26166001	-1.27380002	210	146	88
0.439020008	-0.263269991	-1.27530003	210	146	88
0.439859986	-0.26493001	-1.27680004	210	146	88
0.439020008	-0.265850008	-1.27479994	210	146	88
0.438190013	-0.266750008	-1.27279997	210	146	88
0.437000006	-0.26857999	-1.27520001	210	146	88
0.434969991	-0.268770009	-1.27610004	210	146	88
0.440629989	-0.262899995	-1.27349997	210	146	88
0.441049993	-0.261839986	-1.27470005	210	146	88
0.440210015	-0.260250002	-1.27310002	210	146	88
0.441799998	-0.258650005	-1.27160001	210	146	88
0.443069994	-0.256639987	-1.27479994	210	146	88
0.443489999	-0.258150011	-1.27540004	210	146	88
0.44382	-0.254530013	-1.27149999	210	146	88
0.44095999	-0.253060013	-1.27090001	210	146	88
0.439689994	-0.253820002	-1.26789999	210	146	88
0.443919986	-0.263260007	-1.27530003	210	146	88
0.425590008	-0.266579986	-1.27190006	210	146	88
0.421950012	-0.265859991	-1.27489996	210	146	88
0.421539992	-0.266950011	-1.2737	210	146	88
0.422360003	-0.268590003	-1.27520001	210	146	88
0.420329988	-0.268779993	-1.27610004	210	146	88
0.420740008	-0.270209998	-1.27670002	210	146	88
0.418300003	-0.270200014	-1.27670002	210	146	88
0.417899996	-0.271270007	-1.27559996	210	146	88
0.418300003	-0.272729993	-1.27620006	210	146	88
0.416269988	-0.272920012	-1.27709997	210	146	88
0.415870011	-0.271450013	-1.27649999	210	146	88
0.416269988	-0.270390004	-1.27760005	210	146	88
0.415870011	-0.268959999	-1.27699995	210	146	88
0.417490005	-0.26857999	-1.27520001	210	146	88
0.417089999	-0.267129987	-1.27460003	210	146	88
0.417089999	-0.265859991	-1.27479994	210	146	88
0.416680008	-0.264389992	-1.27419996	210	146	88
0.41426	-0.264380008	-1.27419996	210	146	88
0.413850009	-0.262910008	-1.27359998	210	146	88
0.413450003	-0.261480004	-1.27289999	210	146	88
0.413450003	-0.260259986	-1.27320004	210	146	88
0.414660007	-0.259710014	-1.27049994	210	146	88
0.414660007	-0.262169987	-1.26999998	210	146	88
0.413439989	-0.26038	-1.26760006	210	146	88
0.413450003	-0.265289992	-1.27209997	210	146	88
0.413450003	-0.266559988	-1.27190006	210	146	88
0.412230015	-0.265850008	-1.27479994	210	146	88
0.412629992	-0.267309994	-1.27540004	210	146	88
0.412230015	-0.26839	-1.27429998	210	146	88
0.411410004	-0.27037999	-1.27760005	210	146	88
0.411810011	-0.271820009	-1.27820003	210	146	88
0.411410004	-0.272909999	-1.27699995	210	146	88
0.411009997	-0.273999989	-1.27590001	210	146	88
0.408980012	-0.274190009	-1.27670002	210	146	88
0.408580005	-0.272709996	-1.27610004	210	146	88
0.409770012	-0.272009999	-1.27909994	210	146	88
0.407380015	-0.269609988	-1.27390003	210	146	88
0.40456	-0.269419998	-1.273	210	146	88
0.406980008	-0.265650004	-1.27380002	210	146	88
0.413839996	-0.272920012	-1.27709997	210	146	88
0.413839996	-0.271640003	-1.2773	210	146	88
0.414240003	-0.270579994	-1.27849996	210	146	88
0.414640009	-0.274589986	-1.27859998	210	146	88
0.416680008	-0.274399996	-1.27769995	210	146	88
0.411430001	-0.264189988	-1.27330005	210	146	88
0.411029994	-0.262719989	-1.27260005	210	146	88
0.41911	-0.264389992	-1.27419996	210	146	88
0.41911	-0.265670002	-1.27400005	210	146	88
0.41911	-0.266950011	-1.2737	210	146	88
0.420729995	-0.264019996	-1.27250004	210	146	88
0.419519991	-0.270889997	-1.27380002	210	146	88
0.422360003	-0.271079987	-1.27470005	210	146	88
0.423180014	-0.270209998	-1.27680004	210	146	88
0.423590004	-0.277969986	-1.2816	210	146	88
0.421139985	-0.277969986	-1.2816	210	146	88
0.419910014	-0.279799998	-1.28400004	210	146	88
0.420309991	-0.281260014	-1.28460002	210	146	88
0.420309991	-0.282559991	-1.28429997	210	146	88
0.419910014	-0.283659995	-1.28320003	210	146	88
0.419910014	-0.284940004	-1.28289998	210	146	88
0.417860001	-0.285140008	-1.28380001	210	146	88
0.417459995	-0.283659995	-1.28320003	210	146	88
0.417059988	-0.282169998	-1.28250003	210	146	88
0.416649997	-0.280669987	-1.28190005	210	146	88
0.416649997	-0.279410005	-1.28219998	210	146	88
0.415010005	-0.282359987	-1.28340006	210	146	88
0.412959993	-0.282550007	-1.28429997	210	146	88
0.41336	-0.284040004	-1.28489995	210	146	88
0.415809989	-0.284049988	-1.28489995	210	146	88
0.415410012	-0.285129994	-1.28369999	210	146	88
0.41336	-0.286610007	-1.28429997	210	146	88
0.410919994	-0.286610007	-1.28429997	210	146	88
0.408870012	-0.286799997	-1.2852	210	146	88
0.409260005	-0.28828001	-1.28579998	210	146	88
0.409260005	-0.289570004	-1.28550005	210	146	88
0.406819999	-0.28828001	-1.28569996	210	146	88
0.406419992	-0.289359987	-1.28460002	210	146	88
0.40437001	-0.289550006	-1.28540003	210	146	88
0.403979987	-0.288060009	-1.28480005	210	146	88
0.407209992	-0.28718999	-1.28690004	210	146	88
0.410519987	-0.283840001	-1.28400004	210	146	88
0.410919994	-0.282739997	-1.2852	210	146	88
0.40933001	-0.284530014	-1.28100002	210	146	88
0.411769986	-0.284530014	-1.28100002	210	146	88
0.421119988	-0.286819994	-1.28530002	210	146	88
0.423979998	-0.287019998	-1.28620005	210	146	88
0.42603001	-0.286830008	-1.28530002	210	146	88
0.42561999	-0.285340011	-1.28470004	210	146	88
0.427670002	-0.285140008	-1.28380001	210	146	88
0.427670002	-0.283859998	-1.28410006	210	146	88
0.427260011	-0.282370001	-1.28349996	210	146	88
0.425209999	-0.282570004	-1.28439999	210	146	88
0.424809992	-0.283659995	-1.28320003	210	146	88
0.422360003	-0.284949988	-1.28289998	210	146	88
0.421950012	-0.283470005	-1.2823	210	146	88
0.421950012	-0.282169998	-1.28260005	210	146	88
0.422360003	-0.281069994	-1.28380001	210	146	88
0.42276001	-0.280000001	-1.28489995	210	146	88
0.424809992	-0.279799998	-1.28400004	210	146	88
0.424400002	-0.280869991	-1.28289998	210	146	88
0.426440001	-0.280680001	-1.28199995	210	146	88
0.426849991	-0.278360009	-1.28340006	210	146	88
0.427670002	-0.280000001	-1.28489995	210	146	88
0.430530012	-0.282759994	-1.2852	210	146	88
0.430530012	-0.284060001	-1.28499997	210	146	88
0.430130005	-0.285140008	-1.28380001	210	146	88
0.430130005	-0.286430001	-1.28349996	210	146	88
0.42888999	-0.287019998	-1.28620005	210	146	88
0.402410001	-0.275700003	-1.28369999	210	146	88
0.405239999	-0.273319989	-1.2852	210	146	88
0.404850006	-0.269349992	-1.28509998	210	146	88
0.404850006	-0.265460014	-1.2859	210	146	88
0.417869985	-0.255219996	-1.26769996	210	146	88
0.423119992	-0.254020005	-1.26890004	210	146	88
0.423530012	-0.252900004	-1.2701	210	146	88
0.431980014	-0.253659993	-1.26709998	210	146	88
0.432399988	-0.255219996	-1.26769996	210	146	88
0.430810004	-0.255580008	-1.26950002	210	146	88
0.434729993	-0.243819997	-1.26440001	210	146	88
0.434309989	-0.24233	-1.26380002	210	146	88
0.439990014	-0.227379993	-1.25259995	210	146	88
0.441969991	-0.227219999	-1.25170004	210	146	88
0.44084999	-0.226400003	-1.25460005	210	146	88
0.442400008	-0.222350001	-1.25349998	210	146	88
0.444370002	-0.219730005	-1.25300002	210	146	88
0.441100001	-0.218109995	-1.25150001	210	146	88
0.443500012	-0.214340001	-1.25209999	210	146	88
0.445470005	-0.215369999	-1.25090003	210	146	88
0.441139996	-0.206400007	-1.24329996	210	146	88
0.441570014	-0.205229998	-1.24440002	210	146	88
0.440699995	-0.203820005	-1.2428	210	146	88
0.439839989	-0.202199996	-1.24129999	210	146	88
0.439399987	-0.200839996	-1.24059999	210	146	88
0.438529998	-0.199469998	-1.23899996	210	146	88
0.43810001	-0.197970003	-1.23829997	210	146	88
0.439610004	-0.197679996	-1.23650002	210	146	88
0.436369985	-0.196170002	-1.2349	210	146	88
0.436369985	-0.195079997	-1.23510003	210	146	88
0.434430003	-0.195219994	-1.23599994	210	146	88
0.434430003	-0.196319997	-1.23580003	210	146	88
0.432489991	-0.196459994	-1.23679996	210	146	88
0.431629986	-0.195089996	-1.23510003	210	146	88
0.43077001	-0.19348	-1.23360002	210	146	88
0.432700008	-0.193340003	-1.23269999	210	146	88
0.432700008	-0.19224	-1.23280001	210	146	88
0.432700008	-0.191009998	-1.23300004	210	146	88
0.430339992	-0.191009998	-1.23300004	210	146	88
0.430339992	-0.189769998	-1.23319995	210	146	88
0.429910004	-0.188260004	-1.23259997	210	146	88
0.427980006	-0.1884	-1.2335	210	146	88
0.427549988	-0.187179998	-1.23269999	210	146	88
0.425199986	-0.187179998	-1.23269999	210	146	88
0.424769998	-0.188130006	-1.23169994	210	146	88
0.42561999	-0.189769998	-1.23329997	210	146	88
0.427549988	-0.189630002	-1.23239994	210	146	88
0.428409994	-0.191149995	-1.23399997	210	146	88
0.426479995	-0.191290006	-1.2349	210	146	88
0.426479995	-0.192530006	-1.23469996	210	146	88
0.427329987	-0.193910003	-1.23629999	210	146	88
0.429699987	-0.193910003	-1.23629999	210	146	88
0.429699987	-0.1928	-1.23640001	210	146	88
0.431629986	-0.192660004	-1.23549998	210	146	88
0.433569998	-0.190040007	-1.23500001	210	146	88
0.435499996	-0.189899996	-1.23409998	210	146	88
0.435499996	-0.191139996	-1.23389995	210	146	88
0.435930014	-0.192509994	-1.23459995	210	146	88
0.437869996	-0.192369998	-1.23370004	210	146	88
0.437429994	-0.193330005	-1.23259997	210	146	88
0.434630007	-0.193200007	-1.23169994	210	146	88
0.437429994	-0.18976	-1.23319995	210	146	88
0.436989993	-0.188250005	-1.23249996	210	146	88
0.435070008	-0.188390002	-1.23339999	210	146	88
0.43226999	-0.188260004	-1.23249996	210	146	88
0.431410015	-0.186900005	-1.23090005	210	146	88
0.433329999	-0.186759993	-1.23000002	210	146	88
0.436120003	-0.186890006	-1.23090005	210	146	88
0.438919991	-0.187020004	-1.23169994	210	146	88
0.440230012	-0.188510001	-1.2342	210	146	88
0.439799994	-0.189750001	-1.23310006	210	146	88
0.438739985	-0.191410005	-1.23559999	210	146	88
0.441109985	-0.192640007	-1.23539996	210	146	88
0.441540003	-0.193880007	-1.23609996	210	146	88
0.441980004	-0.191679999	-1.23740005	210	146	88
0.443040013	-0.190019995	-1.2349	210	146	88
0.429049999	-0.186900005	-1.23090005	210	146	88
0.429699987	-0.196319997	-1.23590004	210	146	88
0.427329987	-0.196319997	-1.23590004	210	146	88
0.425399989	-0.196470007	-1.23679996	210	146	88
0.425399989	-0.195370004	-1.23699999	210	146	88
0.425399989	-0.197699994	-1.23660004	210	146	88
0.423029989	-0.197699994	-1.23660004	210	146	88
0.422610015	-0.196329996	-1.23590004	210	146	88
0.420670003	-0.196470007	-1.23679996	210	146	88
0.420670003	-0.197699994	-1.23660004	210	146	88
0.420670003	-0.199049994	-1.23640001	210	146	88
0.420249999	-0.199990004	-1.23529994	210	146	88
0.420670003	-0.201350003	-1.23599994	210	146	88
0.423029989	-0.201350003	-1.23599994	210	146	88
0.423460007	-0.200279996	-1.23710001	210	146	88
0.423460007	-0.199200004	-1.23730004	210	146	88
0.426250011	-0.199340001	-1.23819995	210	146	88
0.426250011	-0.200430006	-1.23800004	210	146	88
0.428189993	-0.200279996	-1.23710001	210	146	88
0.428189993	-0.20149	-1.23689997	210	146	88
0.430130005	-0.201340005	-1.23599994	210	146	88
0.430559993	-0.200279996	-1.23710001	210	146	88
0.430559993	-0.199190006	-1.23730004	210	146	88
0.43099001	-0.19799	-1.23839998	210	146	88
0.428620011	-0.199340001	-1.23819995	210	146	88
0.428189993	-0.197850004	-1.23749995	210	146	88
0.43336001	-0.199330002	-1.23810005	210	146	88
0.433789998	-0.198119998	-1.2392	210	146	88
0.43573001	-0.197980002	-1.23829997	210	146	88
0.436159998	-0.199469998	-1.23899996	210	146	88
0.437020004	-0.200849995	-1.24059999	210	146	88
0.436589986	-0.201910004	-1.23950005	210	146	88
0.437020004	-0.203390002	-1.24020004	210	146	88
0.436589986	-0.204349995	-1.23909998	210	146	88
0.436589986	-0.205669999	-1.23889995	210	146	88
0.434219986	-0.205679998	-1.23889995	210	146	88
0.433789998	-0.204209998	-1.23819995	210	146	88
0.433789998	-0.203099996	-1.23839998	210	146	88
0.431840003	-0.203250006	-1.23930001	210	146	88
0.431840003	-0.204359993	-1.2392	210	146	88
0.431840003	-0.205679998	-1.23889995	210	146	88
0.429899991	-0.205829993	-1.23989999	210	146	88
0.429470003	-0.204359993	-1.2392	210	146	88
0.429899991	-0.203400001	-1.24030006	210	146	88
0.427529991	-0.204510003	-1.24010003	210	146	88
0.427949995	-0.205980003	-1.24080002	210	146	88
0.428380013	-0.207430005	-1.2414	210	146	88
0.426849991	-0.208989993	-1.24300003	210	146	88
0.427280009	-0.207880005	-1.24409997	210	146	88
0.429650009	-0.209140003	-1.24389994	210	146	88
0.430079997	-0.210539997	-1.24460006	210	146	88
0.430079997	-0.211889997	-1.24440002	210	146	88
0.43246001	-0.211889997	-1.24430001	210	146	88
0.432029992	-0.210390002	-1.24370003	210	146	88
0.43246001	-0.209289998	-1.24479997	210	146	88
0.43441999	-0.209130004	-1.24389994	210	146	88
0.433990002	-0.210229993	-1.2428	210	146	88
0.433560014	-0.20758	-1.24230003	210	146	88
0.43118	-0.20758	-1.24230003	210	146	88
0.431360006	-0.213440001	-1.24679995	210	146	88
0.432209998	-0.214929998	-1.24839997	210	146	88
0.432209998	-0.216150001	-1.24820006	210	146	88
0.432630002	-0.217659995	-1.24890006	210	146	88
0.431089997	-0.217969999	-1.2507	210	146	88
0.430249989	-0.218970001	-1.24870002	210	146	88
0.431089997	-0.220520005	-1.25020003	210	146	88
0.431519985	-0.221890002	-1.25090003	210	146	88
0.431089997	-0.222910002	-1.24979997	210	146	88
0.43305999	-0.220359996	-1.2493	210	146	88
0.431360006	-0.218500003	-1.24600005	210	146	88
0.427430004	-0.220050007	-1.24759996	210	146	88
0.42701	-0.218659997	-1.24689996	210	146	88
0.426589996	-0.217199996	-1.24619997	210	146	88
0.426169991	-0.215700001	-1.24559999	210	146	88
0.425740004	-0.214320004	-1.24489999	210	146	88
0.425740004	-0.213139996	-1.24510002	210	146	88
0.425319999	-0.211889997	-1.24440002	210	146	88
0.423370004	-0.212050006	-1.24530005	210	146	88
0.423790008	-0.213290006	-1.24600005	210	146	88
0.423370004	-0.214330003	-1.24489999	210	146	88
0.424210012	-0.215849996	-1.24650002	210	146	88
0.424629986	-0.217350006	-1.2471	210	146	88
0.424210012	-0.218510002	-1.24600005	210	146	88
0.422250003	-0.218659997	-1.24689996	210	146	88
0.422250003	-0.217350006	-1.2471	210	146	88
0.42028001	-0.21751	-1.24800003	210	146	88
0.419869989	-0.218659997	-1.24689996	210	146	88
0.419450015	-0.215849996	-1.24650002	210	146	88
0.42098999	-0.214320004	-1.24489999	210	146	88
0.42098999	-0.213139996	-1.24510002	210	146	88
0.42098999	-0.212050006	-1.24530005	210	146	88
0.419030011	-0.212200001	-1.24619997	210	146	88
0.417780012	-0.210390002	-1.24370003	210	146	88
0.417360008	-0.212679997	-1.24240005	210	146	88
0.417360008	-0.213860005	-1.24220002	210	146	88
0.414990008	-0.213860005	-1.24220002	210	146	88
0.414990008	-0.212679997	-1.24240005	210	146	88
0.415410012	-0.211740002	-1.24349999	210	146	88
0.414990008	-0.210240006	-1.2428	210	146	88
0.414570004	-0.208839998	-1.2421	210	146	88
0.41652	-0.208690003	-1.24119997	210	146	88
0.41652	-0.207430005	-1.2414	210	146	88
0.416110009	-0.205980003	-1.24080002	210	146	88
0.417629987	-0.205679998	-1.23899996	210	146	88
0.418049991	-0.204510003	-1.24010003	210	146	88
0.417629987	-0.203250006	-1.23940003	210	146	88
0.416790009	-0.201639995	-1.2378	210	146	88
0.415960014	-0.200139999	-1.23619998	210	146	88
0.41554001	-0.198909998	-1.23549998	210	146	88
0.41554001	-0.197559997	-1.23570001	210	146	88
0.415120006	-0.196180001	-1.23500001	210	146	88
0.415120006	-0.195089996	-1.23520005	210	146	88
0.413179994	-0.196319997	-1.23590004	210	146	88
0.413179994	-0.197559997	-1.23570001	210	146	88
0.413179994	-0.198899999	-1.23549998	210	146	88
0.414020002	-0.200279996	-1.23710001	210	146	88
0.414440006	-0.201629996	-1.2378	210	146	88
0.414020002	-0.202810004	-1.23670006	210	146	88
0.41207999	-0.202959999	-1.23749995	210	146	88
0.411659986	-0.201480001	-1.23689997	210	146	88
0.410829991	-0.199990004	-1.23529994	210	146	88
0.410829991	-0.198899999	-1.23539996	210	146	88
0.408890009	-0.199039996	-1.23629999	210	146	88
0.409310013	-0.200269997	-1.23699999	210	146	88
0.408890009	-0.201330006	-1.23590004	210	146	88
0.406540006	-0.201330006	-1.23590004	210	146	88
0.406540006	-0.200120002	-1.23609996	210	146	88
0.406540006	-0.199039996	-1.23629999	210	146	88
0.406129986	-0.19754	-1.23559999	210	146	88
0.408060014	-0.197410002	-1.23469996	210	146	88
0.408060014	-0.196170002	-1.2349	210	146	88
0.40722999	-0.194800004	-1.23329997	210	146	88
0.409159988	-0.194659993	-1.23239994	210	146	88
0.409579992	-0.195889995	-1.23319995	210	146	88
0.409999996	-0.197270006	-1.23389995	210	146	88
0.412349999	-0.194949999	-1.23430002	210	146	88
0.411929995	-0.192379996	-1.23370004	210	146	88
0.409579992	-0.192379996	-1.23370004	210	146	88
0.408749998	-0.193200007	-1.23169994	210	146	88
0.410670012	-0.193059996	-1.23090005	210	146	88
0.411089987	-0.190870002	-1.23210001	210	146	88
0.410670012	-0.189490005	-1.23140001	210	146	88
0.410259992	-0.187979996	-1.23070002	210	146	88
0.408329993	-0.189490005	-1.23140001	210	146	88
0.408329993	-0.190730006	-1.23119998	210	146	88
0.406399995	-0.193189994	-1.23169994	210	146	88
0.412600011	-0.189359993	-1.2306	210	146	88
0.414519995	-0.189219996	-1.22969997	210	146	88
0.413679987	-0.187580004	-1.22809994	210	146	88
0.413260013	-0.186360002	-1.22739995	210	146	88
0.411339998	-0.186489999	-1.22819996	210	146	88
0.411339998	-0.187570006	-1.22809994	210	146	88
0.409000009	-0.186489999	-1.22819996	210	146	88
0.416020006	-0.186499998	-1.22829998	210	146	88
0.416869998	-0.187849998	-1.2299	210	146	88
0.417290002	-0.189359993	-1.2306	210	146	88
0.419640005	-0.189359993	-1.2306	210	146	88
0.419640005	-0.187989995	-1.23080003	210	146	88
0.418370008	-0.186499998	-1.22829998	210	146	88
0.418139994	-0.190880001	-1.23220003	210	146	88
0.415789992	-0.190880001	-1.23220003	210	146	88
0.415789992	-0.192110002	-1.23199999	210	146	88
0.415789992	-0.193210006	-1.23179996	210	146	88
0.41771999	-0.193069994	-1.23090005	210	146	88
0.420069993	-0.193069994	-1.23090005	210	146	88
0.420489997	-0.192110002	-1.23199999	210	146	88
0.420910001	-0.191019997	-1.23310006	210	146	88
0.423269987	-0.189769998	-1.23329997	210	146	88
0.423689991	-0.191149995	-1.23399997	210	146	88
0.424120009	-0.192530006	-1.23469996	210	146	88
0.423269987	-0.193350002	-1.23269999	210	146	88
0.421759993	-0.194949999	-1.23430002	210	146	88
0.41940999	-0.194949999	-1.23430002	210	146	88
0.417890012	-0.195230007	-1.23609996	210	146	88
0.417470008	-0.196180001	-1.23500001	210	146	88
0.418309987	-0.197699994	-1.23660004	210	146	88
0.417890012	-0.198909998	-1.23549998	210	146	88
0.418729991	-0.200279996	-1.23710001	210	146	88
0.418309987	-0.201350003	-1.23599994	210	146	88
0.419829994	-0.192670003	-1.23559999	210	146	88
0.426479995	-0.194949999	-1.23430002	210	146	88
0.428409994	-0.194810003	-1.23339999	210	146	88
0.424120009	-0.188669994	-1.23529994	210	146	88
0.423269987	-0.187309995	-1.23360002	210	146	88
0.413439989	-0.193200007	-1.23179996	210	146	88
0.413859993	-0.191009998	-1.23310006	210	146	88
0.414700001	-0.192519993	-1.23469996	210	146	88
0.405420005	-0.200550005	-1.23880005	210	146	88
0.405840009	-0.201910004	-1.23950005	210	146	88
0.405420005	-0.203089997	-1.23839998	210	146	88
0.407370001	-0.202950001	-1.23749995	210	146	88
0.408190012	-0.204349995	-1.23909998	210	146	88
0.408609986	-0.205819994	-1.23979998	210	146	88
0.408609986	-0.207120001	-1.23959994	210	146	88
0.408609986	-0.208379999	-1.23940003	210	146	88
0.406659991	-0.208519995	-1.24020004	210	146	88
0.407070011	-0.207420006	-1.24129999	210	146	88
0.407480001	-0.206259996	-1.24249995	210	146	88
0.405530006	-0.207709998	-1.24310005	210	146	88
0.404709995	-0.208670005	-1.24109995	210	146	88
0.402759999	-0.208810002	-1.24199998	210	146	88
0.407480001	-0.210069999	-1.24179995	210	146	88
0.406349987	-0.206709996	-1.24510002	210	146	88
0.40625	-0.204490006	-1.24000001	210	146	88
0.404300004	-0.204640001	-1.24080002	210	146	88
0.410970002	-0.20713	-1.23959994	210	146	88
0.410549998	-0.205679998	-1.23889995	210	146	88
0.410140008	-0.204209998	-1.23819995	210	146	88
0.409720004	-0.202950001	-1.23749995	210	146	88
0.41249001	-0.205530003	-1.23800004	210	146	88
0.412910014	-0.204359993	-1.2392	210	146	88
0.414849997	-0.204209998	-1.23829997	210	146	88
0.413329989	-0.20713	-1.23959994	210	146	88
0.411790013	-0.208680004	-1.24119997	210	146	88
0.411080003	-0.210529998	-1.24450004	210	146	88
0.411080003	-0.211889997	-1.24430001	210	146	88
0.411909997	-0.213280007	-1.24590003	210	146	88
0.411909997	-0.214469999	-1.2457	210	146	88
0.411080003	-0.215379998	-1.24370003	210	146	88
0.413450003	-0.215379998	-1.24370003	210	146	88
0.413040012	-0.21401	-1.24300003	210	146	88
0.413450003	-0.212980002	-1.24409997	210	146	88
0.414279997	-0.212190002	-1.24609995	210	146	88
0.413450003	-0.210539997	-1.24460006	210	146	88
0.416240007	-0.215540007	-1.24460006	210	146	88
0.417070001	-0.217189997	-1.24619997	210	146	88
0.415109992	-0.218659997	-1.24689996	210	146	88
0.415109992	-0.219889998	-1.24660003	210	146	88
0.415529996	-0.221259996	-1.24730003	210	146	88
0.416359991	-0.222749993	-1.24890006	210	146	88
0.413560003	-0.222589999	-1.24800003	210	146	88
0.413150012	-0.221259996	-1.24730003	210	146	88
0.413150012	-0.220039994	-1.24749994	210	146	88
0.413980007	-0.219129995	-1.24950004	210	146	88
0.412739992	-0.217340007	-1.2471	210	146	88
0.414279997	-0.217040002	-1.24530005	210	146	88
0.419149995	-0.221740007	-1.25	210	146	88
0.419569999	-0.223069996	-1.2507	210	146	88
0.421539992	-0.222920001	-1.24979997	210	146	88
0.421119988	-0.221579999	-1.24909997	210	146	88
0.421539992	-0.220520005	-1.25020003	210	146	88
0.423509985	-0.220369995	-1.24940002	210	146	88
0.423090011	-0.221420005	-1.24820006	210	146	88
0.423920006	-0.222920001	-1.24979997	210	146	88
0.425469995	-0.220210001	-1.24849999	210	146	88
0.419569999	-0.220679998	-1.25109994	210	146	88
0.418740004	-0.219129995	-1.24960005	210	146	88
0.419990003	-0.225769997	-1.25109994	210	146	88
0.420399994	-0.227239996	-1.25179994	210	146	88
0.420819998	-0.224759996	-1.25320005	210	146	88
0.420419991	-0.203400001	-1.24030006	210	146	88
0.420419991	-0.204510003	-1.24010003	210	146	88
0.421259999	-0.206129998	-1.24170005	210	146	88
0.422789991	-0.205829993	-1.23989999	210	146	88
0.423629999	-0.204809994	-1.24189997	210	146	88
0.425579995	-0.205980003	-1.24080002	210	146	88
0.424730003	-0.204359993	-1.2392	210	146	88
0.423880011	-0.202959999	-1.23759997	210	146	88
0.425819993	-0.202820003	-1.23670006	210	146	88
0.425399989	-0.201350003	-1.23599994	210	146	88
0.421939999	-0.203109995	-1.2385	210	146	88
0.424479991	-0.207729995	-1.24319994	210	146	88
0.424899995	-0.209140003	-1.24389994	210	146	88
0.424050003	-0.210089996	-1.24189997	210	146	88
0.425999999	-0.209940001	-1.24100006	210	146	88
0.427280009	-0.211740002	-1.24349999	210	146	88
0.428550005	-0.213290006	-1.24600005	210	146	88
0.428970009	-0.214629993	-1.24670005	210	146	88
0.428550005	-0.215690002	-1.24549997	210	146	88
0.421259999	-0.209940001	-1.24100006	210	146	88
0.418889999	-0.209940001	-1.24100006	210	146	88
0.418889999	-0.208690003	-1.24119997	210	146	88
0.418469995	-0.207289994	-1.24049997	210	146	88
0.423370004	-0.209439993	-1.2457	210	146	88
0.423370004	-0.208179995	-1.24590003	210	146	88
0.423090011	-0.216319993	-1.24909997	210	146	88
0.432489991	-0.201340005	-1.23599994	210	146	88
0.432489991	-0.200130001	-1.23619998	210	146	88
0.441780001	-0.20205	-1.24030006	210	146	88
0.44264999	-0.200029999	-1.24249995	210	146	88
0.443089992	-0.201269999	-1.24319994	210	146	88
0.445910007	-0.198960006	-1.24440002	210	146	88
0.441780001	-0.197150007	-1.24109995	210	146	88
0.441780001	-0.196060002	-1.24129999	210	146	88
0.403719991	-0.222189993	-1.25250006	210	146	88
0.404879987	-0.220500007	-1.25010002	210	146	88
0.40685001	-0.220349997	-1.24919999	210	146	88
0.40643999	-0.218960002	-1.24860001	210	146	88
0.40880999	-0.220190004	-1.24839997	210	146	88
0.408399999	-0.221249998	-1.24730003	210	146	88
0.406029999	-0.221239999	-1.24720001	210	146	88
0.40406999	-0.221399993	-1.24810004	210	146	88
0.40922001	-0.219119996	-1.24950004	210	146	88
0.407169998	-0.217020005	-1.24520004	210	146	88
0.407169998	-0.215680003	-1.24549997	210	146	88
0.404799998	-0.217020005	-1.24520004	210	146	88
0.403250009	-0.212479994	-1.24779999	210	146	88
0.404960006	-0.243970007	-1.27909994	210	146	88
0.402090013	-0.247400001	-1.28299999	210	146	88
0.400840014	-0.247920007	-1.28569996	210	146	88
0.402410001	-0.244770005	-1.28999996	210	146	88
0.402799994	-0.247449994	-1.29040003	210	146	88
0.403589994	-0.246529996	-1.29250002	210	146	88
0.402319998	-0.248300001	-1.29489994	210	146	88
0.401930004	-0.250809997	-1.29349995	210	146	88
0.401930004	-0.252139986	-1.29320002	210	146	88
0.403189987	-0.251619995	-1.29059994	210	146	88
0.403189987	-0.25029999	-1.29079998	210	146	88
0.405239999	-0.250129998	-1.28999996	210	146	88
0.402799994	-0.252759993	-1.28939998	210	146	88
0.403589994	-0.254400015	-1.29089999	210	146	88
0.401149988	-0.255679995	-1.29059994	210	146	88
0.400759995	-0.256770015	-1.2895	210	146	88
0.403589994	-0.258269995	-1.2902	210	146	88
0.402410001	-0.259140015	-1.28719997	210	146	88
0.401230007	-0.259930015	-1.28419995	210	146	88
0.402709991	-0.25898999	-1.29369998	210	146	88
0.403100014	-0.260580003	-1.29439998	210	146	88
0.40388	-0.262300014	-1.29589999	210	146	88
0.404269993	-0.26372999	-1.29649997	210	146	88
0.40259999	-0.26534	-1.29799998	210	146	88
0.402990013	-0.266770005	-1.29869998	210	146	88
0.40377	-0.268409997	-1.30019999	210	146	88
0.403380007	-0.269540012	-1.29910004	210	146	88
0.402990013	-0.270660013	-1.29789996	210	146	88
0.401309997	-0.271030009	-1.29960001	210	146	88
0.402469993	-0.270280004	-1.30260003	210	146	88
0.403250009	-0.269329995	-1.30470002	210	146	88
0.401169986	-0.268229991	-1.30579996	210	146	88
0.401549995	-0.267159998	-1.30700004	210	146	88
0.401549995	-0.264640003	-1.3075	210	146	88
0.401549995	-0.263280004	-1.30780005	210	146	88
0.403250009	-0.261500001	-1.30630004	210	146	88
0.400779992	-0.260159999	-1.30649996	210	146	88
0.402469993	-0.25722	-1.3053	210	146	88
0.401309997	-0.255389988	-1.30280006	210	146	88
0.402990013	-0.256339997	-1.30079997	210	146	88
0.402209997	-0.254689991	-1.29920006	210	146	88
0.401820004	-0.253190011	-1.29859996	210	146	88
0.40259999	-0.252209991	-1.30069995	210	146	88
0.403100014	-0.253989995	-1.29569995	210	146	88
0.402709991	-0.255100012	-1.29449999	210	146	88
0.401039988	-0.256740004	-1.296	210	146	88
0.402209997	-0.258560002	-1.29849994	210	146	88
