-0.643109977	-0.66516	-1.22280002	13	56	104
-0.646899998	-0.659020007	-1.22920001	13	56	104
-0.649900019	-0.658460021	-1.23039997	13	56	104
-0.649900019	-0.657410026	-1.23099995	13	56	104
-0.650699973	-0.660290003	-1.23150003	13	56	104
-0.651109993	-0.66170001	-1.23179996	13	56	104
-0.653699994	-0.661679983	-1.23179996	13	56	104
-0.653299987	-0.660269976	-1.23150003	13	56	104
-0.652890027	-0.658860028	-1.23119998	13	56	104
-0.653299987	-0.658249974	-1.23259997	13	56	104
-0.654110014	-0.658070028	-1.23469996	13	56	104
-0.654510021	-0.657559991	-1.23599994	13	56	104
-0.656300008	-0.656669974	-1.23440003	13	56	104
-0.656300008	-0.657620013	-1.23389995	13	56	104
-0.655489981	-0.657790005	-1.23169994	13	56	104
-0.65508002	-0.658399999	-1.23029995	13	56	104
-0.65508002	-0.659380019	-1.22979999	13	56	104
-0.655489981	-0.660780013	-1.23010004	13	56	104
-0.657679975	-0.660319984	-1.22920001	13	56	104
-0.657679975	-0.661279976	-1.22870004	13	56	104
-0.657679975	-0.659349978	-1.22979999	13	56	104
-0.658079982	-0.658800006	-1.23109996	13	56	104
-0.658900023	-0.65862	-1.23329997	13	56	104
-0.658900023	-0.657589972	-1.23380005	13	56	104
-0.659309983	-0.657069981	-1.23510003	13	56	104
-0.661909997	-0.657029986	-1.23510003	13	56	104
-0.661909997	-0.657980025	-1.23459995	13	56	104
-0.661499977	-0.658590019	-1.23319995	13	56	104
-0.664110005	-0.658550024	-1.23310006	13	56	104
-0.664110005	-0.657519996	-1.23370004	13	56	104
-0.664520025	-0.657000005	-1.23500001	13	56	104
-0.666710019	-0.656530023	-1.23409998	13	56	104
-0.665880024	-0.656620026	-1.23199999	13	56	104
-0.668489993	-0.655640006	-1.23239994	13	56	104
-0.669730008	-0.655969977	-1.23529994	13	56	104
-0.667540014	-0.654229999	-1.23740005	13	56	104
-0.66711998	-0.658940017	-1.23389995	13	56	104
-0.66286999	-0.658309996	-1.23020005	13	56	104
-0.659860015	-0.657909989	-1.22940004	13	56	104
-0.659860015	-0.658879995	-1.22889996	13	56	104
-0.659860015	-0.659860015	-1.22839999	13	56	104
-0.654269993	-0.660440028	-1.22720003	13	56	104
-0.65249002	-0.661339998	-1.22880006	13	56	104
-0.651679993	-0.661430001	-1.22669995	13	56	104
-0.651679993	-0.662360013	-1.22619998	13	56	104
-0.651679993	-0.664179981	-1.22520006	13	56	104
-0.650460005	-0.662	-1.22329998	13	56	104
-0.647880018	-0.662020028	-1.22329998	13	56	104
-0.648280025	-0.663330019	-1.22370005	13	56	104
-0.647469997	-0.664250016	-1.22109997	13	56	104
-0.647069991	-0.662899971	-1.22080004	13	56	104
-0.649089992	-0.662389994	-1.2263	13	56	104
-0.649900019	-0.661360025	-1.22889996	13	56	104
-0.647880018	-0.660149992	-1.22430003	13	56	104
-0.653450012	-0.661469996	-1.22449994	13	56	104
-0.653050005	-0.660099983	-1.22420001	13	56	104
-0.656040013	-0.66049999	-1.22500002	13	56	104
-0.651910007	-0.656639993	-1.23660004	13	56	104
-0.651109993	-0.657670021	-1.23399997	13	56	104
-0.650699973	-0.656289995	-1.23370004	13	56	104
-0.643329978	-0.661769986	-1.23189998	13	56	104
-0.645120025	-0.65684998	-1.23239994	13	56	104
-0.645120025	-0.655910015	-1.23290002	13	56	104
-0.640730023	-0.654760003	-1.23570001	13	56	104
-0.641529977	-0.656719983	-1.23670006	13	56	104
-0.641529977	-0.654500008	-1.23790002	13	56	104
-0.639729977	-0.654429972	-1.24010003	13	56	104
-0.640519977	-0.654139996	-1.24230003	13	56	104
-0.639729977	-0.652149975	-1.24129999	13	56	104
-0.640120029	-0.651449978	-1.24269998	13	56	104
-0.640910029	-0.651160002	-1.24489999	13	56	104
-0.640910029	-0.65000999	-1.24549997	13	56	104
-0.640910029	-0.648959994	-1.24609995	13	56	104
-0.641309977	-0.648100019	-1.24749994	13	56	104
-0.643509984	-0.648949981	-1.24600005	13	56	104
-0.643119991	-0.649569988	-1.24469995	13	56	104
-0.643119991	-0.65072	-1.24409997	13	56	104
-0.642719984	-0.651440024	-1.24259996	13	56	104
-0.645720005	-0.650699973	-1.24399996	13	56	104
-0.646120012	-0.649980009	-1.24539995	13	56	104
-0.646520019	-0.649349988	-1.24679995	13	56	104
-0.644309998	-0.648509979	-1.24829996	13	56	104
-0.646120012	-0.652270019	-1.24419999	13	56	104
-0.646120012	-0.653400004	-1.24360001	13	56	104
-0.645720005	-0.654100001	-1.24220002	13	56	104
-0.646120012	-0.655680001	-1.24240005	13	56	104
-0.644309998	-0.655399978	-1.24469995	13	56	104
-0.644309998	-0.654269993	-1.24530005	13	56	104
-0.643119991	-0.65526998	-1.24170005	13	56	104
-0.644919991	-0.655340016	-1.23950005	13	56	104
-0.652130008	-0.651929975	-1.2464	13	56	104
-0.652530015	-0.651199996	-1.24779999	13	56	104
-0.652130008	-0.649730027	-1.24749994	13	56	104
-0.654340029	-0.649280012	-1.24670005	13	56	104
-0.655139983	-0.651180029	-1.24769998	13	56	104
-0.654340029	-0.651480019	-1.24549997	13	56	104
-0.656939983	-0.651449978	-1.24549997	13	56	104
-0.656939983	-0.649249971	-1.24660003	13	56	104
-0.659560025	-0.64921999	-1.24660003	13	56	104
-0.660369992	-0.651120007	-1.24759996	13	56	104
-0.662580013	-0.650659978	-1.24679995	13	56	104
-0.662580013	-0.649609983	-1.24730003	13	56	104
-0.665189981	-0.649580002	-1.24720001	13	56	104
-0.665600002	-0.651049972	-1.24749994	13	56	104
-0.667810023	-0.650590003	-1.24660003	13	56	104
-0.667810023	-0.649540007	-1.24720001	13	56	104
-0.668630004	-0.653729975	-1.24699998	13	56	104
-0.667810023	-0.655149996	-1.24419999	13	56	104
-0.66918999	-0.650430024	-1.24349999	13	56	104
-0.661180019	-0.64963001	-1.25049996	13	56	104
-0.660189986	-0.651340008	-1.25380003	13	56	104
-0.658159971	-0.651570022	-1.24849999	13	56	104
-0.681640029	-0.641709983	-1.25890005	13	56	104
-0.681640029	-0.640489995	-1.25960004	13	56	104
-0.679830015	-0.641359985	-1.26129997	13	56	104
-0.67760998	-0.641820014	-1.2622	13	56	104
-0.68204999	-0.643450022	-1.25909996	13	56	104
-0.684270024	-0.64297998	-1.25820005	13	56	104
-0.684689999	-0.642069995	-1.25960004	13	56	104
-0.684689999	-0.640850008	-1.26030004	13	56	104
-0.687330008	-0.643339992	-1.25890005	13	56	104
-0.687330008	-0.644640028	-1.25820005	13	56	104
-0.686489999	-0.646089971	-1.25539994	13	56	104
-0.686070025	-0.646889985	-1.25399995	13	56	104
-0.688279986	-0.646420002	-1.25310004	13	56	104
-0.68870002	-0.645609975	-1.25450003	13	56	104
-0.68870002	-0.644540012	-1.25510001	13	56	104
-0.685649991	-0.64418	-1.25440001	13	56	104
-0.683009982	-0.645309985	-1.25390005	13	56	104
-0.682590008	-0.643819988	-1.25370002	13	56	104
-0.683009982	-0.643040001	-1.25510001	13	56	104
-0.683430016	-0.646950006	-1.25409997	13	56	104
-0.688170016	-0.642840028	-1.26119995	13	56	104
-0.68858999	-0.642019987	-1.26259995	13	56	104
-0.689440012	-0.641629994	-1.26479995	13	56	104
-0.689440012	-0.640410006	-1.26540005	13	56	104
-0.689440012	-0.639199972	-1.26610005	13	56	104
-0.67414999	-0.642270029	-1.25999999	13	56	104
-0.663020015	-0.640860021	-1.26629996	13	56	104
-0.661199987	-0.641719997	-1.26800001	13	56	104
-0.659359992	-0.641359985	-1.27030003	13	56	104
-0.660170019	-0.640910029	-1.27260005	13	56	104
-0.659770012	-0.639209986	-1.27250004	13	56	104
-0.661599994	-0.638360023	-1.27079999	13	56	104
-0.661599994	-0.63707	-1.27139997	13	56	104
-0.662410021	-0.636600018	-1.2737	13	56	104
-0.662810028	-0.635760009	-1.27509999	13	56	104
-0.662810028	-0.634519994	-1.27569997	13	56	104
-0.662810028	-0.633180022	-1.27639997	13	56	104
-0.662810028	-0.631820023	-1.27709997	13	56	104
-0.660570025	-0.632260025	-1.278	13	56	104
-0.660570025	-0.633620024	-1.2773	13	56	104
-0.659770012	-0.634140015	-1.27499998	13	56	104
-0.659770012	-0.63538003	-1.2744	13	56	104
-0.659770012	-0.630140007	-1.27699995	13	56	104
-0.662	-0.629710019	-1.27610004	13	56	104
-0.662	-0.640060008	-1.27090001	13	56	104
-0.662410021	-0.641740024	-1.27110004	13	56	104
-0.658159971	-0.641340017	-1.26730001	13	56	104
-0.657350004	-0.641730011	-1.26499999	13	56	104
-0.628820002	-0.66474998	-1.2263	13	56	104
-0.624300003	-0.667739987	-1.21940005	13	56	104
-0.62391001	-0.668190002	-1.21809995	13	56	104
-0.623130023	-0.668030024	-1.21609998	13	56	104
-0.620959997	-0.668470025	-1.21689999	13	56	104
-0.620959997	-0.667739987	-1.21730006	13	56	104
-0.620570004	-0.666410029	-1.21700001	13	56	104
-0.620570004	-0.668739974	-1.21570003	13	56	104
-0.620180011	-0.669089973	-1.21449995	13	56	104
-0.618009984	-0.669529974	-1.21529996	13	56	104
-0.618780017	-0.669629991	-1.21730006	13	56	104
-0.616219997	-0.668900013	-1.2177	13	56	104
-0.613659978	-0.668889999	-1.2177	13	56	104
-0.613279998	-0.66772002	-1.21730006	13	56	104
-0.612510026	-0.665939987	-1.21609998	13	56	104
-0.612129986	-0.664579988	-1.21580005	13	56	104
-0.612129986	-0.663020015	-1.21669996	13	56	104
-0.611750007	-0.661679983	-1.21630001	13	56	104
-0.610339999	-0.663890004	-1.21829998	13	56	104
-0.60996002	-0.665009975	-1.21659994	13	56	104
-0.60996002	-0.665929973	-1.21609998	13	56	104
-0.60996002	-0.66681999	-1.21560001	13	56	104
-0.60957998	-0.667819977	-1.21399999	13	56	104
-0.60957998	-0.669390023	-1.21309996	13	56	104
-0.60957998	-0.670809984	-1.21239996	13	56	104
-0.608820021	-0.670650005	-1.21029997	13	56	104
-0.608430028	-0.668760002	-1.21029997	13	56	104
-0.608820021	-0.667710006	-1.21200001	13	56	104
-0.606649995	-0.668139994	-1.21270001	13	56	104
-0.606270015	-0.66918999	-1.21109998	13	56	104
-0.606270015	-0.670639992	-1.21029997	13	56	104
-0.607029974	-0.670790017	-1.21229994	13	56	104
-0.607410014	-0.669820011	-1.21389997	13	56	104
-0.607410014	-0.668250024	-1.2148	13	56	104
-0.608169973	-0.667699993	-1.21720004	13	56	104
-0.608550012	-0.667240024	-1.21850002	13	56	104
-0.608550012	-0.66632998	-1.21899998	13	56	104
-0.608929992	-0.665989995	-1.22029996	13	56	104
-0.608929992	-0.664300025	-1.22119999	13	56	104
-0.608169973	-0.664319992	-1.2191	13	56	104
-0.608169973	-0.662500024	-1.22000003	13	56	104
-0.608550012	-0.662069976	-1.22130001	13	56	104
-0.608929992	-0.661639988	-1.22259998	13	56	104
-0.609300017	-0.661140025	-1.22389996	13	56	104
-0.611479998	-0.660709977	-1.22309995	13	56	104
-0.61224997	-0.660650015	-1.22529995	13	56	104
-0.61263001	-0.660139978	-1.22660005	13	56	104
-0.613009989	-0.659619987	-1.22790003	13	56	104
-0.613390028	-0.659080029	-1.22930002	13	56	104
-0.613770008	-0.658550024	-1.2306	13	56	104
-0.613390028	-0.657069981	-1.23039997	13	56	104
-0.613770008	-0.656470001	-1.23169994	13	56	104
-0.614530027	-0.656390011	-1.23389995	13	56	104
-0.616720021	-0.656910002	-1.23259997	13	56	104
-0.617489994	-0.656840026	-1.23469996	13	56	104
-0.619300008	-0.655969977	-1.23310006	13	56	104
-0.618910015	-0.656490028	-1.23179996	13	56	104
-0.618910015	-0.657519996	-1.23119998	13	56	104
-0.618910015	-0.659539998	-1.23010004	13	56	104
-0.618139982	-0.659640014	-1.22800004	13	56	104
-0.618529975	-0.661029994	-1.22829998	13	56	104
-0.621100008	-0.661040008	-1.22829998	13	56	104
-0.620329976	-0.659210026	-1.22720003	13	56	104
-0.620710015	-0.658670008	-1.22850001	13	56	104
-0.621490002	-0.658569992	-1.23070002	13	56	104
-0.621490002	-0.657519996	-1.23119998	13	56	104
-0.621100008	-0.65605998	-1.23090005	13	56	104
-0.621869981	-0.655979991	-1.23310006	13	56	104
-0.622640014	-0.655900002	-1.23520005	13	56	104
-0.62045002	-0.656329989	-1.23599994	13	56	104
-0.621219993	-0.656090021	-1.23819995	13	56	104
-0.621219993	-0.654980004	-1.23880005	13	56	104
-0.619019985	-0.654460013	-1.24010003	13	56	104
-0.619780004	-0.654169977	-1.24240005	13	56	104
-0.618640006	-0.656090021	-1.23819995	13	56	104
-0.618640006	-0.657190025	-1.23759997	13	56	104
-0.616060019	-0.657180011	-1.23759997	13	56	104
-0.616060019	-0.656080008	-1.23819995	13	56	104
-0.616439998	-0.655399978	-1.23959994	13	56	104
-0.615679979	-0.653590024	-1.2385	13	56	104
-0.615289986	-0.652010024	-1.23829997	13	56	104
-0.613099992	-0.652429998	-1.23909998	13	56	104
-0.613099992	-0.65358001	-1.2385	13	56	104
-0.613099992	-0.654519975	-1.23800004	13	56	104
-0.613099992	-0.655640006	-1.23740005	13	56	104
-0.613860011	-0.657599986	-1.23839998	13	56	104
-0.617869973	-0.654110014	-1.23720002	13	56	104
-0.619679987	-0.659430027	-1.23230004	13	56	104
-0.617110014	-0.659430027	-1.23230004	13	56	104
-0.615960002	-0.659089983	-1.22930002	13	56	104
-0.615960002	-0.657079995	-1.23039997	13	56	104
-0.61480999	-0.658749998	-1.2263	13	56	104
-0.61480999	-0.65970999	-1.22580004	13	56	104
-0.61443001	-0.660229981	-1.22449994	13	56	104
-0.614040017	-0.660719991	-1.22319996	13	56	104
-0.61443001	-0.662100017	-1.22350001	13	56	104
-0.614040017	-0.662530005	-1.22220004	13	56	104
-0.613659978	-0.662970006	-1.22090006	13	56	104
-0.616219997	-0.66298002	-1.22090006	13	56	104
-0.616219997	-0.662100017	-1.22140002	13	56	104
-0.61698997	-0.662109971	-1.22350001	13	56	104
-0.617370009	-0.661610007	-1.22479999	13	56	104
-0.617370009	-0.660669982	-1.22529995	13	56	104
-0.619939983	-0.660679996	-1.22529995	13	56	104
-0.620710015	-0.66249001	-1.22640002	13	56	104
-0.61917001	-0.661679983	-1.2227	13	56	104
-0.61917001	-0.662549973	-1.22220004	13	56	104
-0.618780017	-0.66298002	-1.22090006	13	56	104
-0.618399978	-0.663460016	-1.21959996	13	56	104
-0.615840018	-0.663450003	-1.21959996	13	56	104
-0.616219997	-0.664799988	-1.21990001	13	56	104
-0.61698997	-0.666459978	-1.22109997	13	56	104
-0.614040017	-0.666010022	-1.22029996	13	56	104
-0.611479998	-0.666000009	-1.22029996	13	56	104
-0.611100018	-0.663869977	-1.22039998	13	56	104
-0.611859977	-0.663839996	-1.22249997	13	56	104
-0.61224997	-0.663399994	-1.22379994	13	56	104
-0.61263001	-0.662970006	-1.22510004	13	56	104
-0.611479998	-0.669319987	-1.21850002	13	56	104
-0.608929992	-0.669309974	-1.2184	13	56	104
-0.612510026	-0.668280005	-1.2148	13	56	104
-0.612129986	-0.66861999	-1.21360004	13	56	104
-0.611750007	-0.668959975	-1.21239996	13	56	104
-0.611750007	-0.670379996	-1.21159995	13	56	104
-0.610979974	-0.668770015	-1.21029997	13	56	104
-0.610979974	-0.670220017	-1.20949996	13	56	104
-0.610220015	-0.670059979	-1.20749998	13	56	104
-0.610220015	-0.670799971	-1.20710003	13	56	104
-0.610220015	-0.671530008	-1.20669997	13	56	104
-0.609830022	-0.671679974	-1.20560002	13	56	104
-0.609449983	-0.671819985	-1.20439994	13	56	104
-0.609070003	-0.672100008	-1.20319998	13	56	104
-0.609830022	-0.673709989	-1.20439994	13	56	104
-0.610220015	-0.674740016	-1.20490003	13	56	104
-0.608049989	-0.675180018	-1.20570004	13	56	104
-0.607670009	-0.674139977	-1.20519996	13	56	104
-0.60729003	-0.672259986	-1.20519996	13	56	104
-0.60690999	-0.672529995	-1.204	13	56	104
-0.605130017	-0.674130023	-1.20519996	13	56	104
-0.605509996	-0.673870027	-1.20640004	13	56	104
-0.605509996	-0.673139989	-1.20679998	13	56	104
-0.605889976	-0.672999978	-1.20790005	13	56	104
-0.605509996	-0.671949983	-1.20749998	13	56	104
-0.604749978	-0.670319974	-1.2062	13	56	104
-0.603990018	-0.668680012	-1.20500004	13	56	104
-0.601830006	-0.66911	-1.20580006	13	56	104
-0.602590024	-0.670750022	-1.20700002	13	56	104
-0.602970004	-0.671930015	-1.20739996	13	56	104
-0.602590024	-0.67207998	-1.20630002	13	56	104
-0.602590024	-0.672670007	-1.20589995	13	56	104
-0.602970004	-0.67385	-1.20640004	13	56	104
-0.602590024	-0.674690008	-1.20480001	13	56	104
-0.602209985	-0.67365998	-1.20430005	13	56	104
-0.60145998	-0.673910022	-1.20210004	13	56	104
-0.60145998	-0.67572999	-1.20099998	13	56	104
-0.60145998	-0.67632997	-1.20070004	13	56	104
-0.60108	-0.676370025	-1.19959998	13	56	104
-0.60108	-0.676850021	-1.19939995	13	56	104
-0.600700021	-0.676940024	-1.19819999	13	56	104
-0.60108	-0.678449988	-1.19850004	13	56	104
-0.600700021	-0.678979993	-1.19710004	13	56	104
-0.600700021	-0.679459989	-1.19679999	13	56	104
-0.600700021	-0.679880023	-1.19659996	13	56	104
-0.600700021	-0.680299997	-1.19630003	13	56	104
-0.599940002	-0.679780006	-1.19449997	13	56	104
-0.598169982	-0.680679977	-1.1961	13	56	104
-0.598169982	-0.680270016	-1.19630003	13	56	104
-0.597419977	-0.678939998	-1.19490004	13	56	104
-0.596660018	-0.677600026	-1.19360006	13	56	104
-0.596289992	-0.678789973	-1.1918	13	56	104
-0.596660018	-0.68046999	-1.19190001	13	56	104
-0.595910013	-0.679960012	-1.19009995	13	56	104
-0.595160007	-0.679400027	-1.18830001	13	56	104
-0.595160007	-0.67821002	-1.18889999	13	56	104
-0.595160007	-0.677810013	-1.18920004	13	56	104
-0.592639983	-0.678600013	-1.18869996	13	56	104
-0.592270017	-0.677730024	-1.18809998	13	56	104
-0.592270017	-0.677320004	-1.18830001	13	56	104
-0.593020022	-0.679830015	-1.18900001	13	56	104
-0.593020022	-0.68046999	-1.18869996	13	56	104
-0.593389988	-0.680639982	-1.18959999	13	56	104
-0.593389988	-0.681219995	-1.18929994	13	56	104
-0.593389988	-0.681810021	-1.18900001	13	56	104
-0.593770027	-0.681980014	-1.18990004	13	56	104
-0.593389988	-0.679929972	-1.19000006	13	56	104
-0.593770027	-0.678759992	-1.1918	13	56	104
-0.598049998	-0.677900016	-1.19029999	13	56	104
-0.598810017	-0.679210007	-1.19159997	13	56	104
-0.599569976	-0.677129984	-1.19490004	13	56	104
-0.602090001	-0.678110003	-1.19439995	13	56	104
-0.602469981	-0.678990006	-1.19500005	13	56	104
-0.60285002	-0.679859996	-1.19560003	13	56	104
-0.602469981	-0.67760998	-1.19579995	13	56	104
-0.602469981	-0.677100003	-1.1961	13	56	104
-0.602469981	-0.676590025	-1.19640005	13	56	104
-0.60285002	-0.676509976	-1.19749999	13	56	104
-0.60323	-0.676419973	-1.19860005	13	56	104
-0.60323	-0.675930023	-1.19889998	13	56	104
-0.603609979	-0.675899982	-1.19990003	13	56	104
-0.603609979	-0.675300002	-1.20029998	13	56	104
-0.603990018	-0.675149977	-1.20140004	13	56	104
-0.603990018	-0.674539983	-1.20179999	13	56	104
-0.604369998	-0.674380004	-1.20290005	13	56	104
-0.606149971	-0.673500001	-1.20130002	13	56	104
-0.605769992	-0.673650026	-1.20019996	13	56	104
-0.605769992	-0.67426002	-1.19980001	13	56	104
-0.606149971	-0.675320029	-1.20029998	13	56	104
-0.605769992	-0.675459981	-1.19920003	13	56	104
-0.605769992	-0.675949991	-1.19889998	13	56	104
-0.605769992	-0.676440001	-1.19860005	13	56	104
-0.606149971	-0.677439988	-1.19910002	13	56	104
-0.606530011	-0.678430021	-1.19959998	13	56	104
-0.605769992	-0.678030014	-1.19770002	13	56	104
-0.605009973	-0.677630007	-1.19579995	13	56	104
-0.605009973	-0.678110003	-1.19560003	13	56	104
-0.603990018	-0.679920018	-1.19869995	13	56	104
-0.601830006	-0.678849995	-1.20039999	13	56	104
-0.599300027	-0.680329978	-1.19949996	13	56	104
-0.596759975	-0.67772001	-1.20089996	13	56	104
-0.596759975	-0.67723	-1.20120001	13	56	104
-0.602209985	-0.67602998	-1.20299995	13	56	104
-0.600049973	-0.676460028	-1.20379996	13	56	104
-0.599300027	-0.673759997	-1.20319998	13	56	104
-0.599300027	-0.673179984	-1.20350003	13	56	104
-0.599669993	-0.672200024	-1.20510006	13	56	104
-0.599300027	-0.671150029	-1.20459998	13	56	104
-0.600049973	-0.671459973	-1.20659995	13	56	104
-0.600430012	-0.67118001	-1.20780003	13	56	104
-0.600049973	-0.669990003	-1.20739996	13	56	104
-0.600799978	-0.670149982	-1.20940006	13	56	104
-0.598640025	-0.670570016	-1.21019995	13	56	104
-0.597220004	-0.671159983	-1.21300006	13	56	104
-0.601559997	-0.66960001	-1.21179998	13	56	104
-0.601930022	-0.670759976	-1.21229994	13	56	104
-0.604099989	-0.670329988	-1.21150005	13	56	104
-0.603720009	-0.669170022	-1.21109998	13	56	104
-0.604099989	-0.668910027	-1.21229994	13	56	104
-0.604480028	-0.668569982	-1.21350002	13	56	104
-0.601930022	-0.667760015	-1.21389997	13	56	104
-0.601559997	-0.668099999	-1.21270001	13	56	104
-0.600430012	-0.667550027	-1.2098	13	56	104
-0.603349984	-0.670170009	-1.20949996	13	56	104
-0.600049973	-0.673380017	-1.20550001	13	56	104
-0.600700021	-0.673609972	-1.20009995	13	56	104
-0.607919991	-0.676540017	-1.19749999	13	56	104
-0.607919991	-0.675999999	-1.19780004	13	56	104
-0.608690023	-0.675339997	-1.20029998	13	56	104
-0.608299971	-0.674279988	-1.19990003	13	56	104
-0.608690023	-0.674120009	-1.20099998	13	56	104
-0.608690023	-0.673510015	-1.20140004	13	56	104
-0.610840023	-0.673080027	-1.20060003	13	56	104
-0.610459983	-0.673229992	-1.19939995	13	56	104
-0.610840023	-0.674899995	-1.19959998	13	56	104
-0.611230016	-0.674740016	-1.20070004	13	56	104
-0.611230016	-0.675949991	-1.20000005	13	56	104
-0.611609995	-0.676890016	-1.20060003	13	56	104
-0.609449983	-0.677330017	-1.20130002	13	56	104
-0.609070003	-0.676389992	-1.20079994	13	56	104
-0.609070003	-0.678449988	-1.1997	13	56	104
-0.614149988	-0.675209999	-1.20150006	13	56	104
-0.614149988	-0.674600005	-1.20190001	13	56	104
-0.614149988	-0.673990011	-1.20220006	13	56	104
-0.614539981	-0.673860013	-1.2033	13	56	104
-0.61492002	-0.673730016	-1.20449996	13	56	104
-0.612760007	-0.67474997	-1.20490003	13	56	104
-0.612380028	-0.673720002	-1.20449996	13	56	104
-0.612380028	-0.673009992	-1.20490003	13	56	104
-0.612380028	-0.671689987	-1.20560002	13	56	104
-0.613150001	-0.671989977	-1.20749998	13	56	104
-0.613150001	-0.673189998	-1.2069	13	56	104
-0.615700006	-0.673200011	-1.2069	13	56	104
-0.615700006	-0.672599971	-1.20720005	13	56	104
-0.616469979	-0.674820006	-1.20809996	13	56	104
-0.618629992	-0.673650026	-1.20770001	13	56	104
-0.618629992	-0.67306	-1.20799994	13	56	104
-0.619019985	-0.674830019	-1.20809996	13	56	104
-0.621190012	-0.674380004	-1.20729995	13	56	104
-0.620800018	-0.672609985	-1.20720005	13	56	104
-0.620410025	-0.67276001	-1.20609999	13	56	104
-0.619629979	-0.673300028	-1.20369995	13	56	104
-0.616699994	-0.672839999	-1.20290005	13	56	104
-0.616699994	-0.673420012	-1.2026	13	56	104
-0.616699994	-0.674000025	-1.20220006	13	56	104
-0.621190012	-0.67098999	-1.20920002	13	56	104
-0.621969998	-0.671140015	-1.2112	13	56	104
-0.621969998	-0.670409977	-1.21159995	13	56	104
-0.621580005	-0.668540001	-1.21159995	13	56	104
-0.621580005	-0.667760015	-1.21200001	13	56	104
-0.621969998	-0.66742003	-1.21329999	13	56	104
-0.624130011	-0.667760015	-1.21200001	13	56	104
-0.624130011	-0.668550014	-1.21159995	13	56	104
-0.624530017	-0.670409977	-1.21159995	13	56	104
-0.624530017	-0.671150029	-1.2112	13	56	104
-0.62668997	-0.669960022	-1.21080005	13	56	104
-0.626299977	-0.670249999	-1.20959997	13	56	104
-0.625909984	-0.67128998	-1.20799994	13	56	104
-0.623740017	-0.671739995	-1.20879996	13	56	104
-0.624130011	-0.673510015	-1.20889997	13	56	104
-0.624530017	-0.67335999	-1.21000004	13	56	104
-0.622359991	-0.673810005	-1.21080005	13	56	104
-0.622359991	-0.673080027	-1.2112	13	56	104
-0.620180011	-0.673520029	-1.21200001	13	56	104
-0.620180011	-0.674250007	-1.21159995	13	56	104
-0.617630005	-0.674250007	-1.21159995	13	56	104
-0.617240012	-0.671580017	-1.21200001	13	56	104
-0.616469979	-0.671429992	-1.21000004	13	56	104
-0.616469979	-0.672169983	-1.20959997	13	56	104
-0.613919973	-0.672160029	-1.20959997	13	56	104
-0.613150001	-0.670520008	-1.20840001	13	56	104
-0.613150001	-0.669780016	-1.20879996	13	56	104
-0.61352998	-0.66948998	-1.21000004	13	56	104
-0.61352998	-0.668789983	-1.21039999	13	56	104
-0.61352998	-0.668079972	-1.21080005	13	56	104
-0.614300013	-0.668179989	-1.21280003	13	56	104
-0.615069985	-0.668290019	-1.21490002	13	56	104
-0.617240012	-0.667129993	-1.21449995	13	56	104
-0.616850019	-0.665960014	-1.2141	13	56	104
-0.617630005	-0.665960014	-1.21619999	13	56	104
-0.615069985	-0.665040016	-1.21659994	13	56	104
-0.614679992	-0.665509999	-1.21529996	13	56	104
-0.614300013	-0.665960014	-1.21399999	13	56	104
-0.616079986	-0.668089986	-1.21080005	13	56	104
-0.615700006	-0.668349981	-1.20959997	13	56	104
-0.618629992	-0.668799996	-1.21039999	13	56	104
-0.618629992	-0.668099999	-1.21080005	13	56	104
-0.619409978	-0.670400023	-1.21159995	13	56	104
-0.619799972	-0.671589971	-1.21200001	13	56	104
-0.619409978	-0.671880007	-1.21080005	13	56	104
-0.614539981	-0.66772002	-1.20679998	13	56	104
-0.623130023	-0.671029985	-1.21440005	13	56	104
-0.625699997	-0.671029985	-1.21440005	13	56	104
-0.627870023	-0.670589983	-1.21360004	13	56	104
-0.62747997	-0.669430017	-1.21319997	13	56	104
-0.627089977	-0.668200016	-1.21280003	13	56	104
-0.629649997	-0.668200016	-1.21280003	13	56	104
-0.62924999	-0.669960022	-1.21080005	13	56	104
-0.629649997	-0.671140015	-1.2112	13	56	104
-0.631820023	-0.669239998	-1.2112	13	56	104
-0.632210016	-0.668980002	-1.21239996	13	56	104
-0.628069997	-0.667919993	-1.20879996	13	56	104
-0.625310004	-0.667580009	-1.21529996	13	56	104
-0.623740017	-0.666530013	-1.21169996	13	56	104
-0.622569978	-0.669650018	-1.20679998	13	56	104
-0.624729991	-0.669210017	-1.20599997	13	56	104
-0.595640004	-0.679830015	-1.19649994	13	56	104
-0.593490005	-0.679359972	-1.19780004	13	56	104
-0.593110025	-0.678420007	-1.19719994	13	56	104
-0.593110025	-0.67790997	-1.19749999	13	56	104
-0.593110025	-0.677399993	-1.19780004	13	56	104
-0.592739999	-0.676400006	-1.19729996	13	56	104
-0.590210021	-0.676370025	-1.19719994	13	56	104
-0.590210021	-0.677929997	-1.19640005	13	56	104
-0.59059	-0.679350019	-1.19659996	13	56	104
-0.590960026	-0.679329991	-1.19770002	13	56	104
-0.590210021	-0.679719985	-1.19529998	13	56	104
-0.589839995	-0.678849995	-1.19480002	13	56	104
-0.589470029	-0.676509976	-1.19500005	13	56	104
-0.589470029	-0.675989985	-1.19529998	13	56	104
-0.589839995	-0.674399972	-1.19729996	13	56	104
-0.590870023	-0.672609985	-1.19410002	13	56	104
-0.594519973	-0.674009979	-1.19659996	13	56	104
-0.594889998	-0.673870027	-1.19770002	13	56	104
-0.605889976	-0.675610006	-1.20650005	13	56	104
-0.608049989	-0.672559977	-1.20720005	13	56	104
-0.608430028	-0.672420025	-1.20829999	13	56	104
-0.607670009	-0.670790017	-1.20710003	13	56	104
-0.607670009	-0.670050025	-1.20749998	13	56	104
-0.619939983	-0.666130006	-1.22239995	13	56	104
-0.620329976	-0.667349994	-1.22280002	13	56	104
-0.620329976	-0.668139994	-1.22230005	13	56	104
-0.607500017	-0.665610015	-1.22360003	13	56	104
-0.627409995	-0.658389986	-1.23280001	13	56	104
-0.623139977	-0.650479972	-1.2464	13	56	104
-0.623520017	-0.649850011	-1.24779999	13	56	104
-0.630259991	-0.650269985	-1.25170004	13	56	104
-0.653530002	-0.657249987	-1.24039996	13	56	104
-0.660130024	-0.652670026	-1.23950005	13	56	104
-0.660939991	-0.652390003	-1.24170005	13	56	104
-0.660939991	-0.651260018	-1.24230003	13	56	104
-0.660939991	-0.65012002	-1.24290001	13	56	104
-0.67276001	-0.652050018	-1.23829997	13	56	104
-0.676090002	-0.648549974	-1.24839997	13	56	104
-0.676919997	-0.648199975	-1.25059998	13	56	104
-0.673879981	-0.647830009	-1.24989998	13	56	104
-0.690490007	-0.650820017	-1.24960005	13	56	104
-0.696619987	-0.647989988	-1.25279999	13	56	104
-0.697899997	-0.647889972	-1.25590003	13	56	104
-0.698329985	-0.647080004	-1.25740004	13	56	104
-0.698759973	-0.646420002	-1.25870001	13	56	104
-0.698329985	-0.644810021	-1.25849998	13	56	104
-0.69611001	-0.645290017	-1.25950003	13	56	104
-0.696539998	-0.646899998	-1.25960004	13	56	104
-0.69611001	-0.64756	-1.25829995	13	56	104
-0.695689976	-0.643570006	-1.25929999	13	56	104
-0.69611001	-0.642660022	-1.2608	13	56	104
-0.695259988	-0.64060998	-1.25979996	13	56	104
-0.69611001	-0.640219986	-1.26199996	13	56	104
-0.698759973	-0.640150011	-1.26189995	13	56	104
-0.697899997	-0.640550017	-1.25969994	13	56	104
-0.698329985	-0.642180026	-1.25989997	13	56	104
-0.699190021	-0.644330025	-1.2608	13	56	104
-0.701409996	-0.643850029	-1.25989997	13	56	104
-0.700980008	-0.642120004	-1.25969994	13	56	104
-0.70055002	-0.640479982	-1.25960004	13	56	104
-0.700980008	-0.644739985	-1.25839996	13	56	104
-0.701839983	-0.646759987	-1.25940001	13	56	104
-0.702269971	-0.648259997	-1.25960004	13	56	104
-0.703199983	-0.644259989	-1.25750005	13	56	104
-0.702769995	-0.645039976	-1.25600004	13	56	104
-0.705420017	-0.643779993	-1.25650001	13	56	104
-0.704060018	-0.643779993	-1.25969994	13	56	104
-0.704490006	-0.642870009	-1.26119995	13	56	104
-0.704490006	-0.641640007	-1.26180005	13	56	104
-0.707140028	-0.641569972	-1.26170003	13	56	104
-0.70757997	-0.64319998	-1.26189995	13	56	104
-0.707140028	-0.644119978	-1.26040006	13	56	104
-0.710229993	-0.643130004	-1.26170003	13	56	104
-0.710229993	-0.641900003	-1.26230001	13	56	104
-0.710229993	-0.640680015	-1.26300001	13	56	104
-0.708010018	-0.641170025	-1.26390004	13	56	104
-0.705780029	-0.641650021	-1.26489997	13	56	104
-0.706640005	-0.641250014	-1.26709998	13	56	104
-0.706210017	-0.639620006	-1.26689994	13	56	104
-0.703980029	-0.64131999	-1.26719999	13	56	104
-0.703119993	-0.639289975	-1.26619995	13	56	104
-0.702269971	-0.640900016	-1.26339996	13	56	104
-0.709309995	-0.641170025	-1.26689994	13	56	104
-0.711969972	-0.641099989	-1.26680005	13	56	104
-0.71153003	-0.639469981	-1.26660001	13	56	104
-0.713760018	-0.638989985	-1.26559997	13	56	104
-0.713760018	-0.637719989	-1.26629996	13	56	104
-0.714630008	-0.637239993	-1.26849997	13	56	104
-0.713760018	-0.635150015	-1.26760006	13	56	104
-0.715990007	-0.634670019	-1.26660001	13	56	104
-0.719089985	-0.634989977	-1.26719999	13	56	104
-0.717729986	-0.637570024	-1.26919997	13	56	104
-0.716859996	-0.638040006	-1.26689994	13	56	104
-0.715990007	-0.638499975	-1.26470006	13	56	104
-0.717299998	-0.640929997	-1.2665	13	56	104
-0.715499997	-0.641830027	-1.26820004	13	56	104
-0.712840021	-0.639419973	-1.26970005	13	56	104
-0.712400019	-0.637730002	-1.26950002	13	56	104
-0.712400019	-0.636439979	-1.2701	13	56	104
-0.710600019	-0.637329996	-1.27190006	13	56	104
-0.710600019	-0.638610005	-1.27129996	13	56	104
-0.710600019	-0.639900029	-1.27059996	13	56	104
-0.710600019	-0.641170025	-1.26999998	13	56	104
-0.70836997	-0.639090002	-1.27219999	13	56	104
-0.710600019	-0.636039972	-1.27260005	13	56	104
-0.711030006	-0.63519001	-1.27400005	13	56	104
-0.711030006	-0.633949995	-1.27460003	13	56	104
-0.713699996	-0.635110021	-1.27380002	13	56	104
-0.714139998	-0.63677001	-1.27400005	13	56	104
-0.716809988	-0.636690021	-1.27390003	13	56	104
-0.717239976	-0.635839999	-1.27530003	13	56	104
-0.716809988	-0.634190023	-1.27509999	13	56	104
-0.717239976	-0.633260012	-1.2766	13	56	104
-0.716809988	-0.631500006	-1.27639997	13	56	104
-0.717239976	-0.630599976	-1.27789998	13	56	104
-0.714999974	-0.631079972	-1.27890003	13	56	104
-0.714139998	-0.631579995	-1.2766	13	56	104
-0.714569986	-0.633340001	-1.27670002	13	56	104
-0.714569986	-0.634679973	-1.27610004	13	56	104
-0.712329984	-0.633819997	-1.27769995	13	56	104
-0.712759972	-0.632849991	-1.27919996	13	56	104
-0.714060009	-0.632749975	-1.28219998	13	56	104
-0.714489996	-0.631850004	-1.28369999	13	56	104
-0.715349972	-0.631389976	-1.2859	13	56	104
-0.714919984	-0.62974	-1.28569996	13	56	104
-0.715789974	-0.629279971	-1.28799999	13	56	104
-0.715349972	-0.627619982	-1.28779995	13	56	104
-0.716220021	-0.627059996	-1.29009998	13	56	104
-0.718909979	-0.628329992	-1.28919995	13	56	104
-0.719340026	-0.627380013	-1.29069996	13	56	104
-0.722029984	-0.62729001	-1.29050004	13	56	104
-0.721599996	-0.628250003	-1.28910005	13	56	104
-0.724290013	-0.628170013	-1.28890002	13	56	104
-0.724290013	-0.626820028	-1.2895	13	56	104
-0.725160003	-0.626230001	-1.29180002	13	56	104
-0.725160003	-0.624979973	-1.2924	13	56	104
-0.722469985	-0.625069976	-1.29260004	13	56	104
-0.722899973	-0.626699984	-1.29279995	13	56	104
-0.720640004	-0.62717998	-1.2938	13	56	104
-0.720210016	-0.625540018	-1.29359996	13	56	104
-0.717949986	-0.626010001	-1.29460001	13	56	104
-0.718379974	-0.627650023	-1.29480004	13	56	104
-0.71438998	-0.62529999	-1.2931	13	56	104
-0.728290021	-0.625280023	-1.2931	13	56	104
-0.728290021	-0.626529992	-1.29250002	13	56	104
-0.727419972	-0.627120018	-1.2902	13	56	104
-0.726979971	-0.62808001	-1.28869998	13	56	104
-0.729669988	-0.627990007	-1.28849995	13	56	104
-0.730549991	-0.627420008	-1.29079998	13	56	104
-0.733250022	-0.627330005	-1.29059994	13	56	104
-0.732370019	-0.627900004	-1.28830004	13	56	104
-0.733730018	-0.627879977	-1.28509998	13	56	104
-0.733290017	-0.628740013	-1.28369999	13	56	104
-0.732850015	-0.629599988	-1.2823	13	56	104
-0.733730018	-0.631640017	-1.28330004	13	56	104
-0.732850015	-0.632149994	-1.28100002	13	56	104
-0.730599999	-0.632640004	-1.28199995	13	56	104
-0.728349984	-0.631829977	-1.28359997	13	56	104
-0.727469981	-0.629779994	-1.28269994	13	56	104
-0.727909982	-0.628929973	-1.28410006	13	56	104
-0.727909982	-0.62766999	-1.28470004	13	56	104
-0.730159998	-0.627189994	-1.28369999	13	56	104
-0.730159998	-0.628440022	-1.28310001	13	56	104
-0.730159998	-0.629689991	-1.28250003	13	56	104
-0.727469981	-0.63233	-1.28139997	13	56	104
-0.727909982	-0.634029984	-1.2816	13	56	104
-0.725229979	-0.634119987	-1.28170002	13	56	104
-0.725229979	-0.63282001	-1.28240001	13	56	104
-0.725660026	-0.63191998	-1.28380001	13	56	104
-0.724789977	-0.629869998	-1.28279996	13	56	104
-0.724789977	-0.628620028	-1.28340006	13	56	104
-0.725229979	-0.627759993	-1.28489995	13	56	104
-0.722540021	-0.627849996	-1.28499997	13	56	104
-0.722100019	-0.628700018	-1.28359997	13	56	104
-0.722540021	-0.630349994	-1.28380001	13	56	104
-0.722540021	-0.631609976	-1.28320003	13	56	104
-0.720290005	-0.632089972	-1.28419995	13	56	104
-0.720290005	-0.63082999	-1.28480005	13	56	104
-0.720290005	-0.629580021	-1.28540003	13	56	104
-0.720290005	-0.628319979	-1.28600001	13	56	104
-0.718039989	-0.628799975	-1.28699994	13	56	104
-0.718469977	-0.63045001	-1.28719997	13	56	104
-0.718469977	-0.631709993	-1.28659999	13	56	104
-0.71717	-0.631770015	-1.28349996	13	56	104
-0.722100019	-0.633809984	-1.28110003	13	56	104
-0.722540021	-0.635580003	-1.28120005	13	56	104
-0.724789977	-0.635089993	-1.28030002	13	56	104
-0.726589978	-0.634199977	-1.27849996	13	56	104
-0.726149976	-0.635140002	-1.27699995	13	56	104
-0.725269973	-0.635580003	-1.27479994	13	56	104
-0.727509975	-0.635089993	-1.27380002	13	56	104
-0.727509975	-0.633849978	-1.2744	13	56	104
-0.727949977	-0.632920027	-1.27590001	13	56	104
-0.730189979	-0.632430017	-1.27489996	13	56	104
-0.730189979	-0.631070018	-1.27559996	13	56	104
-0.732420027	-0.630580008	-1.27460003	13	56	104
-0.72882998	-0.632350028	-1.27820003	13	56	104
-0.731519997	-0.634959996	-1.2766	13	56	104
-0.731519997	-0.636200011	-1.27600002	13	56	104
-0.734650016	-0.633920014	-1.27789998	13	56	104
-0.736440003	-0.631669998	-1.27680004	13	56	104
-0.735539973	-0.632049978	-1.28079998	13	56	104
-0.736429989	-0.631550014	-1.28310001	13	56	104
-0.735979974	-0.629899979	-1.28289998	13	56	104
-0.736869991	-0.629429996	-1.28509998	13	56	104
-0.737309992	-0.62857002	-1.28649998	13	56	104
-0.739120007	-0.628939986	-1.28410006	13	56	104
-0.739120007	-0.630190015	-1.28349996	13	56	104
-0.738669991	-0.631049991	-1.28209996	13	56	104
-0.73822999	-0.631950021	-1.28059995	13	56	104
-0.741370022	-0.630949974	-1.28190005	13	56	104
-0.741370022	-0.629700005	-1.28250003	13	56	104
-0.741370022	-0.628449976	-1.28310001	13	56	104
-0.74405998	-0.628350019	-1.28289998	13	56	104
-0.743160009	-0.628809988	-1.28069997	13	56	104
-0.740459979	-0.62887001	-1.28709996	13	56	104
-0.743160009	-0.628769994	-1.28690004	13	56	104
-0.745859981	-0.628660023	-1.28670001	13	56	104
-0.746760011	-0.628189981	-1.28890002	13	56	104
-0.744499981	-0.628679991	-1.28999996	13	56	104
-0.745400012	-0.628109992	-1.29219997	13	56	104
-0.744499981	-0.625959992	-1.29130006	13	56	104
-0.744499981	-0.624710023	-1.29190004	13	56	104
-0.746760011	-0.624220014	-1.29089999	13	56	104
-0.746760011	-0.625460029	-1.29030001	13	56	104
-0.748099983	-0.628009975	-1.29200006	13	56	104
-0.750360012	-0.627510011	-1.29100001	13	56	104
-0.750360012	-0.626129985	-1.29159999	13	56	104
-0.749909997	-0.624499977	-1.29139996	13	56	104
-0.753069997	-0.624779999	-1.29200006	13	56	104
-0.753069997	-0.626030028	-1.29139996	13	56	104
-0.752619982	-0.627009988	-1.28989995	13	56	104
-0.749459982	-0.62808001	-1.28869998	13	56	104
-0.749459982	-0.629339993	-1.2881	13	56	104
-0.756229997	-0.625060022	-1.29260004	13	56	104
-0.756690025	-0.62668997	-1.29279995	13	56	104
-0.74180001	-0.62480998	-1.29209995	13	56	104
-0.74180001	-0.626060009	-1.29149997	13	56	104
-0.739090025	-0.626160026	-1.29170001	13	56	104
-0.739090025	-0.627529979	-1.29100001	13	56	104
-0.738650024	-0.628489971	-1.28960001	13	56	104
-0.735949993	-0.628589988	-1.28980005	13	56	104
-0.736829996	-0.628019989	-1.29200006	13	56	104
-0.736389995	-0.626250029	-1.29190004	13	56	104
-0.737280011	-0.62579	-1.29410005	13	56	104
-0.739539981	-0.62529999	-1.2931	13	56	104
-0.734130025	-0.626739979	-1.29289997	13	56	104
-0.733690023	-0.625100017	-1.29270005	13	56	104
-0.730989993	-0.625199974	-1.29289997	13	56	104
-0.731869996	-0.627219975	-1.29390001	13	56	104
-0.743130028	-0.628610015	-1.29320002	13	56	104
-0.742690027	-0.629570007	-1.29180002	13	56	104
-0.727069974	-0.635940015	-1.27240002	13	56	104
-0.72438997	-0.636030018	-1.27250004	13	56	104
-0.723510027	-0.636520028	-1.27030003	13	56	104
-0.72438997	-0.638610005	-1.27129996	13	56	104
-0.722599983	-0.640789986	-1.27240002	13	56	104
-0.721279979	-0.638289988	-1.27059996	13	56	104
-0.72171998	-0.636120021	-1.27269995	13	56	104
-0.722599983	-0.635670006	-1.27489996	13	56	104
-0.722159982	-0.634029984	-1.27479994	13	56	104
-0.71991998	-0.635760009	-1.27509999	13	56	104
-0.71991998	-0.637009978	-1.27450001	13	56	104
-0.720790029	-0.635309994	-1.2773	13	56	104
-0.720790029	-0.631309986	-1.27929997	13	56	104
-0.732370019	-0.632920027	-1.2859	13	56	104
-0.719529986	-0.639230013	-1.26610005	13	56	104
-0.713760018	-0.641420007	-1.26440001	13	56	104
-0.712890029	-0.641820014	-1.2622	13	56	104
-0.700119972	-0.647409976	-1.255	13	56	104
-0.693459988	-0.640280008	-1.2622	13	56	104
-0.692619979	-0.640670002	-1.25989997	13	56	104
-0.692619979	-0.641900003	-1.25929999	13	56	104
-0.692619979	-0.643220007	-1.2586	13	56	104
-0.699519992	-0.639779985	-1.27040005	13	56	104
-0.703350008	-0.629230022	-1.28470004	13	56	104
-0.704200029	-0.628769994	-1.28690004	13	56	104
-0.705049992	-0.628310025	-1.28919995	13	56	104
-0.707729995	-0.628239989	-1.28900003	13	56	104
-0.707310021	-0.626489997	-1.28890002	13	56	104
-0.709990025	-0.626420021	-1.28869998	13	56	104
-0.710420012	-0.628170013	-1.28890002	13	56	104
-0.706019998	-0.627910018	-1.2852	13	56	104
-0.708700001	-0.627839983	-1.28499997	13	56	104
-0.708270013	-0.628700018	-1.28359997	13	56	104
-0.709990025	-0.632799983	-1.28559995	13	56	104
-0.709990025	-0.63154	-1.28620005	13	56	104
-0.703649998	-0.625590026	-1.29369998	13	56	104
-0.704069972	-0.627229989	-1.29390001	13	56	104
-0.689409971	-0.625100017	-1.29270005	13	56	104
-0.689409971	-0.626349986	-1.29209995	13	56	104
-0.688579977	-0.626929998	-1.28980005	13	56	104
-0.688989997	-0.628679991	-1.28989995	13	56	104
-0.688989997	-0.629939973	-1.28929996	13	56	104
-0.688579977	-0.630800009	-1.28789997	13	56	104
-0.690410018	-0.629939973	-1.28610003	13	56	104
-0.692659974	-0.629490018	-1.2852	13	56	104
-0.693080008	-0.631139994	-1.28540003	13	56	104
-0.694490016	-0.63112998	-1.28219998	13	56	104
-0.691399992	-0.630789995	-1.28149998	13	56	104
-0.688740015	-0.630850017	-1.28170002	13	56	104
-0.689159989	-0.629989982	-1.28310001	13	56	104
-0.686909974	-0.63045001	-1.28400004	13	56	104
-0.686079979	-0.630900025	-1.28180003	13	56	104
-0.683830023	-0.631349981	-1.28269994	13	56	104
-0.683830023	-0.630100012	-1.28330004	13	56	104
-0.681169987	-0.63015002	-1.28340006	13	56	104
-0.680760026	-0.630999982	-1.28199995	13	56	104
-0.680760026	-0.632300019	-1.28129995	13	56	104
-0.680339992	-0.63319999	-1.27989995	13	56	104
-0.679929972	-0.634159982	-1.27839994	13	56	104
-0.679929972	-0.635500014	-1.27769995	13	56	104
-0.679520011	-0.636330009	-1.27629995	13	56	104
-0.676859975	-0.635140002	-1.27699995	13	56	104
-0.677280009	-0.634199977	-1.27849996	13	56	104
-0.677690029	-0.633239985	-1.27999997	13	56	104
-0.677280009	-0.63154	-1.27980006	13	56	104
-0.677690029	-0.63063997	-1.28120005	13	56	104
-0.677280009	-0.628989995	-1.28100002	13	56	104
-0.67851001	-0.628939986	-1.28410006	13	56	104
-0.675849974	-0.628989995	-1.28419995	13	56	104
-0.674419999	-0.630240023	-1.28670001	13	56	104
-0.67523998	-0.629779994	-1.28900003	13	56	104
-0.675639987	-0.628920019	-1.29040003	13	56	104
-0.678309977	-0.628880024	-1.29030001	13	56	104
-0.677489996	-0.629339993	-1.2881	13	56	104
-0.677079976	-0.626330018	-1.28849995	13	56	104
-0.677489996	-0.625349998	-1.28999996	13	56	104
-0.67523998	-0.62579	-1.29089999	13	56	104
-0.676050007	-0.625339985	-1.29320002	13	56	104
-0.678309977	-0.624899983	-1.29229999	13	56	104
-0.680980027	-0.626100004	-1.29159999	13	56	104
-0.681389987	-0.625249982	-1.29299998	13	56	104
-0.683239996	-0.624409974	-1.29130006	13	56	104
-0.683239996	-0.625660002	-1.29069996	13	56	104
-0.683650017	-0.627430022	-1.29079998	13	56	104
-0.684059978	-0.629180014	-1.29100001	13	56	104
-0.684059978	-0.630439997	-1.29040003	13	56	104
-0.686320007	-0.629989982	-1.28939998	13	56	104
-0.686320007	-0.628729999	-1.28999996	13	56	104
-0.686320007	-0.627380013	-1.29069996	13	56	104
-0.685899973	-0.625609994	-1.29059994	13	56	104
-0.685490012	-0.623969972	-1.29030001	13	56	104
-0.685079992	-0.630050004	-1.28639996	13	56	104
-0.681999981	-0.629700005	-1.28569996	13	56	104
-0.680570006	-0.629689991	-1.2888	13	56	104
-0.680980027	-0.628830016	-1.29030001	13	56	104
-0.680159986	-0.626680017	-1.28929996	13	56	104
-0.673389971	-0.625389993	-1.29330003	13	56	104
-0.674009979	-0.625970006	-1.28779995	13	56	104
-0.671350002	-0.626010001	-1.28789997	13	56	104
-0.671760023	-0.627759993	-1.2881	13	56	104
-0.671760023	-0.625039995	-1.28939998	13	56	104
-0.672980011	-0.630219996	-1.28989995	13	56	104
-0.675029993	-0.634649992	-1.27939999	13	56	104
-0.672789991	-0.635100007	-1.28030002	13	56	104
-0.670539975	-0.635550022	-1.28120005	13	56	104
-0.671559989	-0.635219991	-1.27719998	13	56	104
-0.671150029	-0.636059999	-1.27569997	13	56	104
-0.668910027	-0.636500001	-1.2766	13	56	104
-0.668910027	-0.635259986	-1.27719998	13	56	104
-0.669319987	-0.638170004	-1.27680004	13	56	104
-0.674210012	-0.635179996	-1.27709997	13	56	104
-0.682590008	-0.63793999	-1.27639997	13	56	104
-0.68483001	-0.637489974	-1.27550006	13	56	104
-0.685239971	-0.635399997	-1.27750003	13	56	104
-0.685239971	-0.634060025	-1.27820003	13	56	104
-0.685239971	-0.632700026	-1.27890003	13	56	104
-0.683000028	-0.633149981	-1.27980006	13	56	104
-0.682590008	-0.631439984	-1.27960002	13	56	104
-0.684409976	-0.630590022	-1.27789998	13	56	104
-0.687489986	-0.63094002	-1.27859998	13	56	104
-0.687900007	-0.632640004	-1.27869999	13	56	104
-0.687900007	-0.634000003	-1.27810001	13	56	104
-0.688319981	-0.635749996	-1.27820003	13	56	104
-0.688740015	-0.637399971	-1.27839994	13	56	104
-0.687900007	-0.637839973	-1.27620006	13	56	104
-0.690150023	-0.637380004	-1.27520001	13	56	104
-0.690559983	-0.636529982	-1.27670002	13	56	104
-0.690150023	-0.634880006	-1.27649999	13	56	104
-0.690559983	-0.633949995	-1.278	13	56	104
-0.691399992	-0.633390009	-1.28030002	13	56	104
-0.693650007	-0.632929981	-1.27929997	13	56	104
-0.693229973	-0.633889973	-1.27779996	13	56	104
-0.693229973	-0.635230005	-1.27719998	13	56	104
-0.695039988	-0.634360015	-1.27540004	13	56	104
-0.695469975	-0.63726002	-1.27499998	13	56	104
-0.69727999	-0.636389971	-1.27330005	13	56	104
-0.692809999	-0.637319982	-1.27509999	13	56	104
-0.691959977	-0.635259986	-1.27409995	13	56	104
-0.692809999	-0.63082999	-1.27830005	13	56	104
-0.690150023	-0.630879998	-1.27849996	13	56	104
-0.686489999	-0.63786	-1.27929997	13	56	104
-0.684249997	-0.638320029	-1.28030002	13	56	104
-0.683000028	-0.635850012	-1.27839994	13	56	104
-0.682169974	-0.633700013	-1.27750003	13	56	104
-0.66911	-0.63527	-1.27100003	13	56	104
-0.667069972	-0.630810022	-1.2816	13	56	104
-0.667479992	-0.629960001	-1.28299999	13	56	104
-0.666849971	-0.629490018	-1.28840005	13	56	104
-0.665639997	-0.627030015	-1.28659999	13	56	104
-0.665390015	-0.625500023	-1.29349995	13	56	104
-0.657679975	-0.629639983	-1.28550005	13	56	104
-0.662180007	-0.628769994	-1.28380001	13	56	104
-0.655290008	-0.632309973	-1.27810001	13	56	104
-0.654489994	-0.632860005	-1.27579999	13	56	104
-0.654890001	-0.634599984	-1.27590001	13	56	104
-0.654489994	-0.635439992	-1.27450001	13	56	104
-0.652249992	-0.634630024	-1.27600002	13	56	104
-0.652649999	-0.633700013	-1.27750003	13	56	104
-0.653439999	-0.633149981	-1.27980006	13	56	104
-0.635760009	-0.635439992	-1.28100002	13	56	104
-0.651989996	-0.63053	-1.28419995	13	56	104
-0.652390003	-0.629689991	-1.28559995	13	56	104
-0.636210024	-0.625720024	-1.29400003	13	56	104
-0.619109988	-0.647159994	-1.25119996	13	56	104
-0.618719995	-0.647800028	-1.24989998	13	56	104
-0.612869978	-0.641860008	-1.26530004	13	56	104
-0.609899998	-0.64143002	-1.26440001	13	56	104
-0.609520018	-0.642229974	-1.26300001	13	56	104
-0.61461997	-0.653029978	-1.24290001	13	56	104
-0.608640015	-0.659489989	-1.23000002	13	56	104
-0.608640015	-0.660470009	-1.22950006	13	56	104
-0.607500017	-0.657209992	-1.22809994	13	56	104
-0.603439987	-0.662029982	-1.22130001	13	56	104
-0.582289994	-0.678740025	-1.19459999	13	56	104
-0.581920028	-0.676900029	-1.19449997	13	56	104
-0.566510022	-0.68137002	-1.19019997	13	56	104
-0.566510022	-0.681079984	-1.1904	13	56	104
-0.56686002	-0.681200027	-1.19140005	13	56	104
-0.566510022	-0.679549992	-1.19130003	13	56	104
-0.56615001	-0.679910004	-1.19000006	13	56	104
-0.565789998	-0.679040015	-1.18939996	13	56	104
-0.569369972	-0.680069983	-1.19219995	13	56	104
-0.570439994	-0.681050003	-1.19480002	13	56	104
-0.56686002	-0.677089989	-1.19369996	13	56	104
-0.569369972	-0.674570024	-1.19529998	13	56	104
-0.574379981	-0.68017	-1.19239998	13	56	104
-0.574379981	-0.679359972	-1.19280005	13	56	104
-0.584800005	-0.674820006	-1.19690001	13	56	104
-0.589959979	-0.670809984	-1.21399999	13	56	104
-0.590330005	-0.670549989	-1.21519995	13	56	104
-0.589959979	-0.669309974	-1.21490002	13	56	104
-0.589590013	-0.668070018	-1.21449995	13	56	104
-0.589219987	-0.666180015	-1.21440005	13	56	104
-0.590690017	-0.668690026	-1.21730006	13	56	104
-0.591059983	-0.667519987	-1.21899998	13	56	104
-0.591059983	-0.666610003	-1.21949995	13	56	104
-0.591430008	-0.666270018	-1.22080004	13	56	104
-0.591059983	-0.665040016	-1.22039998	13	56	104
-0.591799974	-0.665019989	-1.22249997	13	56	104
-0.563229978	-0.669239998	-1.20949996	13	56	104
-0.563579977	-0.668990016	-1.21070004	13	56	104
-0.563929975	-0.670889974	-1.21080005	13	56	104
-0.563929975	-0.671630025	-1.21029997	13	56	104
-0.563929975	-0.672370017	-1.20990002	13	56	104
-0.563929975	-0.673099995	-1.20949996	13	56	104
-0.56141001	-0.671570003	-1.21019995	13	56	104
-0.561760008	-0.671280026	-1.21150005	13	56	104
-0.561060011	-0.669640005	-1.21019995	13	56	104
-0.561060011	-0.668929994	-1.21060002	13	56	104
-0.560710013	-0.667770028	-1.21019995	13	56	104
-0.560710013	-0.666989982	-1.21060002	13	56	104
-0.56141001	-0.667100012	-1.21270001	13	56	104
-0.563579977	-0.666710019	-1.21200001	13	56	104
-0.563229978	-0.667050004	-1.21070004	13	56	104
-0.566100001	-0.667550027	-1.21169996	13	56	104
-0.566100001	-0.666769981	-1.21210003	13	56	104
-0.566100001	-0.668340027	-1.2112	13	56	104
-0.564279974	-0.66918999	-1.21280003	13	56	104
-0.564989984	-0.667789996	-1.21570003	13	56	104
-0.565339983	-0.66663003	-1.21739995	13	56	104
-0.565689981	-0.665380001	-1.2191	13	56	104
-0.565689981	-0.664590001	-1.21959996	13	56	104
-0.564989984	-0.66279	-1.2184	13	56	104
-0.565339983	-0.662329972	-1.21969998	13	56	104
-0.563870013	-0.663609982	-1.22210002	13	56	104
-0.564220011	-0.664969981	-1.22239995	13	56	104
-0.563870013	-0.665430009	-1.22109997	13	56	104
-0.562810004	-0.664870024	-1.21819997	13	56	104
-0.562810004	-0.666570008	-1.21730006	13	56	104
-0.563160002	-0.66790998	-1.21759999	13	56	104
-0.562460005	-0.667729974	-1.21560001	13	56	104
-0.559939981	-0.667670012	-1.2155	13	56	104
-0.559589982	-0.666499972	-1.21500003	13	56	104
-0.559939981	-0.665139973	-1.21679997	13	56	104
-0.560289979	-0.664030015	-1.21850002	13	56	104
-0.560639977	-0.665260017	-1.21889997	13	56	104
-0.560639977	-0.663569987	-1.2198	13	56	104
-0.561339974	-0.663550019	-1.222	13	56	104
-0.562030017	-0.663569987	-1.22409999	13	56	104
-0.559849977	-0.66395998	-1.22479999	13	56	104
-0.560199976	-0.663529992	-1.22609997	13	56	104
-0.560890019	-0.663479984	-1.22829998	13	56	104
-0.559050024	-0.664309978	-1.22979999	13	56	104
-0.558009982	-0.663909972	-1.22679996	13	56	104
-0.555480003	-0.663850009	-1.22669995	13	56	104
-0.555819988	-0.663349986	-1.22800004	13	56	104
-0.555480003	-0.661970019	-1.2277	13	56	104
-0.555819988	-0.661459982	-1.22909999	13	56	104
-0.556509972	-0.661390007	-1.23119998	13	56	104
-0.554319978	-0.661769986	-1.23189998	13	56	104
-0.554319978	-0.660790026	-1.23249996	13	56	104
-0.553979993	-0.662280023	-1.2306	13	56	104
-0.553290009	-0.662349999	-1.22839999	13	56	104
-0.553290009	-0.663290024	-1.22790003	13	56	104
-0.553290009	-0.664229989	-1.22739995	13	56	104
-0.55260998	-0.664210021	-1.22529995	13	56	104
