-0.193759993	0.299980015	-1.31029999	204	252	192
-0.193680003	0.298420012	-1.3096	204	252	192
-0.193759993	0.297329992	-1.31089997	204	252	192
-0.193839997	0.296259999	-1.31210005	204	252	192
-0.193839997	0.29497999	-1.31239998	204	252	192
-0.191660002	0.294800013	-1.31159997	204	252	192
-0.191740006	0.296299994	-1.31229997	204	252	192
-0.189559996	0.296110004	-1.31149995	204	252	192
-0.189480007	0.297179997	-1.31019998	204	252	192
-0.189480007	0.298489988	-1.30990005	204	252	192
-0.189480007	0.29982999	-1.3096	204	252	192
-0.191579998	0.299789995	-1.30949998	204	252	192
-0.191499993	0.298229992	-1.30879998	204	252	192
-0.191579998	0.297140002	-1.31009996	204	252	192
-0.187460005	0.297439992	-1.31140006	204	252	192
-0.187460005	0.296149999	-1.31169999	204	252	192
-0.187539995	0.29508999	-1.31289995	204	252	192
-0.18761	0.294	-1.31420004	204	252	192
-0.187539995	0.292450011	-1.31350005	204	252	192
-0.187539995	0.291130006	-1.31379998	204	252	192
-0.18964	0.291090012	-1.31359994	204	252	192
-0.189710006	0.292629987	-1.31429994	204	252	192
-0.189710006	0.293960005	-1.31400001	204	252	192
-0.189710006	0.29528001	-1.31369996	204	252	192
-0.191890001	0.294140011	-1.31480002	204	252	192
-0.191819996	0.292589992	-1.31420004	204	252	192
-0.191819996	0.291280001	-1.31449997	204	252	192
-0.191890001	0.290179998	-1.31570005	204	252	192
-0.18964	0.287120014	-1.31449997	204	252	192
-0.18987	0.286460012	-1.31770003	204	252	192
-0.189789996	0.284969985	-1.31700003	204	252	192
-0.190019995	0.284280002	-1.32019997	204	252	192
-0.190099999	0.281870008	-1.32179999	204	252	192
-0.190170005	0.280820012	-1.32299995	204	252	192
-0.190170005	0.279489994	-1.3233	204	252	192
-0.192369998	0.279659986	-1.32410002	204	252	192
-0.192289993	0.280790001	-1.32290006	204	252	192
-0.192289993	0.282050014	-1.32260001	204	252	192
-0.194560006	0.281170011	-1.32459998	204	252	192
-0.194639996	0.280039996	-1.32589996	204	252	192
-0.194480002	0.278250009	-1.32420003	204	252	192
-0.192440003	0.278490007	-1.32539999	204	252	192
-0.19472	0.277530015	-1.32739997	204	252	192
-0.196919993	0.277689993	-1.32819998	204	252	192
-0.196669996	0.275759995	-1.32560003	204	252	192
-0.198789999	0.274410009	-1.32570004	204	252	192
-0.201670006	0.277509987	-1.33399999	204	252	192
-0.202020004	0.279659986	-1.33770001	204	252	192
-0.201930001	0.286110014	-1.33529997	204	252	192
-0.201590002	0.283980012	-1.33169997	204	252	192
-0.201499999	0.289029986	-1.32949996	204	252	192
-0.201499999	0.290340006	-1.32930005	204	252	192
-0.201419994	0.291480005	-1.32799995	204	252	192
-0.201159999	0.292169988	-1.32480001	204	252	192
-0.200990006	0.293069988	-1.32249999	204	252	192
-0.200990006	0.295729995	-1.32190001	204	252	192
-0.201250002	0.295040011	-1.32519996	204	252	192
-0.200900003	0.299419999	-1.32009995	204	252	192
-0.200990006	0.300960004	-1.32079995	204	252	192
-0.200819999	0.301860005	-1.31850004	204	252	192
-0.200650007	0.302839994	-1.31620002	204	252	192
-0.200650007	0.304199994	-1.31589997	204	252	192
-0.200729996	0.305700004	-1.31659997	204	252	192
-0.200729996	0.30697	-1.31630003	204	252	192
-0.200729996	0.308270007	-1.31599998	204	252	192
-0.200479999	0.308890015	-1.31280005	204	252	192
-0.200389996	0.311230004	-1.31120002	204	252	192
-0.200310007	0.312240005	-1.30990005	204	252	192
-0.200139999	0.313010007	-1.30770004	204	252	192
-0.198119998	0.31081	-1.30939996	204	252	192
-0.197950006	0.309080005	-1.30780005	204	252	192
-0.198039994	0.308010012	-1.30910003	204	252	192
-0.198119998	0.306950003	-1.31040001	204	252	192
-0.198290005	0.306109995	-1.31260002	204	252	192
-0.198369995	0.305059999	-1.31389999	204	252	192
-0.198290005	0.303570002	-1.3132	204	252	192
-0.198290005	0.302210003	-1.31350005	204	252	192
-0.198200002	0.300570011	-1.31289995	204	252	192
-0.198290005	0.29945001	-1.31410003	204	252	192
-0.198200002	0.297910005	-1.31350005	204	252	192
-0.198200002	0.296620011	-1.31379998	204	252	192
-0.198449999	0.296000004	-1.31700003	204	252	192
-0.198369995	0.294470012	-1.31630003	204	252	192
-0.198449999	0.293350011	-1.31760001	204	252	192
-0.198369995	0.291810006	-1.31690001	204	252	192
-0.196099997	0.290100008	-1.3154	204	252	192
-0.196020007	0.288560003	-1.31470001	204	252	192
-0.198200002	0.288740009	-1.31550002	204	252	192
-0.196180001	0.287660003	-1.31690001	204	252	192
-0.196020007	0.291200012	-1.31410003	204	252	192
-0.196020007	0.292519987	-1.31379998	204	252	192
-0.198620006	0.29113999	-1.32009995	204	252	192
-0.198540002	0.285670012	-1.32029998	204	252	192
-0.194159999	0.281390011	-1.31949997	204	252	192
-0.187910005	0.281699985	-1.32099998	204	252	192
-0.187989995	0.28064999	-1.32219994	204	252	192
-0.181299999	0.283569992	-1.31690001	204	252	192
-0.181370005	0.285100013	-1.31760001	204	252	192
-0.181439996	0.286599994	-1.31830001	204	252	192
-0.181370005	0.28768	-1.31710005	204	252	192
-0.181370005	0.289020002	-1.3168	204	252	192
-0.181370005	0.290340006	-1.31649995	204	252	192
-0.181299999	0.29144001	-1.31519997	204	252	192
-0.179130003	0.291260004	-1.31439996	204	252	192
-0.179130003	0.292580009	-1.31410003	204	252	192
-0.179130003	0.293909997	-1.31379998	204	252	192
-0.179059997	0.294999987	-1.3125	204	252	192
-0.181089997	0.294750005	-1.31140006	204	252	192
-0.181160003	0.296249986	-1.31210005	204	252	192
-0.183259994	0.296220005	-1.31200004	204	252	192
-0.183190003	0.294719994	-1.31130004	204	252	192
-0.18536	0.294910014	-1.31210005	204	252	192
-0.185289994	0.295960009	-1.31079996	204	252	192
-0.18536	0.297470003	-1.31149995	204	252	192
-0.183190003	0.297280014	-1.31070006	204	252	192
-0.183259994	0.298819989	-1.31140006	204	252	192
-0.181089997	0.298629999	-1.31050003	204	252	192
-0.181020007	0.297100008	-1.30990005	204	252	192
-0.178929999	0.297129989	-1.30999994	204	252	192
-0.178929999	0.295839995	-1.31029999	204	252	192
-0.176760003	0.295650005	-1.30949998	204	252	192
-0.176829994	0.29716	-1.31009996	204	252	192
-0.174669996	0.29697001	-1.30929995	204	252	192
-0.174730003	0.295899987	-1.31060004	204	252	192
-0.174799994	0.294849992	-1.3118	204	252	192
-0.174799994	0.293529987	-1.31210005	204	252	192
-0.174799994	0.292210013	-1.31239998	204	252	192
-0.176899999	0.292180002	-1.31229997	204	252	192
-0.176899999	0.293500006	-1.31200004	204	252	192
-0.177029997	0.291289985	-1.31449997	204	252	192
-0.174989998	0.291539997	-1.31560004	204	252	192
-0.175060004	0.290439993	-1.31690001	204	252	192
-0.174989998	0.288890004	-1.31620002	204	252	192
-0.17295	0.289139986	-1.31729996	204	252	192
-0.17295	0.290459991	-1.31700003	204	252	192
-0.170910001	0.290710002	-1.31809998	204	252	192
-0.170599997	0.29095	-1.31299996	204	252	192
-0.170599997	0.292259991	-1.31270003	204	252	192
-0.170599997	0.293590009	-1.31239998	204	252	192
-0.170540005	0.294690013	-1.31110001	204	252	192
-0.170540005	0.295960009	-1.31079996	204	252	192
-0.172639996	0.295929998	-1.31070006	204	252	192
-0.172639996	0.294660002	-1.31099999	204	252	192
-0.172700003	0.293559998	-1.31229997	204	252	192
-0.172700003	0.29223001	-1.31260002	204	252	192
-0.172700003	0.290919989	-1.31280005	204	252	192
-0.168500006	0.290969998	-1.31309998	204	252	192
-0.168380007	0.291860014	-1.31089997	204	252	192
-0.166229993	0.291669995	-1.30999994	204	252	192
-0.166339993	0.293430001	-1.31169999	204	252	192
-0.164299995	0.293669999	-1.31270003	204	252	192
-0.164360002	0.295210004	-1.31340003	204	252	192
-0.162200004	0.29501	-1.31260002	204	252	192
-0.162259996	0.29392001	-1.31379998	204	252	192
-0.160150006	0.295249999	-1.31359994	204	252	192
-0.162090003	0.295850009	-1.31029999	204	252	192
-0.162090003	0.297129989	-1.30999994	204	252	192
-0.162090003	0.298440009	-1.30970001	204	252	192
-0.162149996	0.300009996	-1.31040001	204	252	192
-0.164250001	0.299980015	-1.31029999	204	252	192
-0.164189994	0.298420012	-1.3096	204	252	192
-0.164189994	0.297109991	-1.30990005	204	252	192
-0.164189994	0.295819998	-1.31019998	204	252	192
-0.166229993	0.29558	-1.30910003	204	252	192
-0.166229993	0.296860009	-1.30879998	204	252	192
-0.166339993	0.298610002	-1.31050003	204	252	192
-0.16629	0.299730003	-1.30920005	204	252	192
-0.16629	0.301149994	-1.3089	204	252	192
-0.166229993	0.302269995	-1.30760002	204	252	192
-0.166170001	0.303310007	-1.30630004	204	252	192
-0.166229993	0.304800004	-1.30700004	204	252	192
-0.16832	0.304780006	-1.30690002	204	252	192
-0.168259993	0.303279996	-1.30620003	204	252	192
-0.168200001	0.305610001	-1.3046	204	252	192
-0.168259993	0.307130009	-1.3053	204	252	192
-0.16832	0.308640003	-1.30599999	204	252	192
-0.168259993	0.309680015	-1.30470002	204	252	192
-0.168259993	0.31092	-1.30439997	204	252	192
-0.16832	0.312379986	-1.30509996	204	252	192
-0.168200001	0.313120008	-1.30289996	204	252	192
-0.168090001	0.313849986	-1.30060005	204	252	192
-0.168149993	0.315299988	-1.30130005	204	252	192
-0.168200001	0.316740006	-1.30200005	204	252	192
-0.168259993	0.31814	-1.30270004	204	252	192
-0.166170001	0.318170011	-1.30280006	204	252	192
-0.166170001	0.317009985	-1.30309999	204	252	192
-0.164130002	0.317270011	-1.30420005	204	252	192
-0.164079994	0.318199992	-1.30289996	204	252	192
-0.161929995	0.317990005	-1.30200005	204	252	192
-0.159840003	0.318019986	-1.30219996	204	252	192
-0.159789994	0.31893	-1.30089998	204	252	192
-0.159889996	0.320520014	-1.30260003	204	252	192
-0.159840003	0.321390003	-1.30130005	204	252	192
-0.159740001	0.32201001	-1.29910004	204	252	192
-0.159789994	0.32337001	-1.29980004	204	252	192
-0.159740001	0.324279994	-1.29849994	204	252	192
-0.159789994	0.325619996	-1.29920006	204	252	192
-0.159740001	0.326409996	-1.29799998	204	252	192
-0.161819994	0.326380014	-1.29789996	204	252	192
-0.161819994	0.32536	-1.29820001	204	252	192
-0.161880001	0.324490011	-1.29939997	204	252	192
-0.161880001	0.323339999	-1.29970002	204	252	192
-0.163859993	0.323980004	-1.2974	204	252	192
-0.163859993	0.325080007	-1.29709995	204	252	192
-0.163910002	0.326350003	-1.29779994	204	252	192
-0.163969994	0.327600002	-1.29849994	204	252	192
-0.161929995	0.327879995	-1.29960001	204	252	192
-0.159889996	0.328150004	-1.30069995	204	252	192
-0.159789994	0.328619987	-1.29849994	204	252	192
-0.157749996	0.328889996	-1.29960001	204	252	192
-0.157649994	0.329389989	-1.2974	204	252	192
-0.157649994	0.330449998	-1.29709995	204	252	192
-0.159740001	0.330430001	-1.29700005	204	252	192
-0.159630001	0.328869998	-1.29530001	204	252	192
-0.161660001	0.328599989	-1.29429996	204	252	192
-0.161660001	0.327609986	-1.29449999	204	252	192
-0.163739994	0.327589989	-1.29439998	204	252	192
-0.163690001	0.32833001	-1.29320002	204	252	192
-0.163800001	0.329879999	-1.29480004	204	252	192
-0.161770001	0.330150008	-1.29589999	204	252	192
-0.165830001	0.328539997	-1.29400003	204	252	192
-0.165879995	0.327800006	-1.29519999	204	252	192
-0.165879995	0.326840013	-1.29550004	204	252	192
-0.165940002	0.326079994	-1.2967	204	252	192
-0.165940002	0.32506001	-1.29700005	204	252	192
-0.165879995	0.323709995	-1.29630005	204	252	192
-0.165999994	0.323040009	-1.29849994	204	252	192
-0.168029994	0.32277	-1.2974	204	252	192
-0.167909995	0.323439986	-1.29519999	204	252	192
-0.167970002	0.324779987	-1.29589999	204	252	192
-0.168029994	0.326050013	-1.29659998	204	252	192
-0.168029994	0.327060014	-1.29630005	204	252	192
-0.168090001	0.328260005	-1.29709995	204	252	192
-0.168090001	0.329250008	-1.29680002	204	252	192
-0.168029994	0.330069989	-1.29560006	204	252	192
-0.170110002	0.328969985	-1.29569995	204	252	192
-0.170110002	0.327030003	-1.29620004	204	252	192
-0.170110002	0.326020002	-1.29649997	204	252	192
-0.170049995	0.324750006	-1.29579997	204	252	192
-0.170049995	0.323650002	-1.296	204	252	192
-0.172199994	0.32385999	-1.29690003	204	252	192
-0.172260001	0.325210005	-1.29760003	204	252	192
-0.172260001	0.32622999	-1.29729998	204	252	192
-0.172199994	0.326990008	-1.29610002	204	252	192
-0.174219996	0.326719999	-1.29499996	204	252	192
-0.174219996	0.327679992	-1.29480004	204	252	192
-0.176300004	0.327639997	-1.29460001	204	252	192
-0.176369995	0.329939991	-1.29509997	204	252	192
-0.176499993	0.329369992	-1.29729998	204	252	192
-0.176499993	0.327419996	-1.29779994	204	252	192
-0.176430002	0.326169997	-1.29709995	204	252	192
-0.176499993	0.325379997	-1.29830003	204	252	192
-0.176499993	0.324279994	-1.29859996	204	252	192
-0.176499993	0.323130012	-1.29879999	204	252	192
-0.17859	0.323089987	-1.29869998	204	252	192
-0.178519994	0.324000001	-1.2974	204	252	192
-0.178519994	0.325109988	-1.29719996	204	252	192
-0.178519994	0.326130003	-1.29690003	204	252	192
-0.178450003	0.326889992	-1.29569995	204	252	192
-0.180539995	0.327820003	-1.29530001	204	252	192
-0.180539995	0.328810006	-1.29509997	204	252	192
-0.180470005	0.329620004	-1.2938	204	252	192
-0.178379998	0.329659998	-1.29400003	204	252	192
-0.17825	0.328110009	-1.29229999	204	252	192
-0.178110003	0.326629996	-1.29059994	204	252	192
-0.182260007	0.32754001	-1.29009998	204	252	192
-0.182400003	0.32705	-1.29229999	204	252	192
-0.182480007	0.329340011	-1.29270005	204	252	192
-0.184560001	0.328240007	-1.29279995	204	252	192
-0.184630007	0.327499986	-1.29410005	204	252	192
-0.186639994	0.327219993	-1.29289997	204	252	192
-0.186790004	0.328689992	-1.29460001	204	252	192
-0.186790004	0.32675001	-1.29509997	204	252	192
-0.186939999	0.32622999	-1.29729998	204	252	192
-0.186859995	0.324959993	-1.29659998	204	252	192
-0.186859995	0.32385999	-1.29690003	204	252	192
-0.186859995	0.322710007	-1.29719996	204	252	192
-0.184780002	0.322739989	-1.29729998	204	252	192
-0.184780002	0.323900014	-1.29700005	204	252	192
-0.184780002	0.324999988	-1.2967	204	252	192
-0.184850007	0.326270014	-1.29750001	204	252	192
-0.184850007	0.327270001	-1.29719996	204	252	192
-0.182620004	0.326819986	-1.29540002	204	252	192
-0.182620004	0.325819999	-1.29569995	204	252	192
-0.182620004	0.324790001	-1.29589999	204	252	192
-0.18276	0.324180007	-1.29809999	204	252	192
-0.18276	0.323020011	-1.29840004	204	252	192
-0.180669993	0.323060006	-1.29859996	204	252	192
-0.180669993	0.324209988	-1.29830003	204	252	192
-0.180610001	0.325069994	-1.29700005	204	252	192
-0.180610001	0.326099992	-1.29680002	204	252	192
-0.180669993	0.320850015	-1.29910004	204	252	192
-0.180739999	0.319979995	-1.30040002	204	252	192
-0.182830006	0.318830013	-1.30050004	204	252	192
-0.182980001	0.320419997	-1.30209994	204	252	192
-0.182980001	0.321530014	-1.30190003	204	252	192
-0.185139999	0.321729988	-1.30270004	204	252	192
-0.185069993	0.322589993	-1.30149996	204	252	192
-0.18716	0.322549999	-1.30130005	204	252	192
-0.187309995	0.321929991	-1.30350006	204	252	192
-0.189250007	0.321420014	-1.30139995	204	252	192
-0.189180002	0.320069999	-1.30069995	204	252	192
-0.187089995	0.320109993	-1.30089998	204	252	192
-0.185000002	0.320149988	-1.301	204	252	192
-0.187010005	0.317609996	-1.30050004	204	252	192
-0.189180002	0.317809999	-1.30130005	204	252	192
-0.191190004	0.318679988	-1.29990005	204	252	192
-0.193360001	0.318879992	-1.30069995	204	252	192
-0.195610002	0.319310009	-1.30250001	204	252	192
-0.195610002	0.318159997	-1.30270004	204	252	192
-0.195610002	0.316989988	-1.30299997	204	252	192
-0.195610002	0.315789998	-1.30330002	204	252	192
-0.195690006	0.320670009	-1.30309999	204	252	192
-0.197870001	0.320859998	-1.3039	204	252	192
-0.195529997	0.322400004	-1.30069995	204	252	192
-0.195449993	0.321060002	-1.29999995	204	252	192
-0.195449993	0.323269993	-1.29939997	204	252	192
-0.195529997	0.324669987	-1.30009997	204	252	192
-0.195360005	0.325289994	-1.29789996	204	252	192
-0.195360005	0.327320009	-1.2974	204	252	192
-0.195360005	0.328280002	-1.29709995	204	252	192
-0.195199996	0.328779995	-1.29499996	204	252	192
-0.195449993	0.330579996	-1.29760003	204	252	192
-0.193360001	0.329560012	-1.29799998	204	252	192
-0.193360001	0.328570008	-1.29830003	204	252	192
-0.193279997	0.327360004	-1.29750001	204	252	192
-0.191190004	0.326389998	-1.29799998	204	252	192
-0.191269994	0.325610012	-1.29920006	204	252	192
-0.191269994	0.324510008	-1.29949999	204	252	192
-0.191339999	0.32359001	-1.30069995	204	252	192
-0.191339999	0.322479993	-1.301	204	252	192
-0.193360001	0.323309988	-1.29960001	204	252	192
-0.193360001	0.324470013	-1.29929996	204	252	192
-0.193519995	0.326050013	-1.301	204	252	192
-0.191269994	0.327650011	-1.29869998	204	252	192
-0.191269994	0.328610003	-1.29840004	204	252	192
-0.19111	0.329109997	-1.29620004	204	252	192
-0.19111	0.330170006	-1.296	204	252	192
-0.189180002	0.33070001	-1.29809999	204	252	192
-0.189250007	0.329879999	-1.29929996	204	252	192
-0.187089995	0.330740005	-1.29820001	204	252	192
-0.185069993	0.331019998	-1.29929996	204	252	192
-0.181020007	0.328570008	-1.30229998	204	252	192
-0.180950001	0.322899997	-1.30270004	204	252	192
-0.178929999	0.32317999	-1.30379999	204	252	192
-0.178790003	0.32159999	-1.30219996	204	252	192
-0.178790003	0.320490003	-1.30239999	204	252	192
-0.178790003	0.319370002	-1.30270004	204	252	192
-0.178790003	0.31821999	-1.30299997	204	252	192
-0.178790003	0.31705001	-1.30330002	204	252	192
-0.178660005	0.314170003	-1.30190003	204	252	192
-0.178719997	0.313190013	-1.30320001	204	252	192
-0.180810004	0.313160002	-1.30299997	204	252	192
-0.180739999	0.311729997	-1.30239999	204	252	192
-0.180810004	0.31073001	-1.30359995	204	252	192
-0.180879995	0.309729993	-1.30490005	204	252	192
-0.180879995	0.308459997	-1.30519998	204	252	192
-0.180810004	0.306939989	-1.30449998	204	252	192
-0.180810004	0.305649996	-1.30480003	204	252	192
-0.182909995	0.305620015	-1.30470002	204	252	192
-0.182909995	0.306910008	-1.30439997	204	252	192
-0.182980001	0.308420002	-1.30499995	204	252	192
-0.182980001	0.309689999	-1.30470002	204	252	192
-0.182830006	0.310470015	-1.30250001	204	252	192
-0.182830006	0.311690003	-1.30219996	204	252	192
-0.182830006	0.312889993	-1.30190003	204	252	192
-0.182909995	0.314330012	-1.30260003	204	252	192
-0.182909995	0.315549999	-1.30229998	204	252	192
-0.184919998	0.314060003	-1.30149996	204	252	192
-0.185139999	0.315979987	-1.30410004	204	252	192
-0.183190003	0.317690015	-1.30589998	204	252	192
-0.183050007	0.318390012	-1.30369997	204	252	192
-0.18536	0.317889988	-1.30669999	204	252	192
-0.187460005	0.317860007	-1.30659997	204	252	192
-0.187539995	0.316879988	-1.30780005	204	252	192
-0.189480007	0.316379994	-1.30569994	204	252	192
-0.189480007	0.317580014	-1.30540001	204	252	192
-0.18716	0.312079996	-1.3039	204	252	192
-0.18716	0.310860008	-1.30410004	204	252	192
-0.18716	0.309619993	-1.30439997	204	252	192
-0.18716	0.308349997	-1.30470002	204	252	192
-0.18716	0.307060003	-1.30499995	204	252	192
-0.189559996	0.306650013	-1.30910003	204	252	192
-0.191660002	0.306609988	-1.3089	204	252	192
-0.191579998	0.30509001	-1.3082	204	252	192
-0.191660002	0.304049999	-1.30949998	204	252	192
-0.191660002	0.302789986	-1.30980003	204	252	192
-0.191740006	0.301649988	-1.31110001	204	252	192
-0.18964	0.301690012	-1.31130004	204	252	192
-0.189710006	0.303270012	-1.31190002	204	252	192
-0.189559996	0.304089993	-1.30970001	204	252	192
-0.187460005	0.304120004	-1.30980003	204	252	192
-0.187460005	0.302859992	-1.31009996	204	252	192
-0.18536	0.304159999	-1.30999994	204	252	192
-0.183119997	0.305009991	-1.30789995	204	252	192
-0.181020007	0.305040002	-1.30799997	204	252	192
-0.179000005	0.305299997	-1.30910003	204	252	192
-0.176899999	0.305339992	-1.30929995	204	252	192
-0.174799994	0.305370003	-1.30939996	204	252	192
-0.174669996	0.303640008	-1.30780005	204	252	192
-0.174600005	0.302159995	-1.30710006	204	252	192
-0.174539998	0.300579995	-1.30639994	204	252	192
-0.176630005	0.300550014	-1.30630004	204	252	192
-0.176699996	0.302130014	-1.30700004	204	252	192
-0.176760003	0.303609997	-1.30760002	204	252	192
-0.178790003	0.303359985	-1.30649996	204	252	192
-0.178859994	0.302320004	-1.30780005	204	252	192
-0.178859994	0.300969988	-1.30809999	204	252	192
-0.178929999	0.299780011	-1.30939996	204	252	192
-0.180950001	0.299519986	-1.30830002	204	252	192
-0.180879995	0.300709993	-1.30700004	204	252	192
-0.180950001	0.302289993	-1.30770004	204	252	192
-0.180879995	0.303319991	-1.30639994	204	252	192
-0.182909995	0.303059995	-1.3053	204	252	192
-0.182830006	0.301580012	-1.3046	204	252	192
-0.182980001	0.300680012	-1.30680001	204	252	192
-0.183050007	0.299490005	-1.30809999	204	252	192
-0.185069993	0.299230009	-1.30700004	204	252	192
-0.185000002	0.300419986	-1.30569994	204	252	192
-0.18716	0.300610006	-1.30649996	204	252	192
-0.187309995	0.29964	-1.30879998	204	252	192
-0.187460005	0.298750013	-1.31110001	204	252	192
-0.185220003	0.298339993	-1.30929995	204	252	192
-0.185139999	0.302219987	-1.30739999	204	252	192
-0.179130003	0.30704999	-1.31079996	204	252	192
-0.177159995	0.307539999	-1.31289995	204	252	192
-0.174989998	0.307339996	-1.31200004	204	252	192
-0.172570005	0.304939985	-1.30760002	204	252	192
-0.172509998	0.303449988	-1.30690002	204	252	192
-0.170479998	0.3037	-1.30799997	204	252	192
-0.170479998	0.302439988	-1.30830002	204	252	192
-0.170540005	0.301310003	-1.3096	204	252	192
-0.170479998	0.299679995	-1.30900002	204	252	192
-0.168380007	0.299699992	-1.30910003	204	252	192
-0.168439999	0.301340014	-1.30970001	204	252	192
-0.168439999	0.302700013	-1.30939996	204	252	192
-0.170540005	0.305200011	-1.30869997	204	252	192
-0.172509998	0.306010008	-1.30630004	204	252	192
-0.170359999	0.305810004	-1.30550003	204	252	192
-0.170300007	0.306870013	-1.30420005	204	252	192
-0.170359999	0.308380008	-1.30490005	204	252	192
-0.170359999	0.309659988	-1.3046	204	252	192
-0.170359999	0.310889989	-1.30429995	204	252	192
-0.170300007	0.311890006	-1.30299997	204	252	192
-0.172319993	0.311619997	-1.30190003	204	252	192
-0.172389999	0.310629994	-1.30320001	204	252	192
-0.172450006	0.309630007	-1.30449998	204	252	192
-0.172389999	0.308120012	-1.30379999	204	252	192
-0.172389999	0.306840003	-1.30410004	204	252	192
-0.174539998	0.307040006	-1.30490005	204	252	192
-0.176630005	0.307000011	-1.30480003	204	252	192
-0.176699996	0.308519989	-1.30550003	204	252	192
-0.176699996	0.309789985	-1.30519998	204	252	192
-0.176699996	0.31103	-1.30490005	204	252	192
-0.176630005	0.312020004	-1.30359995	204	252	192
-0.176499993	0.312759995	-1.30139995	204	252	192
-0.17859	0.311529994	-1.30149996	204	252	192
-0.17859	0.310299993	-1.30180001	204	252	192
-0.178790003	0.309760004	-1.30499995	204	252	192
-0.178790003	0.308490008	-1.3053	204	252	192
-0.178719997	0.30697	-1.30470002	204	252	192
-0.174669996	0.308780015	-1.30659997	204	252	192
-0.174669996	0.310059994	-1.30630004	204	252	192
-0.174539998	0.313259989	-1.30350006	204	252	192
-0.174480006	0.314229995	-1.30219996	204	252	192
-0.172389999	0.314260006	-1.30229998	204	252	192
-0.172509998	0.313520014	-1.3046	204	252	192
-0.170420006	0.313549995	-1.30470002	204	252	192
-0.170420006	0.31476	-1.30439997	204	252	192
-0.170300007	0.315510005	-1.30219996	204	252	192
-0.170359999	0.316949993	-1.30280006	204	252	192
-0.170359999	0.318109989	-1.30250001	204	252	192
-0.172450006	0.318080008	-1.30239999	204	252	192
-0.172319993	0.316439986	-1.30079997	204	252	192
-0.174539998	0.316879988	-1.30260003	204	252	192
-0.174669996	0.318529993	-1.30420005	204	252	192
-0.174600005	0.319440007	-1.30299997	204	252	192
-0.174600005	0.320560008	-1.30270004	204	252	192
-0.174539998	0.321429998	-1.30149996	204	252	192
-0.174539998	0.322530001	-1.30120003	204	252	192
-0.172450006	0.322560012	-1.30130005	204	252	192
-0.172319993	0.323190004	-1.29910004	204	252	192
-0.17441	0.323159993	-1.29900002	204	252	192
-0.17441	0.325419992	-1.29840004	204	252	192
-0.174349993	0.326200008	-1.29719996	204	252	192
-0.174280003	0.323830009	-1.2967	204	252	192
-0.172260001	0.320740014	-1.29869998	204	252	192
-0.170169994	0.320769995	-1.29879999	204	252	192
-0.170049995	0.319189996	-1.29709995	204	252	192
-0.172130004	0.319160014	-1.29700005	204	252	192
-0.170230001	0.318789989	-1.3003	204	252	192
-0.168149993	0.31882	-1.30040002	204	252	192
-0.168029994	0.319460005	-1.29820001	204	252	192
-0.167909995	0.320089996	-1.296	204	252	192
-0.165830001	0.321209997	-1.29589999	204	252	192
-0.165710002	0.319640011	-1.29419994	204	252	192
-0.165769994	0.318769991	-1.29540002	204	252	192
-0.163629994	0.319660008	-1.29429996	204	252	192
-0.163690001	0.32100001	-1.29499996	204	252	192
-0.163800001	0.322589993	-1.2967	204	252	192
-0.161719993	0.321500003	-1.29709995	204	252	192
-0.161770001	0.318430007	-1.29890001	204	252	192
-0.164020002	0.320230007	-1.30139995	204	252	192
-0.166229993	0.319559991	-1.30350006	204	252	192
-0.168200001	0.322380006	-1.30060005	204	252	192
-0.170300007	0.322349995	-1.30050004	204	252	192
-0.170300007	0.323460013	-1.30019999	204	252	192
-0.170230001	0.328480005	-1.29789996	204	252	192
-0.172319993	0.329430014	-1.29750001	204	252	192
-0.172389999	0.328689992	-1.29879999	204	252	192
-0.172199994	0.330000013	-1.29530001	204	252	192
-0.169990003	0.329540014	-1.29349995	204	252	192
-0.165710002	0.329109997	-1.29180002	204	252	192
-0.173889995	0.328489989	-1.28939998	204	252	192
-0.173889995	0.327439994	-1.28970003	204	252	192
-0.157550007	0.326950014	-1.29589999	204	252	192
-0.15546	0.326979995	-1.296	204	252	192
-0.15546	0.325969994	-1.29630005	204	252	192
-0.153380007	0.326000005	-1.29639995	204	252	192
-0.153380007	0.327960014	-1.29589999	204	252	192
-0.151289999	0.327989995	-1.296	204	252	192
-0.151289999	0.327030003	-1.29620004	204	252	192
-0.151250005	0.325780004	-1.29550004	204	252	192
-0.151289999	0.324999988	-1.2967	204	252	192
-0.151380002	0.32438001	-1.29890001	204	252	192
-0.153469995	0.324349999	-1.29890001	204	252	192
-0.153469995	0.325459987	-1.29859996	204	252	192
-0.155560002	0.325430006	-1.29849994	204	252	192
-0.155560002	0.324330002	-1.29879999	204	252	192
-0.15546	0.32269001	-1.29709995	204	252	192
-0.15546	0.321579993	-1.2974	204	252	192
-0.153380007	0.321610004	-1.29750001	204	252	192
-0.153420001	0.320749998	-1.29869998	204	252	192
-0.151339993	0.320769995	-1.29879999	204	252	192
-0.151339993	0.319669992	-1.29910004	204	252	192
-0.151339993	0.321869999	-1.29849994	204	252	192
-0.151289999	0.322739989	-1.29729998	204	252	192
-0.149210006	0.322759986	-1.2974	204	252	192
-0.149289995	0.322129995	-1.29960001	204	252	192
-0.149289995	0.321040004	-1.29990005	204	252	192
-0.149289995	0.319929987	-1.30009997	204	252	192
-0.149340004	0.319050014	-1.30139995	204	252	192
-0.149340004	0.317900002	-1.3017	204	252	192
-0.149289995	0.316500008	-1.301	204	252	192
-0.149289995	0.315299988	-1.30130005	204	252	192
-0.149379998	0.314550012	-1.30350006	204	252	192
-0.151429996	0.315510005	-1.30219996	204	252	192
-0.151519999	0.317180008	-1.30379999	204	252	192
-0.151559994	0.318589985	-1.30449998	204	252	192
-0.153610006	0.31832999	-1.30340004	204	252	192
-0.153659999	0.31972	-1.30410004	204	252	192
-0.155709997	0.318309993	-1.30330002	204	252	192
-0.155709997	0.317140013	-1.30359995	204	252	192
-0.155609995	0.315459996	-1.30200005	204	252	192
-0.155660003	0.314480007	-1.30320001	204	252	192
-0.155709997	0.313510001	-1.30449998	204	252	192
-0.155660003	0.312070012	-1.30379999	204	252	192
-0.155709997	0.311080009	-1.30509996	204	252	192
-0.155750006	0.310070008	-1.30630004	204	252	192
-0.155750006	0.308800012	-1.30659997	204	252	192
-0.155709997	0.307280004	-1.30599999	204	252	192
-0.155709997	0.30599001	-1.30630004	204	252	192
-0.155750006	0.304930001	-1.3075	204	252	192
-0.153659999	0.304949999	-1.30760002	204	252	192
-0.153659999	0.306239992	-1.30729997	204	252	192
-0.153750002	0.307990015	-1.30900002	204	252	192
-0.153659999	0.308820009	-1.30669999	204	252	192
-0.153610006	0.309870005	-1.30550003	204	252	192
-0.153610006	0.311100006	-1.30519998	204	252	192
-0.153610006	0.312330008	-1.30490005	204	252	192
-0.153610006	0.313529998	-1.3046	204	252	192
-0.151519999	0.313549995	-1.30470002	204	252	192
-0.151559994	0.312579989	-1.30589998	204	252	192
-0.151610002	0.311589986	-1.30719995	204	252	192
-0.151559994	0.310119987	-1.30649996	204	252	192
-0.151610002	0.309069991	-1.30780005	204	252	192
-0.151559994	0.307559997	-1.30710006	204	252	192
-0.151649997	0.306719989	-1.30939996	204	252	192
-0.151700005	0.305660009	-1.31070006	204	252	192
-0.149599999	0.305680007	-1.31079996	204	252	192
-0.149550006	0.304179996	-1.31009996	204	252	192
-0.149599999	0.303140014	-1.31130004	204	252	192
-0.149550006	0.301560014	-1.31070006	204	252	192
-0.149550006	0.300139993	-1.31099999	204	252	192
-0.151610002	0.299899995	-1.30990005	204	252	192
-0.151649997	0.298779994	-1.31120002	204	252	192
-0.153750002	0.298759997	-1.31110001	204	252	192
-0.153709993	0.299879998	-1.30980003	204	252	192
-0.153709993	0.301290005	-1.30949998	204	252	192
-0.1558	0.301270008	-1.30939996	204	252	192
-0.1558	0.299860001	-1.30970001	204	252	192
-0.1558	0.298519999	-1.31009996	204	252	192
-0.157949999	0.298709989	-1.31089997	204	252	192
-0.157949999	0.297399998	-1.31120002	204	252	192
-0.157900006	0.295899987	-1.31050003	204	252	192
-0.159940004	0.295650005	-1.30949998	204	252	192
-0.159999996	0.29716	-1.31009996	204	252	192
-0.160099998	0.298909992	-1.3118	204	252	192
-0.159999996	0.299809992	-1.30949998	204	252	192
-0.159999996	0.30122	-1.30920005	204	252	192
-0.159999996	0.302579999	-1.3089	204	252	192
-0.159940004	0.303609997	-1.30760002	204	252	192
-0.159940004	0.304879993	-1.30729997	204	252	192
-0.157849997	0.304910004	-1.30739999	204	252	192
-0.157900006	0.303860009	-1.30869997	204	252	192
-0.157949999	0.302830011	-1.30999994	204	252	192
-0.157900006	0.301250011	-1.30929995	204	252	192
-0.157900006	0.29982999	-1.3096	204	252	192
-0.155849993	0.302850008	-1.31009996	204	252	192
-0.155849993	0.304109991	-1.30980003	204	252	192
-0.153750002	0.304140002	-1.30990005	204	252	192
-0.153799996	0.30309999	-1.31120002	204	252	192
-0.151649997	0.302890003	-1.31029999	204	252	192
-0.151649997	0.301539987	-1.31060004	204	252	192
-0.151559994	0.303710014	-1.30799997	204	252	192
-0.149509996	0.306510001	-1.30850005	204	252	192
-0.149550006	0.308030009	-1.30920005	204	252	192
-0.149470001	0.308869988	-1.30690002	204	252	192
-0.149379998	0.309680015	-1.30470002	204	252	192
-0.149419993	0.311150014	-1.30540001	204	252	192
-0.149470001	0.31261	-1.30599999	204	252	192
-0.147369996	0.312629998	-1.30610001	204	252	192
-0.147369996	0.313829988	-1.30579996	204	252	192
-0.147330001	0.316020012	-1.30429995	204	252	192
-0.147369996	0.317460001	-1.30499995	204	252	192
-0.147290006	0.318159997	-1.30270004	204	252	192
-0.145199999	0.318179995	-1.30280006	204	252	192
-0.145199999	0.317009985	-1.30309999	204	252	192
-0.145199999	0.315809995	-1.30340004	204	252	192
-0.145199999	0.314590007	-1.30369997	204	252	192
-0.143099993	0.314610004	-1.30379999	204	252	192
-0.143099993	0.3134	-1.30410004	204	252	192
-0.143099993	0.31220001	-1.30429995	204	252	192
-0.143099993	0.310970008	-1.3046	204	252	192
-0.143099993	0.309740007	-1.30490005	204	252	192
-0.145199999	0.30972001	-1.30480003	204	252	192
-0.145150006	0.310719997	-1.30359995	204	252	192
-0.145199999	0.312180012	-1.30429995	204	252	192
-0.147330001	0.311170012	-1.30540001	204	252	192
-0.147330001	0.309929997	-1.30569994	204	252	192
-0.147410005	0.309119999	-1.30799997	204	252	192
-0.147369996	0.307599992	-1.30729997	204	252	192
-0.147459999	0.306760013	-1.3096	204	252	192
-0.145400003	0.307009995	-1.31060004	204	252	192
-0.145359993	0.305489987	-1.30990005	204	252	192
-0.145400003	0.304439992	-1.31120002	204	252	192
-0.145359993	0.302949995	-1.31050003	204	252	192
-0.145319998	0.301380008	-1.30990005	204	252	192
-0.147369996	0.301129997	-1.30879998	204	252	192
-0.147369996	0.302480012	-1.30850005	204	252	192
-0.147459999	0.304199994	-1.31019998	204	252	192
-0.147540003	0.305929989	-1.3118	204	252	192
-0.145359993	0.308070004	-1.30929995	204	252	192
-0.145319998	0.309139997	-1.30809999	204	252	192
-0.143289998	0.309619993	-1.31009996	204	252	192
-0.143289998	0.308319986	-1.31040001	204	252	192
-0.143329993	0.307260007	-1.31169999	204	252	192
-0.141190007	0.30704999	-1.31079996	204	252	192
-0.141190007	0.308340013	-1.31050003	204	252	192
-0.139060006	0.308129996	-1.3096	204	252	192
-0.139060006	0.306840003	-1.30990005	204	252	192
-0.139090002	0.30577001	-1.31120002	204	252	192
-0.137020007	0.306010008	-1.31219995	204	252	192
-0.13696	0.306849986	-1.30990005	204	252	192
-0.136920005	0.307920009	-1.30869997	204	252	192
-0.134790003	0.307700008	-1.30780005	204	252	192
-0.134790003	0.306410015	-1.30809999	204	252	192
-0.132760003	0.308180004	-1.30980003	204	252	192
-0.132780001	0.309700012	-1.31040001	204	252	192
-0.130679995	0.309709996	-1.31050003	204	252	192
-0.130679995	0.310990006	-1.31019998	204	252	192
-0.130679995	0.312229991	-1.30990005	204	252	192
-0.130679995	0.313459992	-1.3096	204	252	192
-0.130649999	0.314429998	-1.30830002	204	252	192
-0.130600005	0.315180004	-1.30610001	204	252	192
-0.130600005	0.316399992	-1.30579996	204	252	192
-0.130569994	0.317369998	-1.3046	204	252	192
-0.130569994	0.318529993	-1.30429995	204	252	192
-0.130569994	0.319689989	-1.30400002	204	252	192
-0.130539998	0.320569992	-1.30270004	204	252	192
-0.130600005	0.322160006	-1.30439997	204	252	192
-0.130600005	0.323260009	-1.30410004	204	252	192
-0.130569994	0.324129999	-1.30289996	204	252	192
-0.130569994	0.325289994	-1.30260003	204	252	192
-0.130600005	0.32664001	-1.30330002	204	252	192
-0.130569994	0.32743001	-1.30209994	204	252	192
-0.13267	0.327410012	-1.30200005	204	252	192
-0.132640004	0.328179985	-1.30079997	204	252	192
-0.132609993	0.328889996	-1.29960001	204	252	192
-0.1347	0.32791999	-1.29970002	204	252	192
-0.134729996	0.327149987	-1.301	204	252	192
-0.134790003	0.326609999	-1.30320001	204	252	192
-0.132699996	0.326629996	-1.30320001	204	252	192
-0.132640004	0.325029999	-1.30159998	204	252	192
-0.13267	0.324119985	-1.30280006	204	252	192
-0.132699996	0.323240012	-1.30410004	204	252	192
-0.132699996	0.322140008	-1.30429995	204	252	192
-0.13267	0.320789993	-1.30369997	204	252	192
-0.132640004	0.319440007	-1.30299997	204	252	192
-0.132609993	0.318049997	-1.30229998	204	252	192
-0.1347	0.31803	-1.30219996	204	252	192
-0.134729996	0.31942001	-1.30289996	204	252	192
-0.134760007	0.320769995	-1.30359995	204	252	192
-0.134760007	0.321889997	-1.30330002	204	252	192
-0.136859998	0.321869999	-1.30320001	204	252	192
-0.136820003	0.320520014	-1.30260003	204	252	192
-0.136820003	0.319400012	-1.30280006	204	252	192
-0.136859998	0.318489999	-1.30410004	204	252	192
-0.138950005	0.318470001	-1.30400002	204	252	192
-0.138919994	0.319389999	-1.30280006	204	252	192
-0.138919994	0.320499986	-1.30250001	204	252	192
-0.13888	0.321370006	-1.30120003	204	252	192
-0.138850003	0.322230011	-1.29999995	204	252	192
-0.138850003	0.323350012	-1.29970002	204	252	192
-0.13888	0.324739993	-1.30040002	204	252	192
-0.140939996	0.324479997	-1.29939997	204	252	192
-0.140970007	0.323570013	-1.30060005	204	252	192
-0.140970007	0.322450012	-1.30089998	204	252	192
-0.140939996	0.321119994	-1.30019999	204	252	192
-0.140939996	0.320010006	-1.30050004	204	252	192
-0.141010001	0.319370002	-1.30270004	204	252	192
-0.143059999	0.319110006	-1.30159998	204	252	192
-0.143059999	0.320230007	-1.30139995	204	252	192
-0.143030003	0.321099997	-1.30009997	204	252	192
-0.145109996	0.321079999	-1.29999995	204	252	192
-0.145109996	0.319970012	-1.3003	204	252	192
-0.145109996	0.318859994	-1.30060005	204	252	192
-0.147200003	0.318830013	-1.30050004	204	252	192
-0.147200003	0.319950014	-1.30019999	204	252	192
-0.147290006	0.322629988	-1.30159998	204	252	192
-0.145199999	0.322659999	-1.3017	204	252	192
-0.145239994	0.324010015	-1.30239999	204	252	192
-0.145199999	0.324930012	-1.30110002	204	252	192
-0.145239994	0.326279998	-1.30180001	204	252	192
-0.143179998	0.326539993	-1.30289996	204	252	192
-0.140970007	0.325830013	-1.30009997	204	252	192
-0.143030003	0.32446	-1.29929996	204	252	192
-0.143059999	0.323549986	-1.30050004	204	252	192
-0.143099993	0.322679996	-1.30180001	204	252	192
-0.143140003	0.31843999	-1.3039	204	252	192
-0.143140003	0.317270011	-1.30410004	204	252	192
-0.143099993	0.315829992	-1.30350006	204	252	192
-0.141010001	0.31584999	-1.30350006	204	252	192
-0.141010001	0.314630002	-1.30379999	204	252	192
-0.141010001	0.313419998	-1.30410004	204	252	192
-0.141010001	0.312220007	-1.30439997	204	252	192
-0.141049996	0.31121999	-1.30569994	204	252	192
-0.13899	0.311470002	-1.30669999	204	252	192
-0.139019996	0.310470015	-1.30799997	204	252	192
-0.139060006	0.30941999	-1.30929995	204	252	192
-0.136920005	0.310479999	-1.30809999	204	252	192
-0.136920005	0.311720014	-1.30780005	204	252	192
-0.136859998	0.312489986	-1.30550003	204	252	192
-0.136820003	0.313459992	-1.30429995	204	252	192
-0.136889994	0.315129995	-1.30589998	204	252	192
-0.138950005	0.314880013	-1.30490005	204	252	192
-0.138950005	0.316100001	-1.3046	204	252	192
-0.13899	0.31753999	-1.3053	204	252	192
-0.141080007	0.317519993	-1.30519998	204	252	192
-0.141159996	0.319169998	-1.30690002	204	252	192
-0.136920005	0.317790002	-1.30630004	204	252	192
-0.136989996	0.317059994	-1.30850005	204	252	192
-0.134819999	0.315380007	-1.30700004	204	252	192
-0.134790003	0.313939989	-1.30630004	204	252	192
-0.134819999	0.312970012	-1.3075	204	252	192
-0.134890005	0.31220001	-1.30980003	204	252	192
-0.134890005	0.310959995	-1.31009996	204	252	192
-0.134890005	0.309680015	-1.31040001	204	252	192
-0.132780001	0.312220007	-1.30980003	204	252	192
-0.132780001	0.313450009	-1.30949998	204	252	192
-0.132699996	0.313950002	-1.30630004	204	252	192
-0.132699996	0.315160006	-1.30610001	204	252	192
-0.132699996	0.316379994	-1.30579996	204	252	192
-0.13267	0.31735	-1.30449998	204	252	192
-0.134729996	0.317099988	-1.30350006	204	252	192
-0.134790003	0.31637001	-1.30569994	204	252	192
-0.138919994	0.312240005	-1.30449998	204	252	192
-0.138809994	0.312739998	-1.30130005	204	252	192
-0.136859998	0.308750004	-1.30639994	204	252	192
-0.132699996	0.310279995	-1.30719995	204	252	192
-0.130679995	0.308420002	-1.31079996	204	252	192
-0.12861	0.309949994	-1.31149995	204	252	192
-0.12861	0.311230004	-1.31120002	204	252	192
-0.12861	0.312469989	-1.31089997	204	252	192
-0.128580004	0.313470006	-1.30970001	204	252	192
-0.128580004	0.31468001	-1.30939996	204	252	192
-0.128529996	0.315420002	-1.30710006	204	252	192
-0.128629997	0.317589998	-1.31070006	204	252	192
-0.128629997	0.319970012	-1.31009996	204	252	192
-0.128710002	0.319510013	-1.31330001	204	252	192
-0.128710002	0.321839988	-1.31280005	204	252	192
-0.128549993	0.323749989	-1.30610001	204	252	192
-0.128529996	0.322409987	-1.30540001	204	252	192
-0.1285	0.321060002	-1.30470002	204	252	192
-0.128480002	0.324149996	-1.30289996	204	252	192
-0.128529996	0.327930003	-1.30410004	204	252	192
-0.128549993	0.329180002	-1.30480003	204	252	192
-0.12861	0.330639988	-1.30649996	204	252	192
-0.128629997	0.331880003	-1.30719995	204	252	192
-0.128659993	0.333200008	-1.30789995	204	252	192
-0.128580004	0.327380002	-1.30630004	204	252	192
-0.12861	0.326519996	-1.3075	204	252	192
-0.130539998	0.329149991	-1.30060005	204	252	192
-0.130520001	0.327950001	-1.29990005	204	252	192
-0.130539998	0.331209987	-1.30009997	204	252	192
-0.132550001	0.330460012	-1.29709995	204	252	192
-0.132520005	0.329149991	-1.29639995	204	252	192
-0.134599999	0.329129994	-1.29630005	204	252	192
-0.134599999	0.328139991	-1.29659998	204	252	192
-0.134599999	0.330190003	-1.29610002	204	252	192
-0.136690006	0.330179989	-1.296	204	252	192
-0.136720002	0.329360008	-1.29729998	204	252	192
-0.136790007	0.328860015	-1.29939997	204	252	192
-0.136820003	0.328150004	-1.30069995	204	252	192
-0.136759996	0.326649994	-1.29900002	204	252	192
-0.136720002	0.325379997	-1.29830003	204	252	192
-0.136720002	0.324279994	-1.29849994	204	252	192
-0.136720002	0.323119998	-1.29879999	204	252	192
-0.136790007	0.322490007	-1.301	204	252	192
-0.134670004	0.322259992	-1.30009997	204	252	192
-0.134670004	0.323379993	-1.29990005	204	252	192
-0.1347	0.324779987	-1.30050004	204	252	192
-0.13899	0.326579988	-1.30299997	204	252	192
-0.138779998	0.326139987	-1.29700005	204	252	192
-0.138779998	0.327149987	-1.2967	204	252	192
-0.138779998	0.328110009	-1.29649997	204	252	192
-0.138740003	0.328850001	-1.29519999	204	252	192
-0.138740003	0.32991001	-1.29499996	204	252	192
-0.140860006	0.330139995	-1.29589999	204	252	192
-0.140860006	0.329079986	-1.29610002	204	252	192
-0.140860006	0.328090012	-1.29639995	204	252	192
-0.140860006	0.32712999	-1.29659998	204	252	192
-0.140829995	0.325879991	-1.29589999	204	252	192
-0.142910004	0.326869994	-1.29560006	204	252	192
-0.142949998	0.328070015	-1.29630005	204	252	192
-0.142910004	0.32881999	-1.29509997	204	252	192
-0.142989993	0.330370009	-1.29680002	204	252	192
-0.145030007	0.3301	-1.29569995	204	252	192
-0.145030007	0.329039991	-1.296	204	252	192
-0.144989997	0.327809989	-1.29530001	204	252	192
-0.144989997	0.326849997	-1.29550004	204	252	192
-0.145070001	0.326330006	-1.29770005	204	252	192
-0.142989993	0.326350003	-1.29779994	204	252	192
-0.147159994	0.326310009	-1.29760003	204	252	192
-0.147119999	0.327069998	-1.29639995	204	252	192
-0.147159994	0.328280002	-1.29709995	204	252	192
-0.147200003	0.329510003	-1.29779994	204	252	192
-0.147159994	0.330330014	-1.29659998	204	252	192
-0.149250001	0.330300003	-1.29649997	204	252	192
-0.149250001	0.328249991	-1.29700005	204	252	192
-0.149250001	0.327289999	-1.29729998	204	252	192
-0.149210006	0.32604	-1.29659998	204	252	192
-0.149250001	0.325260013	-1.29779994	204	252	192
-0.149289995	0.324400008	-1.29900002	204	252	192
-0.147159994	0.323029995	-1.29840004	204	252	192
-0.147119999	0.323940009	-1.29719996	204	252	192
-0.147119999	0.325040013	-1.29690003	204	252	192
-0.149159998	0.328750014	-1.29480004	204	252	192
-0.151199996	0.328480005	-1.2938	204	252	192
-0.151250005	0.329789996	-1.29449999	204	252	192
-0.153329998	0.329759985	-1.29439998	204	252	192
-0.153280005	0.328460008	-1.29369998	204	252	192
-0.155410007	0.327690005	-1.29480004	204	252	192
-0.15546	0.328929991	-1.29550004	204	252	192
-0.15546	0.32999	-1.29530001	204	252	192
-0.157649994	0.326440006	-1.29809999	204	252	192
-0.157700002	0.325650007	-1.29929996	204	252	192
-0.157800004	0.322759986	-1.30209994	204	252	192
-0.157800004	0.321660012	-1.30239999	204	252	192
-0.157749996	0.319200009	-1.30200005	204	252	192
-0.155660003	0.319220006	-1.30209994	204	252	192
-0.155560002	0.319860011	-1.29990005	204	252	192
-0.155560002	0.320969999	-1.29960001	204	252	192
-0.153520003	0.320120007	-1.30089998	204	252	192
-0.151429996	0.319029987	-1.30130005	204	252	192
-0.153520003	0.316689998	-1.30180001	204	252	192
-0.153420001	0.315019995	-1.30009997	204	252	192
-0.153380007	0.313569993	-1.29939997	204	252	192
-0.151339993	0.313820004	-1.30050004	204	252	192
-0.147159994	0.313870013	-1.30069995	204	252	192
-0.149550006	0.314280003	-1.30770004	204	252	192
-0.145359993	0.314319998	-1.30789995	204	252	192
-0.141120002	0.310449988	-1.30789995	204	252	192
-0.141269997	0.310090005	-1.31210005	204	252	192
-0.143260002	0.305510014	-1.30999994	204	252	192
-0.143260002	0.304239988	-1.31029999	204	252	192
-0.143260002	0.302969992	-1.31060004	204	252	192
-0.141080007	0.303799987	-1.30850005	204	252	192
-0.141120002	0.305299997	-1.30910003	204	252	192
-0.147410005	0.322250009	-1.30480003	204	252	192
-0.157800004	0.315910012	-1.30379999	204	252	192
-0.157849997	0.31735	-1.30449998	204	252	192
-0.157849997	0.31852001	-1.30420005	204	252	192
-0.159999996	0.317559987	-1.3053	204	252	192
-0.160050005	0.316590011	-1.30659997	204	252	192
-0.160099998	0.315600008	-1.30789995	204	252	192
-0.162149996	0.317770004	-1.30620003	204	252	192
-0.164360002	0.320540011	-1.3075	204	252	192
-0.166060001	0.315329999	-1.30139995	204	252	192
-0.163910002	0.315129995	-1.30060005	204	252	192
-0.163859993	0.313679993	-1.29990005	204	252	192
-0.163859993	0.312469989	-1.30019999	204	252	192
-0.161770001	0.3125	-1.3003	204	252	192
-0.161770001	0.313699991	-1.29999995	204	252	192
-0.161880001	0.315389991	-1.30159998	204	252	192
-0.159789994	0.31299001	-1.30229998	204	252	192
-0.159789994	0.311789989	-1.30260003	204	252	192
-0.161929995	0.312000006	-1.30350006	204	252	192
-0.161929995	0.310770005	-1.30379999	204	252	192
-0.163969994	0.31051001	-1.30270004	204	252	192
-0.163969994	0.309280008	-1.30299997	204	252	192
-0.166060001	0.309249997	-1.30289996	204	252	192
-0.166170001	0.310950011	-1.30449998	204	252	192
-0.166109994	0.311940014	-1.30330002	204	252	192
-0.164020002	0.311969995	-1.30340004	204	252	192
-0.165999994	0.312680006	-1.301	204	252	192
-0.165940002	0.313650012	-1.29980004	204	252	192
-0.161819994	0.309080005	-1.30209994	204	252	192
-0.161770001	0.307579994	-1.30149996	204	252	192
-0.161929995	0.306980014	-1.30470002	204	252	192
-0.159889996	0.307229996	-1.30579996	204	252	192
-0.159840003	0.308290005	-1.30449998	204	252	192
-0.159889996	0.309789985	-1.30519998	204	252	192
-0.159889996	0.31103	-1.30490005	204	252	192
-0.157749996	0.310820013	-1.30400002	204	252	192
-0.157749996	0.312050015	-1.30369997	204	252	192
-0.157749996	0.313250005	-1.30340004	204	252	192
-0.157749996	0.314460009	-1.30309999	204	252	192
-0.157800004	0.309819996	-1.3053	204	252	192
-0.157700002	0.308090001	-1.30359995	204	252	192
-0.157700002	0.305510014	-1.30420005	204	252	192
-0.159789994	0.305489987	-1.30410004	204	252	192
-0.162039995	0.304859996	-1.30719995	204	252	192
-0.162039995	0.30359	-1.3075	204	252	192
-0.161990002	0.302100003	-1.30680001	204	252	192
-0.162039995	0.300969988	-1.30809999	204	252	192
-0.164189994	0.301169991	-1.30900002	204	252	192
-0.164250001	0.302749991	-1.30970001	204	252	192
-0.164130002	0.303559989	-1.30739999	204	252	192
-0.164079994	0.3046	-1.30610001	204	252	192
-0.164130002	0.306120008	-1.30680001	204	252	192
-0.164189994	0.307639986	-1.3075	204	252	192
-0.164130002	0.308699995	-1.30620003	204	252	192
-0.166170001	0.30844	-1.30509996	204	252	192
-0.166229993	0.307379991	-1.30639994	204	252	192
-0.166109994	0.305640012	-1.30480003	204	252	192
-0.162149996	0.306600004	-1.3089	204	252	192
-0.172389999	0.301739991	-1.3053	204	252	192
-0.172450006	0.300610006	-1.30659997	204	252	192
-0.172639996	0.299870014	-1.30980003	204	252	192
-0.174730003	0.299840003	-1.30970001	204	252	192
-0.176760003	0.299589992	-1.30859995	204	252	192
-0.176960006	0.298909992	-1.3118	204	252	192
-0.179130003	0.299100012	-1.31260002	204	252	192
-0.174930006	0.299160004	-1.31289995	204	252	192
-0.172759995	0.298970014	-1.31210005	204	252	192
-0.172759995	0.297659993	-1.31239998	204	252	192
-0.170660004	0.297690004	-1.3125	204	252	192
-0.170660004	0.298999995	-1.31219995	204	252	192
-0.168500006	0.298810005	-1.31130004	204	252	192
-0.168559998	0.297719985	-1.31260002	204	252	192
-0.168439999	0.29598999	-1.31089997	204	252	192
-0.168500006	0.294930011	-1.31219995	204	252	192
-0.168500006	0.29361999	-1.3125	204	252	192
-0.164409995	0.292780012	-1.31500006	204	252	192
-0.166060001	0.293650001	-1.30649996	204	252	192
-0.174860001	0.287129998	-1.31459999	204	252	192
-0.177100003	0.287530005	-1.31640005	204	252	192
-0.177159995	0.289079994	-1.31710005	204	252	192
-0.17723	0.290619999	-1.31770003	204	252	192
-0.179269999	0.290380001	-1.31659997	204	252	192
-0.179130003	0.288619995	-1.31500006	204	252	192
-0.179199994	0.287499994	-1.31620002	204	252	192
-0.179340005	0.286630005	-1.31850004	204	252	192
-0.179269999	0.285129994	-1.31780005	204	252	192
-0.17723	0.286659986	-1.31860006	204	252	192
-0.181160003	0.292329997	-1.31299996	204	252	192
-0.181370005	0.294310004	-1.31560004	204	252	192
-0.176630005	0.293940008	-1.30780005	204	252	192
-0.174349993	0.310140014	-1.30110002	204	252	192
-0.174219996	0.310889989	-1.29890001	204	252	192
-0.176229998	0.313030005	-1.29719996	204	252	192
-0.176170006	0.314009994	-1.29589999	204	252	192
-0.176100001	0.316130012	-1.29439998	204	252	192
-0.175899997	0.317660004	-1.29089999	204	252	192
-0.171759993	0.316619992	-1.29149997	204	252	192
-0.172010005	0.314069986	-1.29620004	204	252	192
-0.174219996	0.314509988	-1.29799998	204	252	192
-0.176430002	0.316139996	-1.29949999	204	252	192
-0.178379998	0.314440012	-1.29770005	204	252	192
-0.180539995	0.317000002	-1.29799998	204	252	192
-0.180669993	0.316309988	-1.30019999	204	252	192
-0.184780002	0.317169994	-1.29869998	204	252	192
-0.184630007	0.31784001	-1.29649997	204	252	192
-0.186790004	0.318040013	-1.29729998	204	252	192
-0.188869998	0.318010002	-1.29709995	204	252	192
