-0.642759979	-0.554470003	-1.42330003	112	91	24
-0.642759979	-0.555970013	-1.42270005	112	91	24
-0.642030001	-0.556739986	-1.42040002	112	91	24
-0.641659975	-0.557749987	-1.41900003	112	91	24
-0.644079983	-0.557399988	-1.4181	112	91	24
-0.645749986	-0.557730019	-1.41489995	112	91	24
-0.645009995	-0.558470011	-1.41260004	112	91	24
-0.644640028	-0.55953002	-1.41120005	112	91	24
-0.644270003	-0.560599983	-1.40980005	112	91	24
-0.643530011	-0.561320007	-1.40750003	112	91	24
-0.641129971	-0.561670005	-1.40840006	112	91	24
-0.641870022	-0.560949981	-1.41069996	112	91	24
-0.641870022	-0.559539974	-1.41120005	112	91	24
-0.641870022	-0.558130026	-1.41180003	112	91	24
-0.642239988	-0.557060003	-1.41320002	112	91	24
-0.640559971	-0.558089972	-1.41579998	112	91	24
-0.640929997	-0.559849977	-1.41610003	112	91	24
-0.638520002	-0.560199976	-1.41700006	112	91	24
-0.638880014	-0.55776	-1.41900003	112	91	24
-0.638880014	-0.556410015	-1.41949999	112	91	24
-0.639609993	-0.555630028	-1.42180002	112	91	24
-0.639609993	-0.554139972	-1.4224	112	91	24
-0.636829972	-0.554139972	-1.4224	112	91	24
-0.63647002	-0.555299997	-1.421	112	91	24
-0.635739982	-0.55607003	-1.41869998	112	91	24
-0.636110008	-0.55776	-1.41900003	112	91	24
-0.63538003	-0.559859991	-1.41620004	112	91	24
-0.635020018	-0.560930014	-1.41470003	112	91	24
-0.637430012	-0.560580015	-1.41390002	112	91	24
-0.639829993	-0.560239971	-1.41299999	112	91	24
-0.639100015	-0.560959995	-1.41069996	112	91	24
-0.636330009	-0.560970008	-1.41069996	112	91	24
-0.636699975	-0.562720001	-1.41100001	112	91	24
-0.63319999	-0.56062001	-1.40989995	112	91	24
-0.632839978	-0.561689973	-1.40840006	112	91	24
-0.630439997	-0.562030017	-1.40929997	112	91	24
-0.630800009	-0.560970008	-1.41069996	112	91	24
-0.631519973	-0.560249984	-1.41299999	112	91	24
-0.632250011	-0.559520006	-1.41530001	112	91	24
-0.631889999	-0.55776	-1.41499996	112	91	24
-0.632250011	-0.556739986	-1.41639996	112	91	24
-0.632969975	-0.55607003	-1.41869998	112	91	24
-0.633329988	-0.554960012	-1.42009997	112	91	24
-0.630559981	-0.554960012	-1.42009997	112	91	24
-0.630200028	-0.55607003	-1.41869998	112	91	24
-0.628139973	-0.555299997	-1.421	112	91	24
-0.627789974	-0.553470016	-1.42069995	112	91	24
-0.627789974	-0.552089989	-1.42120004	112	91	24
-0.625370026	-0.55242002	-1.42209995	112	91	24
-0.625370026	-0.553799987	-1.42149997	112	91	24
-0.625370026	-0.555299997	-1.421	112	91	24
-0.622959971	-0.554139972	-1.4224	112	91	24
-0.622959971	-0.552749991	-1.42289996	112	91	24
-0.622959971	-0.551400006	-1.42349994	112	91	24
-0.62331003	-0.550270021	-1.42490005	112	91	24
-0.623669982	-0.549080014	-1.42639995	112	91	24
-0.621249974	-0.549409986	-1.42719996	112	91	24
-0.620890021	-0.550599992	-1.42579997	112	91	24
-0.621249974	-0.552399993	-1.42610002	112	91	24
-0.621599972	-0.554099977	-1.42639995	112	91	24
-0.620890021	-0.554809988	-1.42410004	112	91	24
-0.618120015	-0.554799974	-1.42410004	112	91	24
-0.615350008	-0.55479002	-1.42410004	112	91	24
-0.615350008	-0.55339998	-1.42460001	112	91	24
-0.612580001	-0.552039981	-1.42509997	112	91	24
-0.612230003	-0.553049982	-1.42369998	112	91	24
-0.61154002	-0.553759992	-1.42139995	112	91	24
-0.611190021	-0.554910004	-1.41999996	112	91	24
-0.611190021	-0.556360006	-1.41939998	112	91	24
-0.610490024	-0.557030022	-1.41709995	112	91	24
-0.610490024	-0.558390021	-1.41659999	112	91	24
-0.610490024	-0.559800029	-1.41600001	112	91	24
-0.609790027	-0.560530007	-1.41369998	112	91	24
-0.609089971	-0.561249971	-1.41139996	112	91	24
-0.608399987	-0.561959982	-1.40910006	112	91	24
-0.610450029	-0.561290026	-1.40740001	112	91	24
-0.612489998	-0.560609996	-1.40569997	112	91	24
-0.615239978	-0.562020004	-1.4052	112	91	24
-0.615239978	-0.563419998	-1.40460002	112	91	24
-0.615589976	-0.565119982	-1.40499997	112	91	24
-0.613189995	-0.565460026	-1.40579998	112	91	24
-0.610450029	-0.565450013	-1.40579998	112	91	24
-0.60769999	-0.565429986	-1.40569997	112	91	24
-0.604610026	-0.565060019	-1.40480006	112	91	24
-0.604610026	-0.56230998	-1.4059	112	91	24
-0.60187	-0.562290013	-1.4059	112	91	24
-0.602559984	-0.561580002	-1.40820003	112	91	24
-0.600160003	-0.561909974	-1.40900004	112	91	24
-0.599470019	-0.562619984	-1.40670002	112	91	24
-0.597079992	-0.562940001	-1.40750003	112	91	24
-0.597760022	-0.562229991	-1.40980005	112	91	24
-0.595359981	-0.562550008	-1.41059995	112	91	24
-0.595019996	-0.563610017	-1.40919995	112	91	24
-0.592279971	-0.56358999	-1.40910006	112	91	24
-0.591939986	-0.561829984	-1.40880001	112	91	24
-0.589540005	-0.562150002	-1.40960002	112	91	24
-0.586799979	-0.56212002	-1.4095	112	91	24
-0.586799979	-0.560710013	-1.41009998	112	91	24
-0.587140024	-0.559650004	-1.41149998	112	91	24
-0.58780998	-0.55892998	-1.4138	112	91	24
-0.58780998	-0.557510018	-1.41439998	112	91	24
-0.588479996	-0.556840003	-1.41670001	112	91	24
-0.588810027	-0.555840015	-1.4181	112	91	24
-0.589489996	-0.555069983	-1.42040002	112	91	24
-0.589820027	-0.553919971	-1.42180002	112	91	24
-0.587409973	-0.554229975	-1.42260003	112	91	24
-0.587740004	-0.55607003	-1.42289996	112	91	24
-0.587740004	-0.557529986	-1.4224	112	91	24
-0.584990025	-0.556039989	-1.42289996	112	91	24
-0.584990025	-0.554539979	-1.42340004	112	91	24
-0.585319996	-0.553499997	-1.42490005	112	91	24
-0.585319996	-0.552139997	-1.42540002	112	91	24
-0.588069975	-0.552169979	-1.42550004	112	91	24
-0.588069975	-0.553529978	-1.42490005	112	91	24
-0.591159999	-0.553900003	-1.42589998	112	91	24
-0.591499984	-0.552890003	-1.42729998	112	91	24
-0.591830015	-0.551750004	-1.42879999	112	91	24
-0.592509985	-0.550909996	-1.43110001	112	91	24
-0.59217	-0.549059987	-1.43079996	112	91	24
-0.59217	-0.547550023	-1.43139994	112	91	24
-0.594600022	-0.547240019	-1.43060005	112	91	24
-0.594259977	-0.548409998	-1.42910004	112	91	24
-0.594600022	-0.550260007	-1.42939997	112	91	24
-0.594259977	-0.551440001	-1.42789996	112	91	24
-0.593919992	-0.552569985	-1.42649996	112	91	24
-0.593249977	-0.553250015	-1.42420006	112	91	24
-0.592239976	-0.553610027	-1.421	112	91	24
-0.592239976	-0.555100024	-1.42050004	112	91	24
-0.591899991	-0.556209981	-1.41900003	112	91	24
-0.591560006	-0.557219982	-1.41760004	112	91	24
-0.59088999	-0.557889998	-1.41530001	112	91	24
-0.590210021	-0.558610022	-1.41299999	112	91	24
-0.589540005	-0.559329987	-1.41069996	112	91	24
-0.591939986	-0.559010029	-1.40989995	112	91	24
-0.592620015	-0.558290005	-1.41219997	112	91	24
-0.593289971	-0.557569981	-1.4145	112	91	24
-0.593630016	-0.55655998	-1.41589999	112	91	24
-0.594309986	-0.555899978	-1.41820002	112	91	24
-0.593970001	-0.554099977	-1.41789997	112	91	24
-0.594649971	-0.553290009	-1.42019999	112	91	24
-0.598079979	-0.55400002	-1.42209995	112	91	24
-0.598079979	-0.555499971	-1.42149997	112	91	24
-0.59740001	-0.55625999	-1.41919994	112	91	24
-0.600149989	-0.556289971	-1.41919994	112	91	24
-0.600839972	-0.555519998	-1.42149997	112	91	24
-0.600149989	-0.553340018	-1.42040002	112	91	24
-0.602219999	-0.551299989	-1.41919994	112	91	24
-0.603250027	-0.55369997	-1.42130005	112	91	24
-0.603250027	-0.555199981	-1.42069995	112	91	24
-0.602909982	-0.556309998	-1.41929996	112	91	24
-0.605669975	-0.556330025	-1.41929996	112	91	24
-0.605319977	-0.557340026	-1.41789997	112	91	24
-0.604979992	-0.558350027	-1.41649997	112	91	24
-0.604979992	-0.559769988	-1.41589999	112	91	24
-0.604290009	-0.560490012	-1.41359997	112	91	24
-0.603600025	-0.561209977	-1.41129994	112	91	24
-0.606000006	-0.560890019	-1.41050005	112	91	24
-0.605650008	-0.561950028	-1.40910006	112	91	24
-0.60668999	-0.560169995	-1.41279995	112	91	24
-0.607389987	-0.559440017	-1.41509998	112	91	24
-0.607389987	-0.558030009	-1.41569996	112	91	24
-0.607729971	-0.557009995	-1.41709995	112	91	24
-0.608430028	-0.554889977	-1.41989994	112	91	24
-0.608430028	-0.55339998	-1.42050004	112	91	24
-0.605669975	-0.553380013	-1.42050004	112	91	24
-0.60601002	-0.555220008	-1.42079997	112	91	24
-0.606360018	-0.552680016	-1.42279994	112	91	24
-0.604279995	-0.551989973	-1.42499995	112	91	24
-0.604969978	-0.551190019	-1.42729998	112	91	24
-0.605319977	-0.550010026	-1.42879999	112	91	24
-0.605660021	-0.548839986	-1.43019998	112	91	24
-0.605660021	-0.547330022	-1.43079996	112	91	24
-0.60323	-0.54764998	-1.43159997	112	91	24
-0.60255003	-0.548479974	-1.42929995	112	91	24
-0.599780023	-0.549969971	-1.42869997	112	91	24
-0.599439979	-0.548120022	-1.42840004	112	91	24
-0.597360015	-0.54877001	-1.43009996	112	91	24
-0.597360015	-0.550279975	-1.42949998	112	91	24
-0.596679986	-0.551129997	-1.42709994	112	91	24
-0.596679986	-0.552600026	-1.42659998	112	91	24
-0.596679986	-0.553960025	-1.426	112	91	24
-0.599099994	-0.553640008	-1.42519999	112	91	24
-0.598420024	-0.551599979	-1.42400002	112	91	24
-0.599099994	-0.550809979	-1.42630005	112	91	24
-0.602209985	-0.551169991	-1.42729998	112	91	24
-0.602209985	-0.552640021	-1.4267	112	91	24
-0.601520002	-0.553319991	-1.42439997	112	91	24
-0.598039985	-0.547940016	-1.43239999	112	91	24
-0.598380029	-0.546949983	-1.43379998	112	91	24
-0.598710001	-0.545970023	-1.43519998	112	91	24
-0.598039985	-0.54381001	-1.43400002	112	91	24
-0.595610023	-0.544120014	-1.43480003	112	91	24
-0.595939994	-0.545939982	-1.43509996	112	91	24
-0.595610023	-0.546920002	-1.43369997	112	91	24
-0.593509972	-0.54756999	-1.43540001	112	91	24
-0.593180001	-0.545920014	-1.43499994	112	91	24
-0.593509972	-0.544770002	-1.43649995	112	91	24
-0.593850017	-0.543569982	-1.43789995	112	91	24
-0.596620023	-0.543590009	-1.43799996	112	91	24
-0.590740025	-0.544740021	-1.43640006	112	91	24
-0.590409994	-0.542869985	-1.43610001	112	91	24
-0.587979972	-0.543179989	-1.43690002	112	91	24
-0.587650001	-0.544369996	-1.43540001	112	91	24
-0.587650001	-0.545859993	-1.43490005	112	91	24
-0.587979972	-0.547510028	-1.43529999	112	91	24
-0.587310016	-0.548169971	-1.43299997	112	91	24
-0.586979985	-0.54934001	-1.43149996	112	91	24
-0.587310016	-0.551190019	-1.43180001	112	91	24
-0.586650014	-0.552030027	-1.42949998	112	91	24
-0.583890021	-0.551999986	-1.42939997	112	91	24
-0.583890021	-0.550469995	-1.42999995	112	91	24
-0.584550023	-0.54964	-1.43229997	112	91	24
-0.584879994	-0.54847002	-1.43379998	112	91	24
-0.585539997	-0.547810018	-1.43610001	112	91	24
-0.585210025	-0.546159983	-1.43570006	112	91	24
-0.585210025	-0.544679999	-1.43620002	112	91	24
-0.585539997	-0.543479979	-1.43770003	112	91	24
-0.583109975	-0.543780029	-1.43850005	112	91	24
-0.583440006	-0.545650005	-1.43879998	112	91	24
-0.582780004	-0.546469986	-1.43649995	112	91	24
-0.582449973	-0.547439992	-1.43509996	112	91	24
-0.582449973	-0.548780024	-1.4346	112	91	24
-0.58002001	-0.549080014	-1.43540001	112	91	24
-0.58002001	-0.547739983	-1.43589997	112	91	24
-0.580340028	-0.546769977	-1.43729997	112	91	24
-0.580340028	-0.54527998	-1.43780005	112	91	24
-0.580340028	-0.543749988	-1.43840003	112	91	24
-0.58099997	-0.543009996	-1.44070005	112	91	24
-0.578559995	-0.543309987	-1.44149995	112	91	24
-0.577910006	-0.544040024	-1.43920004	112	91	24
-0.577579975	-0.545239985	-1.43770003	112	91	24
-0.577579975	-0.546729982	-1.43719995	112	91	24
-0.577579975	-0.548039973	-1.43669999	112	91	24
-0.577260017	-0.54904002	-1.43529999	112	91	24
-0.574169993	-0.54865998	-1.43429995	112	91	24
-0.573199987	-0.54914999	-1.43110001	112	91	24
-0.575630009	-0.548860013	-1.4303	112	91	24
-0.575630009	-0.550360024	-1.42970002	112	91	24
-0.575299978	-0.551549971	-1.42820001	112	91	24
-0.578050017	-0.550059974	-1.4289	112	91	24
-0.57871002	-0.552269995	-1.43009996	112	91	24
-0.57871002	-0.553740025	-1.42949998	112	91	24
-0.581459999	-0.553780019	-1.4296	112	91	24
-0.581130028	-0.551959991	-1.42929995	112	91	24
-0.581130028	-0.550440013	-1.42990005	112	91	24
-0.581459999	-0.549269974	-1.43139994	112	91	24
-0.579039991	-0.549570024	-1.43210006	112	91	24
-0.58355999	-0.553129971	-1.42789996	112	91	24
-0.582570016	-0.553470016	-1.42480004	112	91	24
-0.582239985	-0.554509997	-1.42340004	112	91	24
-0.582239985	-0.556010008	-1.42279994	112	91	24
-0.582239985	-0.55746001	-1.42219996	112	91	24
-0.584659994	-0.557150006	-1.42139995	112	91	24
-0.586740017	-0.557850003	-1.41919994	112	91	24
-0.58573997	-0.558170021	-1.41600001	112	91	24
-0.585399985	-0.559239984	-1.41460001	112	91	24
-0.584730029	-0.559960008	-1.41229999	112	91	24
-0.584730029	-0.561370015	-1.41170001	112	91	24
-0.584399998	-0.562430024	-1.41030002	112	91	24
-0.581669986	-0.562399983	-1.4102	112	91	24
-0.582000017	-0.561339974	-1.41159999	112	91	24
-0.582000017	-0.559930027	-1.41219997	112	91	24
-0.582660019	-0.559210002	-1.4145	112	91	24
-0.582660019	-0.557789981	-1.41509998	112	91	24
-0.583329976	-0.557120025	-1.4174	112	91	24
-0.580919981	-0.557430029	-1.41820002	112	91	24
-0.580250025	-0.558099985	-1.41589999	112	91	24
-0.579919994	-0.559170008	-1.41439998	112	91	24
-0.577189982	-0.559130013	-1.41429996	112	91	24
-0.577520013	-0.558070004	-1.41579998	112	91	24
-0.577849984	-0.55704999	-1.41719997	112	91	24
-0.578499973	-0.556389987	-1.41949999	112	91	24
-0.575760007	-0.556349993	-1.41939998	112	91	24
-0.575110018	-0.557009995	-1.41709995	112	91	24
-0.575110018	-0.558369994	-1.41649997	112	91	24
-0.575110018	-0.559790015	-1.41600001	112	91	24
-0.572700024	-0.560090005	-1.41680002	112	91	24
-0.572369993	-0.558329999	-1.41639996	112	91	24
-0.572700024	-0.557309985	-1.41789997	112	91	24
-0.573350012	-0.556659997	-1.42009997	112	91	24
-0.574000001	-0.555890024	-1.42250001	112	91	24
-0.574000001	-0.554390013	-1.42309999	112	91	24
-0.574000001	-0.553009987	-1.42359996	112	91	24
-0.574329972	-0.551999986	-1.42499995	112	91	24
-0.576740026	-0.553049982	-1.42369998	112	91	24
-0.577069998	-0.554780006	-1.42400002	112	91	24
-0.576740026	-0.555930018	-1.42260003	112	91	24
-0.579159975	-0.554130018	-1.4224	112	91	24
-0.579819977	-0.556309998	-1.42359996	112	91	24
-0.580150008	-0.553770006	-1.42560005	112	91	24
-0.570609987	-0.555159986	-1.42060006	112	91	24
-0.567550004	-0.554769993	-1.41960001	112	91	24
-0.567550004	-0.556219995	-1.41900003	112	91	24
-0.567229986	-0.557229996	-1.41760004	112	91	24
-0.566910028	-0.558239996	-1.41620004	112	91	24
-0.567229986	-0.560010016	-1.41649997	112	91	24
-0.569639981	-0.559700012	-1.41579998	112	91	24
-0.569639981	-0.561119974	-1.4152	112	91	24
-0.572369993	-0.561160028	-1.41530001	112	91	24
-0.574129999	-0.560159981	-1.41279995	112	91	24
-0.575869977	-0.559149981	-1.41030002	112	91	24
-0.578599989	-0.559189975	-1.41040003	112	91	24
-0.577939987	-0.559909999	-1.40799999	112	91	24
-0.575869977	-0.561969995	-1.40910006	112	91	24
-0.575540006	-0.563030005	-1.40769994	112	91	24
-0.574890018	-0.563719988	-1.40540004	112	91	24
-0.572489977	-0.564029992	-1.40620005	112	91	24
-0.572820008	-0.56299001	-1.40760005	112	91	24
-0.572820008	-0.561580002	-1.40820003	112	91	24
-0.572489977	-0.559819996	-1.40779996	112	91	24
-0.574890018	-0.559520006	-1.40709996	112	91	24
-0.570089996	-0.56013	-1.40859997	112	91	24
-0.568019986	-0.560779989	-1.41030002	112	91	24
-0.565289974	-0.560739994	-1.41009998	112	91	24
-0.564649999	-0.561450005	-1.40779996	112	91	24
-0.564649999	-0.562849998	-1.4073	112	91	24
-0.562250018	-0.563149989	-1.40799999	112	91	24
-0.562250018	-0.561749995	-1.40859997	112	91	24
-0.562889993	-0.561039984	-1.4109	112	91	24
-0.563210011	-0.559979975	-1.41229999	112	91	24
-0.560490012	-0.559930027	-1.41219997	112	91	24
-0.557770014	-0.559870005	-1.41209996	112	91	24
-0.554729998	-0.559469998	-1.41110003	112	91	24
-0.554419994	-0.560530007	-1.40960002	112	91	24
-0.554099977	-0.561590016	-1.40820003	112	91	24
-0.553789973	-0.562640011	-1.40670002	112	91	24
-0.553789973	-0.564040005	-1.40620005	112	91	24
-0.553789973	-0.565389991	-1.40559995	112	91	24
-0.554099977	-0.567110002	-1.40600002	112	91	24
-0.55618	-0.56645	-1.40429997	112	91	24
-0.555549979	-0.564390004	-1.40310001	112	91	24
-0.55618	-0.563740015	-1.40540004	112	91	24
-0.55618	-0.562349975	-1.40600002	112	91	24
-0.556500018	-0.561290026	-1.40740001	112	91	24
-0.556819975	-0.560230017	-1.40890002	112	91	24
-0.559210002	-0.559939981	-1.40810001	112	91	24
-0.558899999	-0.560989976	-1.40670002	112	91	24
-0.558899999	-0.562399983	-1.40610003	112	91	24
-0.558899999	-0.563790023	-1.40559995	112	91	24
-0.559210002	-0.565500021	-1.4059	112	91	24
-0.561290026	-0.564849973	-1.40429997	112	91	24
-0.561609983	-0.563849986	-1.40569997	112	91	24
-0.564010024	-0.563539982	-1.40489995	112	91	24
-0.563679993	-0.564549983	-1.40349996	112	91	24
-0.565750003	-0.56388998	-1.40190005	112	91	24
-0.565429986	-0.564890027	-1.40050006	112	91	24
-0.565429986	-0.566269994	-1.39989996	112	91	24
-0.563040018	-0.566579998	-1.40069997	112	91	24
-0.563359976	-0.568319976	-1.40100002	112	91	24
-0.560970008	-0.56862998	-1.40170002	112	91	24
-0.560649991	-0.566879988	-1.40139997	112	91	24
-0.560649991	-0.565500021	-1.40199995	112	91	24
-0.558260024	-0.565800011	-1.40269995	112	91	24
-0.557940006	-0.566829979	-1.40129995	112	91	24
-0.555230021	-0.566770017	-1.40110004	112	91	24
-0.552519977	-0.566720009	-1.40100002	112	91	24
-0.549820006	-0.56528002	-1.40139997	112	91	24
-0.55013001	-0.56427002	-1.40279996	112	91	24
-0.548370004	-0.56528002	-1.40530002	112	91	24
-0.546280026	-0.56457001	-1.40750003	112	91	24
-0.545970023	-0.562820017	-1.40719998	112	91	24
-0.545970023	-0.56141001	-1.40769994	112	91	24
-0.543879986	-0.562049985	-1.40929997	112	91	24
-0.54418999	-0.56099999	-1.41079998	112	91	24
-0.544499993	-0.559939981	-1.41219997	112	91	24
-0.546899974	-0.559650004	-1.41149998	112	91	24
-0.546899974	-0.561060011	-1.4109	112	91	24
-0.548990011	-0.561819971	-1.40880001	112	91	24
-0.548990011	-0.563229978	-1.40820003	112	91	24
-0.549300015	-0.56497997	-1.40849996	112	91	24
-0.551699996	-0.564689994	-1.40779996	112	91	24
-0.551389992	-0.562940001	-1.40750003	112	91	24
-0.551699996	-0.561879992	-1.40890002	112	91	24
-0.546899974	-0.558239996	-1.41209996	112	91	24
-0.541480005	-0.559520006	-1.41120005	112	91	24
-0.541480005	-0.560930014	-1.41059995	112	91	24
-0.541170001	-0.561990023	-1.40919995	112	91	24
-0.540560007	-0.56269002	-1.40690005	112	91	24
-0.540250003	-0.563730001	-1.40540004	112	91	24
-0.540560007	-0.565439999	-1.40569997	112	91	24
-0.540560007	-0.566799998	-1.4052	112	91	24
-0.538160026	-0.565729976	-1.40649998	112	91	24
-0.538160026	-0.564369977	-1.40699995	112	91	24
-0.537859976	-0.562619984	-1.40670002	112	91	24
-0.537859976	-0.56121999	-1.40719998	112	91	24
-0.535459995	-0.56291002	-1.40740001	112	91	24
-0.535759985	-0.564660013	-1.40769994	112	91	24
-0.536069989	-0.562210023	-1.40970004	112	91	24
-0.536369979	-0.561150014	-1.41120005	112	91	24
-0.536369979	-0.559740007	-1.41170001	112	91	24
-0.536369979	-0.558329999	-1.41229999	112	91	24
-0.536979973	-0.557609975	-1.41460001	112	91	24
-0.537280023	-0.556599975	-1.41600001	112	91	24
-0.537890017	-0.555949986	-1.41830003	112	91	24
-0.534870028	-0.555530012	-1.41729999	112	91	24
-0.534269989	-0.556190014	-1.41499996	112	91	24
-0.534269989	-0.557550013	-1.41439998	112	91	24
-0.533659995	-0.558260024	-1.41209996	112	91	24
-0.533060014	-0.558969975	-1.40980005	112	91	24
-0.533659995	-0.561079979	-1.41100001	112	91	24
-0.533659995	-0.562489986	-1.41040003	112	91	24
-0.531260014	-0.562770009	-1.41110003	112	91	24
-0.530659974	-0.560660005	-1.40989995	112	91	24
-0.531260014	-0.559949994	-1.41229999	112	91	24
-0.531859994	-0.559239984	-1.41460001	112	91	24
-0.531859994	-0.557820022	-1.4152	112	91	24
-0.531560004	-0.556110024	-1.41480005	112	91	24
-0.531859994	-0.555119991	-1.41620004	112	91	24
-0.529160023	-0.555040002	-1.41600001	112	91	24
-0.528859973	-0.556039989	-1.41460001	112	91	24
-0.529460013	-0.558099985	-1.41589999	112	91	24
-0.529460013	-0.559520006	-1.41530001	112	91	24
-0.529160023	-0.560580015	-1.41390002	112	91	24
-0.528559983	-0.561290026	-1.41149998	112	91	24
-0.525259972	-0.56050998	-1.40960002	112	91	24
-0.524959981	-0.561559975	-1.40810001	112	91	24
-0.524670005	-0.562609971	-1.40670002	112	91	24
-0.524370015	-0.563650012	-1.4052	112	91	24
-0.524070024	-0.564649999	-1.40380001	112	91	24
-0.521679997	-0.564930022	-1.40450001	112	91	24
-0.521679997	-0.563579977	-1.40499997	112	91	24
-0.521380007	-0.561829984	-1.40470004	112	91	24
-0.526170015	-0.564019978	-1.40219998	112	91	24
-0.526759982	-0.563380003	-1.40450001	112	91	24
-0.527360022	-0.56269002	-1.40690005	112	91	24
-0.527360022	-0.561280012	-1.40740001	112	91	24
-0.530359983	-0.563120008	-1.40789998	112	91	24
-0.532760024	-0.562839985	-1.40719998	112	91	24
-0.532459974	-0.563880026	-1.40579998	112	91	24
-0.53184998	-0.564520001	-1.40349996	112	91	24
-0.529160023	-0.564450026	-1.40330005	112	91	24
-0.529460013	-0.563449979	-1.40470004	112	91	24
-0.528249979	-0.564740002	-1.40009999	112	91	24
-0.527949989	-0.565760016	-1.39859998	112	91	24
-0.527949989	-0.567149997	-1.39810002	112	91	24
-0.527350008	-0.567900002	-1.39569998	112	91	24
-0.526750028	-0.568639994	-1.39339995	112	91	24
-0.527050018	-0.570410013	-1.3937	112	91	24
-0.527050018	-0.571820021	-1.39310002	112	91	24
-0.526750028	-0.572839975	-1.39160001	112	91	24
-0.524070024	-0.57277	-1.39139998	112	91	24
-0.524070024	-0.571370006	-1.39199996	112	91	24
-0.521690011	-0.570249975	-1.39330006	112	91	24
-0.522289991	-0.569559991	-1.39559996	112	91	24
-0.522289991	-0.568099976	-1.39619994	112	91	24
-0.524670005	-0.567820013	-1.39549994	112	91	24
-0.524370015	-0.568920016	-1.39400005	112	91	24
-0.524969995	-0.571049988	-1.39520001	112	91	24
-0.525269985	-0.567070007	-1.39789999	112	91	24
-0.522880018	-0.56734997	-1.39859998	112	91	24
-0.523469985	-0.573440015	-1.38909996	112	91	24
-0.525849998	-0.573149979	-1.38839996	112	91	24
-0.528219998	-0.572870016	-1.38769996	112	91	24
-0.530589998	-0.57257998	-1.38699996	112	91	24
-0.533879995	-0.573379993	-1.38900006	112	91	24
-0.534489989	-0.572709978	-1.39129996	112	91	24
-0.534799993	-0.571680009	-1.39269996	112	91	24
-0.534189999	-0.569549978	-1.39160001	112	91	24
-0.531809986	-0.569840014	-1.39230001	112	91	24
-0.531809986	-0.571240008	-1.39170003	112	91	24
-0.531809986	-0.572629988	-1.39110005	112	91	24
-0.529730022	-0.573279977	-1.39269996	112	91	24
-0.529429972	-0.571529984	-1.39240003	112	91	24
-0.528829992	-0.569400012	-1.39119995	112	91	24
-0.530040026	-0.569429994	-1.39530003	112	91	24
-0.529730022	-0.567619979	-1.39499998	112	91	24
-0.53241998	-0.567690015	-1.39520001	112	91	24
-0.532720029	-0.569509983	-1.39549994	112	91	24
-0.532720029	-0.566579998	-1.39670002	112	91	24
-0.533330023	-0.565909982	-1.39900005	112	91	24
-0.536019981	-0.565980017	-1.39919996	112	91	24
-0.535719991	-0.567009985	-1.39769995	112	91	24
-0.535719991	-0.568480015	-1.39709997	112	91	24
-0.535719991	-0.569939971	-1.39649999	112	91	24
-0.53779	-0.57069999	-1.3944	112	91	24
-0.537180007	-0.571389973	-1.39199996	112	91	24
-0.536870003	-0.572409987	-1.39059997	112	91	24
-0.536249995	-0.573090017	-1.38820004	112	91	24
-0.538320005	-0.573870003	-1.38610005	112	91	24
-0.540690005	-0.573580027	-1.38530004	112	91	24
-0.541000009	-0.57249999	-1.38680005	112	91	24
-0.543680012	-0.572570026	-1.38699996	112	91	24
-0.543060005	-0.573279977	-1.38460004	112	91	24
-0.545740008	-0.573339999	-1.38479996	112	91	24
-0.545740008	-0.574720025	-1.38419998	112	91	24
-0.546050012	-0.576330006	-1.38460004	112	91	24
-0.548740029	-0.575150013	-1.38520002	112	91	24
-0.548740029	-0.573769987	-1.3858	112	91	24
-0.551419973	-0.573830009	-1.38600004	112	91	24
-0.551419973	-0.57239002	-1.38660002	112	91	24
-0.552060008	-0.571720004	-1.38890004	112	91	24
-0.552370012	-0.570689976	-1.39030004	112	91	24
-0.553009987	-0.569999993	-1.39269996	112	91	24
-0.553330004	-0.568949997	-1.39409995	112	91	24
-0.553640008	-0.567849994	-1.39559996	112	91	24
-0.553960025	-0.566739976	-1.39709997	112	91	24
-0.551259995	-0.566680014	-1.39690006	112	91	24
-0.550949991	-0.567789972	-1.39540005	112	91	24
-0.550949991	-0.569249988	-1.39489996	112	91	24
-0.550310016	-0.569939971	-1.39250004	112	91	24
-0.547619998	-0.568470001	-1.39289999	112	91	24
-0.547619998	-0.567019999	-1.39349997	112	91	24
-0.54825002	-0.56625998	-1.39590001	112	91	24
-0.545560002	-0.567669988	-1.3951	112	91	24
-0.544929981	-0.568409979	-1.39279997	112	91	24
-0.542550027	-0.570110023	-1.39289999	112	91	24
-0.542240024	-0.571160018	-1.3915	112	91	24
-0.54193002	-0.572189987	-1.38999999	112	91	24
-0.53986001	-0.572849989	-1.39160001	112	91	24
-0.53986001	-0.571449995	-1.39219999	112	91	24
-0.540790021	-0.571129978	-1.39540005	112	91	24
-0.541410029	-0.570429981	-1.39779997	112	91	24
-0.539020002	-0.570729971	-1.39849997	112	91	24
-0.541410029	-0.567499995	-1.39890003	112	91	24
-0.54411	-0.567569971	-1.39909995	112	91	24
-0.544420004	-0.566529989	-1.40059996	112	91	24
-0.544420004	-0.565150023	-1.40110004	112	91	24
-0.545040011	-0.564509988	-1.40339994	112	91	24
-0.542639971	-0.564800024	-1.40409994	112	91	24
-0.542339981	-0.565800011	-1.40269995	112	91	24
-0.542339981	-0.567179978	-1.40219998	112	91	24
-0.539330006	-0.566760004	-1.40110004	112	91	24
-0.537240028	-0.566020012	-1.40330005	112	91	24
-0.534550011	-0.565949976	-1.40310001	112	91	24
-0.534850001	-0.564949989	-1.40450001	112	91	24
-0.542339981	-0.563090026	-1.40380001	112	91	24
-0.543259978	-0.562749982	-1.40699995	112	91	24
-0.547119975	-0.565209985	-1.40129995	112	91	24
-0.546800017	-0.566240013	-1.39979994	112	91	24
-0.546800017	-0.567629993	-1.39929998	112	91	24
-0.549510002	-0.566299975	-1.39999998	112	91	24
-0.543169975	-0.567960024	-1.39590001	112	91	24
-0.543169975	-0.56941998	-1.39530003	112	91	24
-0.540480018	-0.567900002	-1.39569998	112	91	24
-0.53779	-0.567830026	-1.39549994	112	91	24
-0.537479997	-0.565999985	-1.39530003	112	91	24
-0.539250016	-0.573520005	-1.38929999	112	91	24
-0.544619977	-0.570860028	-1.3908	112	91	24
-0.545239985	-0.572979987	-1.39189994	112	91	24
-0.547309995	-0.570930004	-1.39090002	112	91	24
-0.547309995	-0.569519997	-1.3915	112	91	24
-0.549369991	-0.570270002	-1.38929999	112	91	24
-0.550000012	-0.572380006	-1.39049995	112	91	24
-0.549679995	-0.573419988	-1.38900006	112	91	24
-0.546679974	-0.57299	-1.38800001	112	91	24
-0.54825002	-0.573400021	-1.39300001	112	91	24
-0.543990016	-0.56874001	-1.38960004	112	91	24
-0.556020021	-0.567550004	-1.39479995	112	91	24
-0.55539	-0.568289995	-1.39250004	112	91	24
-0.556980014	-0.567149997	-1.39810002	112	91	24
-0.559369981	-0.568319976	-1.39670002	112	91	24
-0.559689999	-0.570129991	-1.39699996	112	91	24
-0.559369981	-0.57119	-1.39559996	112	91	24
-0.559050024	-0.572239995	-1.39409995	112	91	24
-0.561429977	-0.571929991	-1.39339995	112	91	24
-0.561749995	-0.570879996	-1.39479995	112	91	24
-0.562390029	-0.570190012	-1.39709997	112	91	24
-0.562720001	-0.569079995	-1.39859998	112	91	24
-0.564779997	-0.569880009	-1.39639997	112	91	24
-0.567489982	-0.569930017	-1.39649999	112	91	24
-0.56716001	-0.568109989	-1.39619994	112	91	24
-0.569540024	-0.567799985	-1.39549994	112	91	24
-0.569869995	-0.56961	-1.39569998	112	91	24
-0.571929991	-0.568939984	-1.39409995	112	91	24
-0.571929991	-0.567489982	-1.39470005	112	91	24
-0.574639976	-0.567529976	-1.39479995	112	91	24
-0.577019989	-0.567219973	-1.39400005	112	91	24
-0.576680005	-0.568319976	-1.39260006	112	91	24
-0.579060018	-0.568000019	-1.39180005	112	91	24
-0.579389989	-0.566900015	-1.39330006	112	91	24
-0.582440019	-0.568750024	-1.39359999	112	91	24
-0.582780004	-0.57051003	-1.39390004	112	91	24
-0.582109988	-0.571210027	-1.39160001	112	91	24
-0.581430018	-0.571879983	-1.38929999	112	91	24
-0.581430018	-0.573279977	-1.38870001	112	91	24
-0.581430018	-0.574720025	-1.38810003	112	91	24
-0.581430018	-0.576099992	-1.38750005	112	91	24
-0.580760002	-0.576619983	-1.38530004	112	91	24
-0.583130002	-0.576300025	-1.38450003	112	91	24
-0.583809972	-0.575779974	-1.38680005	112	91	24
-0.583809972	-0.574400008	-1.38730001	112	91	24
-0.584140003	-0.573319972	-1.38880002	112	91	24
-0.584140003	-0.571919978	-1.38940001	112	91	24
-0.584479988	-0.570879996	-1.3908	112	91	24
-0.585160017	-0.570190012	-1.39310002	112	91	24
-0.585489988	-0.569140017	-1.39460003	112	91	24
-0.586170018	-0.568390012	-1.39690006	112	91	24
-0.586499989	-0.567269981	-1.39839995	112	91	24
-0.586839974	-0.566240013	-1.39979994	112	91	24
-0.587520003	-0.565559983	-1.40209997	112	91	24
-0.587520003	-0.564209998	-1.40269995	112	91	24
-0.588190019	-0.563549995	-1.40499997	112	91	24
-0.588530004	-0.562510014	-1.40639997	112	91	24
-0.585799992	-0.562479973	-1.40629995	112	91	24
-0.585460007	-0.563520014	-1.40489995	112	91	24
-0.584789991	-0.564170003	-1.40260005	112	91	24
-0.584450006	-0.565180004	-1.40120006	112	91	24
-0.584119976	-0.566209972	-1.39970005	112	91	24
-0.584119976	-0.567600012	-1.39919996	112	91	24
-0.581059992	-0.567210019	-1.39820004	112	91	24
-0.581059992	-0.565819979	-1.39880002	112	91	24
-0.581730008	-0.565140009	-1.40110004	112	91	24
-0.582059979	-0.564140022	-1.40250003	112	91	24
-0.582729995	-0.563489974	-1.40480006	112	91	24
-0.582729995	-0.56208998	-1.40540004	112	91	24
-0.580669999	-0.562759995	-1.40699995	112	91	24
-0.579999983	-0.563449979	-1.40470004	112	91	24
-0.579670012	-0.564450026	-1.40330005	112	91	24
-0.579339981	-0.565460026	-1.40190005	112	91	24
-0.57901001	-0.566489995	-1.40040004	112	91	24
-0.576290011	-0.56645	-1.40030003	112	91	24
-0.576619983	-0.565419972	-1.40180004	112	91	24
-0.576950014	-0.564409971	-1.40320003	112	91	24
-0.577610016	-0.563759983	-1.40550005	112	91	24
-0.573899984	-0.564019978	-1.40219998	112	91	24
-0.573899984	-0.565379977	-1.40170002	112	91	24
-0.573570013	-0.566410005	-1.40020001	112	91	24
-0.572910011	-0.567089975	-1.39789999	112	91	24
-0.570529997	-0.567399979	-1.3987	112	91	24
-0.570850015	-0.566359997	-1.40009999	112	91	24
-0.571179986	-0.565330029	-1.4016	112	91	24
-0.571179986	-0.563979983	-1.40209997	112	91	24
-0.56813997	-0.564939976	-1.40059996	112	91	24
-0.56813997	-0.566320002	-1.39999998	112	91	24
-0.567809999	-0.56734997	-1.39859998	112	91	24
-0.56607002	-0.569850028	-1.40050006	112	91	24
-0.566399992	-0.568729997	-1.40199995	112	91	24
-0.567809999	-0.563229978	-1.40020001	112	91	24
-0.575630009	-0.567130029	-1.398	112	91	24
-0.578010023	-0.566810012	-1.3973	112	91	24
-0.57893002	-0.563769996	-1.40960002	112	91	24
-0.579259992	-0.562709987	-1.41100001	112	91	24
-0.583109975	-0.568000019	-1.39600003	112	91	24
-0.588190019	-0.559350014	-1.4066	112	91	24
-0.590579987	-0.559029996	-1.40579998	112	91	24
-0.590919971	-0.563579977	-1.40499997	112	91	24
-0.590240002	-0.564239979	-1.40279996	112	91	24
-0.589909971	-0.565240026	-1.40129995	112	91	24
-0.589569986	-0.566269994	-1.39989996	112	91	24
-0.589569986	-0.567659974	-1.39929998	112	91	24
-0.588890016	-0.568419993	-1.39699996	112	91	24
-0.588549972	-0.56953001	-1.39549994	112	91	24
-0.587870002	-0.570230007	-1.39320004	112	91	24
-0.59127003	-0.570969999	-1.39499998	112	91	24
-0.59127003	-0.569559991	-1.39559996	112	91	24
-0.591610014	-0.568449974	-1.39709997	112	91	24
-0.592289984	-0.567690015	-1.3994	112	91	24
-0.592289984	-0.566299975	-1.39999998	112	91	24
-0.592980027	-0.565620005	-1.4023	112	91	24
-0.592980027	-0.56427002	-1.40279996	112	91	24
-0.59570998	-0.564289987	-1.40289998	112	91	24
-0.59570998	-0.565649986	-1.4023	112	91	24
-0.595019996	-0.566330016	-1.39999998	112	91	24
-0.594680011	-0.567359984	-1.39859998	112	91	24
-0.593999982	-0.568130016	-1.39629996	112	91	24
-0.593659997	-0.56923002	-1.39479995	112	91	24
-0.593999982	-0.57099998	-1.3951	112	91	24
-0.596379995	-0.570670009	-1.39429998	112	91	24
-0.59604001	-0.568899989	-1.39400005	112	91	24
-0.59604001	-0.567449987	-1.39460003	112	91	24
-0.596379995	-0.566330016	-1.39610004	112	91	24
-0.599110007	-0.566359997	-1.39610004	112	91	24
-0.598420024	-0.567120016	-1.39380002	112	91	24
-0.598760009	-0.56892997	-1.39409995	112	91	24
-0.599110007	-0.570689976	-1.3944	112	91	24
-0.598760009	-0.571739972	-1.39289999	112	91	24
-0.598420024	-0.572780013	-1.3915	112	91	24
-0.59604001	-0.571720004	-1.39279997	112	91	24
-0.600449979	-0.573490024	-1.38919997	112	91	24
-0.599749982	-0.574209988	-1.38689995	112	91	24
-0.599399984	-0.575230002	-1.38540006	112	91	24
-0.602119982	-0.575259984	-1.38549995	112	91	24
-0.602469981	-0.574240029	-1.38689995	112	91	24
-0.602819979	-0.573149979	-1.38839996	112	91	24
-0.603169978	-0.572109997	-1.38979995	112	91	24
-0.606239974	-0.572489977	-1.3908	112	91	24
-0.606239974	-0.573889971	-1.39020002	112	91	24
-0.605539978	-0.574609995	-1.38789999	112	91	24
-0.604839981	-0.575280011	-1.38549995	112	91	24
-0.604139984	-0.575800002	-1.38329995	112	91	24
-0.601429999	-0.575779974	-1.38329995	112	91	24
-0.600730002	-0.576319993	-1.38100004	112	91	24
-0.60273999	-0.575619996	-1.3793	112	91	24
-0.602039993	-0.576309979	-1.37699997	112	91	24
-0.60273999	-0.578450024	-1.37810004	112	91	24
-0.602389991	-0.579599977	-1.37660003	112	91	24
-0.603089988	-0.581759989	-1.37779999	112	91	24
-0.605799973	-0.581780016	-1.37779999	112	91	24
-0.606509984	-0.581070006	-1.38010001	112	91	24
-0.608870029	-0.580730021	-1.3793	112	91	24
-0.60957998	-0.579940021	-1.38170004	112	91	24
-0.608870029	-0.577790022	-1.38049996	112	91	24
-0.608519971	-0.576009989	-1.38030005	112	91	24
-0.606159985	-0.576359987	-1.38110006	112	91	24
-0.605449975	-0.577049971	-1.37880003	112	91	24
-0.605799973	-0.578840017	-1.37899995	112	91	24
-0.610530019	-0.576719999	-1.37800002	112	91	24
-0.611240029	-0.578869998	-1.37909997	112	91	24
-0.611590028	-0.580739975	-1.3793	112	91	24
-0.614310026	-0.580760002	-1.37940001	112	91	24
-0.613600016	-0.57852	-1.37829995	112	91	24
-0.613600016	-0.577099979	-1.37890005	112	91	24
-0.614310026	-0.576399982	-1.38119996	112	91	24
-0.613960028	-0.574790001	-1.38090003	112	91	24
-0.614310026	-0.573909998	-1.3822	112	91	24
-0.615029991	-0.573239982	-1.38450003	112	91	24
-0.612659991	-0.573589981	-1.38540006	112	91	24
-0.61194998	-0.574249983	-1.38310003	112	91	24
-0.611590028	-0.575129986	-1.38170004	112	91	24
-0.611590028	-0.576390028	-1.38119996	112	91	24
-0.60957998	-0.575839996	-1.38339996	112	91	24
-0.60957998	-0.574590027	-1.38390005	112	91	24
-0.610289991	-0.573930025	-1.38619995	112	91	24
-0.607559979	-0.573920012	-1.38619995	112	91	24
-0.607559979	-0.575299978	-1.38559997	112	91	24
-0.607559979	-0.576539993	-1.38510001	112	91	24
-0.61135	-0.573559999	-1.38940001	112	91	24
-0.61135	-0.572160006	-1.38999999	112	91	24
-0.61206001	-0.571479976	-1.39230001	112	91	24
-0.612760007	-0.570779979	-1.39460003	112	91	24
-0.61206001	-0.568669975	-1.39339995	112	91	24
-0.610029995	-0.569360018	-1.3951	112	91	24
-0.610029995	-0.570770025	-1.39450002	112	91	24
-0.607990026	-0.571460009	-1.39619994	112	91	24
-0.60729003	-0.569339991	-1.3951	112	91	24
-0.607640028	-0.568239987	-1.39649999	112	91	24
-0.604910016	-0.568220019	-1.39649999	112	91	24
-0.604560018	-0.569320023	-1.39499998	112	91	24
-0.605260015	-0.571449995	-1.39619994	112	91	24
-0.602869987	-0.571780026	-1.39699996	112	91	24
-0.601830006	-0.572120011	-1.39380002	112	91	24
-0.601830006	-0.573520005	-1.39330006	112	91	24
-0.604210019	-0.57178998	-1.39300001	112	91	24
-0.60729003	-0.572160006	-1.39390004	112	91	24
-0.608619988	-0.570760012	-1.39049995	112	91	24
-0.608619988	-0.572149992	-1.38989997	112	91	24
-0.609319985	-0.574259996	-1.39110005	112	91	24
-0.601490021	-0.568949997	-1.39409995	112	91	24
-0.601830006	-0.567849994	-1.39559996	112	91	24
-0.602530003	-0.567080021	-1.39789999	112	91	24
-0.602869987	-0.566049993	-1.39929998	112	91	24
-0.602869987	-0.564670026	-1.39989996	112	91	24
-0.600830019	-0.565349996	-1.4016	112	91	24
-0.601180017	-0.564339995	-1.403	112	91	24
-0.600830019	-0.562640011	-1.40269995	112	91	24
-0.598439991	-0.562960029	-1.40349996	112	91	24
-0.599129975	-0.565020025	-1.40470004	112	91	24
-0.599129975	-0.566380024	-1.40409994	112	91	24
-0.596050024	-0.56329	-1.40429997	112	91	24
-0.593999982	-0.563960016	-1.40600002	112	91	24
-0.603569984	-0.562659979	-1.40269995	112	91	24
-0.60631001	-0.562680006	-1.40279996	112	91	24
-0.60631001	-0.561280012	-1.40330005	112	91	24
-0.608699977	-0.560949981	-1.40250003	112	91	24
-0.609049976	-0.56269002	-1.40279996	112	91	24
-0.611429989	-0.560970008	-1.40250003	112	91	24
-0.61214	-0.563059986	-1.40369999	112	91	24
-0.611790001	-0.565419972	-1.40180004	112	91	24
-0.611079991	-0.566100001	-1.39950001	112	91	24
-0.610729992	-0.567139983	-1.398	112	91	24
-0.610379994	-0.56825	-1.39660001	112	91	24
-0.613470018	-0.568620026	-1.39750004	112	91	24
-0.614180028	-0.567849994	-1.39979994	112	91	24
-0.613820016	-0.566110015	-1.39950001	112	91	24
-0.613820016	-0.564729989	-1.40009999	112	91	24
-0.616559982	-0.566120028	-1.39950001	112	91	24
-0.616559982	-0.567510009	-1.39900005	112	91	24
-0.616919994	-0.569339991	-1.39919996	112	91	24
-0.618950009	-0.568639994	-1.39750004	112	91	24
-0.618950009	-0.567170024	-1.39810002	112	91	24
-0.618589997	-0.565429986	-1.39779997	112	91	24
-0.619310021	-0.564750016	-1.40009999	112	91	24
-0.621689975	-0.564409971	-1.39929998	112	91	24
-0.622049987	-0.566139996	-1.39960003	112	91	24
-0.621689975	-0.567179978	-1.39820004	112	91	24
-0.622409999	-0.569350004	-1.39929998	112	91	24
-0.624440014	-0.567179978	-1.39820004	112	91	24
-0.624440014	-0.565800011	-1.3987	112	91	24
-0.624080002	-0.564069986	-1.39839995	112	91	24
-0.626460016	-0.563719988	-1.39760005	112	91	24
-0.627550006	-0.56615001	-1.39960003	112	91	24
-0.627550006	-0.56753999	-1.39900005	112	91	24
-0.629930019	-0.565800011	-1.3987	112	91	24
-0.630299985	-0.564769983	-1.40020001	112	91	24
-0.630659997	-0.563759983	-1.4016	112	91	24
-0.630299985	-0.562059999	-1.40129995	112	91	24
-0.627910018	-0.562409997	-1.40209997	112	91	24
-0.625519991	-0.562749982	-1.403	112	91	24
-0.624800026	-0.560670018	-1.40180004	112	91	24
-0.622409999	-0.561010003	-1.40269995	112	91	24
-0.623130023	-0.560299993	-1.40489995	112	91	24
-0.620729983	-0.562039971	-1.4052	112	91	24
-0.621089995	-0.563790023	-1.40550005	112	91	24
-0.621089995	-0.565140009	-1.40499997	112	91	24
-0.618690014	-0.565479994	-1.40579998	112	91	24
-0.618340015	-0.56378001	-1.40550005	112	91	24
-0.617980003	-0.562030017	-1.4052	112	91	24
-0.617980003	-0.560630023	-1.40579998	112	91	24
-0.615589976	-0.560970008	-1.4066	112	91	24
-0.616299987	-0.560249984	-1.40890002	112	91	24
-0.616999984	-0.55953002	-1.41120005	112	91	24
-0.614250004	-0.559520006	-1.41120005	112	91	24
-0.614250004	-0.560930014	-1.41059995	112	91	24
-0.612200022	-0.561609983	-1.41229999	112	91	24
-0.612200022	-0.560199976	-1.41289997	112	91	24
-0.612900019	-0.559469998	-1.4152	112	91	24
-0.612900019	-0.55805999	-1.41579998	112	91	24
-0.613600016	-0.557380021	-1.41799998	112	91	24
-0.614300013	-0.556720018	-1.42030001	112	91	24
-0.614300013	-0.555260003	-1.42089999	112	91	24
-0.616710007	-0.554939985	-1.41999996	112	91	24
-0.617420018	-0.557070017	-1.42120004	112	91	24
-0.616710007	-0.557739973	-1.41890001	112	91	24
-0.61601001	-0.558420002	-1.41670001	112	91	24
-0.615310013	-0.559140027	-1.41439998	112	91	24
-0.618059993	-0.559149981	-1.41439998	112	91	24
-0.618420005	-0.558080018	-1.41579998	112	91	24
-0.621179998	-0.558089972	-1.41579998	112	91	24
-0.621179998	-0.559509993	-1.41530001	112	91	24
-0.623939991	-0.558099985	-1.41579998	112	91	24
-0.623589993	-0.556389987	-1.41550004	112	91	24
-0.62322998	-0.554700017	-1.4152	112	91	24
-0.62154001	-0.555719972	-1.41779995	112	91	24
-0.621890008	-0.557410002	-1.4181	112	91	24
-0.619480014	-0.557749987	-1.41900003	112	91	24
-0.619830012	-0.556739986	-1.42040002	112	91	24
-0.619480014	-0.554939985	-1.42009997	112	91	24
-0.622250021	-0.554949999	-1.42009997	112	91	24
-0.626349986	-0.556400001	-1.41550004	112	91	24
-0.626709998	-0.55539	-1.41690004	112	91	24
-0.626709998	-0.558099985	-1.41589999	112	91	24
-0.62707001	-0.559859991	-1.41620004	112	91	24
-0.624660015	-0.560199976	-1.41700006	112	91	24
-0.629480004	-0.559520006	-1.41530001	112	91	24
-0.629119992	-0.55776	-1.41499996	112	91	24
-0.62875998	-0.556060016	-1.41470003	112	91	24
-0.620119989	-0.559889972	-1.41209996	112	91	24
-0.619400024	-0.560609996	-1.40980005	112	91	24
-0.621450007	-0.56133002	-1.40750003	112	91	24
-0.62252003	-0.560959995	-1.41069996	112	91	24
-0.62252003	-0.559549987	-1.41129994	112	91	24
-0.624920011	-0.559210002	-1.41040003	112	91	24
-0.624920011	-0.56062001	-1.40980005	112	91	24
-0.627680004	-0.56062001	-1.40989995	112	91	24
-0.627319992	-0.558870018	-1.4095	112	91	24
-0.62695998	-0.561339974	-1.40760005	112	91	24
-0.628989995	-0.562059999	-1.40530002	112	91	24
-0.631389976	-0.56171	-1.40439999	112	91	24
-0.628989995	-0.564809978	-1.40419996	112	91	24
-0.626600027	-0.565150023	-1.40499997	112	91	24
-0.623839974	-0.565150023	-1.40499997	112	91	24
-0.623839974	-0.563790023	-1.40559995	112	91	24
-0.633409977	-0.565119982	-1.40100002	112	91	24
-0.634140015	-0.56445998	-1.40330005	112	91	24
-0.636900008	-0.564450026	-1.40330005	112	91	24
-0.636900008	-0.565810025	-1.40269995	112	91	24
-0.636529982	-0.566850007	-1.40129995	112	91	24
-0.635800004	-0.56753999	-1.39900005	112	91	24
-0.635070026	-0.568310022	-1.39670002	112	91	24
-0.634329975	-0.569060028	-1.3944	112	91	24
-0.633970022	-0.570119977	-1.39300001	112	91	24
-0.633970022	-0.571529984	-1.39240003	112	91	24
-0.631219983	-0.570119977	-1.39300001	112	91	24
-0.630490005	-0.570819974	-1.39069998	112	91	24
-0.630490005	-0.572210014	-1.3901	112	91	24
-0.628120005	-0.572570026	-1.39100003	112	91	24
-0.628120005	-0.571179986	-1.3915	112	91	24
-0.628480017	-0.570119977	-1.39300001	112	91	24
-0.628840029	-0.569060028	-1.3944	112	91	24
-0.628840029	-0.567610025	-1.39499998	112	91	24
-0.629209995	-0.566489995	-1.39649999	112	91	24
-0.631950021	-0.566489995	-1.39649999	112	91	24
-0.632319987	-0.568310022	-1.39670002	112	91	24
-0.631950021	-0.56941998	-1.39530003	112	91	24
-0.632679999	-0.565800011	-1.3987	112	91	24
-0.626100004	-0.567610025	-1.39499998	112	91	24
-0.626460016	-0.569410026	-1.39530003	112	91	24
-0.62371999	-0.569410026	-1.39520001	112	91	24
-0.623359978	-0.570469975	-1.39380002	112	91	24
-0.622640014	-0.571169972	-1.3915	112	91	24
-0.622280002	-0.5722	-1.3901	112	91	24
-0.622280002	-0.573599994	-1.38950002	112	91	24
-0.619539976	-0.573599994	-1.38950002	112	91	24
-0.619899988	-0.572549999	-1.39090002	112	91	24
-0.62026	-0.571510017	-1.39240003	112	91	24
-0.620620012	-0.570460021	-1.39380002	112	91	24
-0.621330023	-0.569760025	-1.39610004	112	91	24
-0.623359978	-0.567600012	-1.39499998	112	91	24
-0.617879987	-0.571860015	-1.39320004	112	91	24
-0.617879987	-0.573249996	-1.39260006	112	91	24
-0.615499973	-0.572210014	-1.39400005	112	91	24
-0.614790022	-0.570089996	-1.39289999	112	91	24
-0.615140021	-0.569029987	-1.39429998	112	91	24
-0.617519975	-0.570100009	-1.39289999	112	91	24
-0.616810024	-0.567979991	-1.39180005	112	91	24
-0.614080012	-0.572179973	-1.38999999	112	91	24
-0.61372	-0.573220015	-1.38859999	112	91	24
-0.616450012	-0.573230028	-1.38859999	112	91	24
-0.618470013	-0.57397002	-1.38629997	112	91	24
-0.620840013	-0.573620021	-1.38540006	112	91	24
-0.620840013	-0.574999988	-1.38489997	112	91	24
-0.621200025	-0.576600015	-1.38520002	112	91	24
-0.620480001	-0.577139974	-1.38300002	112	91	24
-0.617749989	-0.575869977	-1.38349998	112	91	24
-0.617389977	-0.57427001	-1.38310003	112	91	24
-0.617389977	-0.576770008	-1.38209999	112	91	24
-0.617389977	-0.578190029	-1.38150001	112	91	24
-0.623929977	-0.57536	-1.3858	112	91	24
-0.623570025	-0.573620021	-1.38549995	112	91	24
-0.626299977	-0.573629975	-1.38549995	112	91	24
-0.624650002	-0.571850002	-1.38919997	112	91	24
-0.625010014	-0.570819974	-1.39069998	112	91	24
-0.62537998	-0.569769979	-1.39209998	112	91	24
-0.625739992	-0.574320018	-1.39119995	112	91	24
-0.627749979	-0.573610008	-1.38950002	112	91	24
-0.637080014	-0.569060028	-1.3944	112	91	24
-0.638189971	-0.568650007	-1.39760005	112	91	24
-0.638549984	-0.567529976	-1.39900005	112	91	24
-0.638920009	-0.566489995	-1.40040004	112	91	24
-0.639289975	-0.565460026	-1.40190005	112	91	24
-0.642050028	-0.565450013	-1.40190005	112	91	24
-0.641680002	-0.566479981	-1.40040004	112	91	24
-0.640940011	-0.567179978	-1.39810002	112	91	24
-0.641309977	-0.569000006	-1.39839995	112	91	24
-0.643700004	-0.565779984	-1.3987	112	91	24
-0.644810021	-0.565439999	-1.40180004	112	91	24
-0.644439995	-0.563740015	-1.40149999	112	91	24
-0.647199988	-0.563730001	-1.40149999	112	91	24
-0.647949994	-0.563069999	-1.40369999	112	91	24
-0.645550013	-0.563419998	-1.40460002	112	91	24
-0.645179987	-0.561680019	-1.40429997	112	91	24
-0.642419994	-0.561689973	-1.40439999	112	91	24
-0.642419994	-0.563090026	-1.40380001	112	91	24
-0.640030026	-0.563440025	-1.40470004	112	91	24
-0.640030026	-0.562049985	-1.4052	112	91	24
-0.637269974	-0.562049985	-1.40530002	112	91	24
-0.637629986	-0.560989976	-1.40670002	112	91	24
-0.635240018	-0.562749982	-1.40699995	112	91	24
-0.635240018	-0.564140022	-1.40639997	112	91	24
-0.637629986	-0.563790023	-1.40559995	112	91	24
-0.640389979	-0.565140009	-1.40499997	112	91	24
-0.641309977	-0.563399971	-1.40069997	112	91	24
-0.649060011	-0.562709987	-1.40690005	112	91	24
-0.652209997	-0.563040018	-1.40769994	112	91	24
-0.652209997	-0.564429998	-1.40719998	112	91	24
-0.652209997	-0.560220003	-1.40880001	112	91	24
-0.652580023	-0.559149981	-1.41030002	112	91	24
-0.649810016	-0.559170008	-1.41030002	112	91	24
-0.649810016	-0.560580015	-1.40970004	112	91	24
-0.650560021	-0.562669992	-1.4109	112	91	24
-0.653330028	-0.562659979	-1.4109	112	91	24
-0.656490028	-0.562979996	-1.41170001	112	91	24
-0.647409976	-0.562340021	-1.41009998	112	91	24
-0.647409976	-0.560930014	-1.41059995	112	91	24
-0.647409976	-0.559520006	-1.41120005	112	91	24
-0.647409976	-0.558109999	-1.41180003	112	91	24
-0.648150027	-0.557380021	-1.41400003	112	91	24
-0.650560021	-0.55844003	-1.41260004	112	91	24
-0.653710008	-0.558770001	-1.41340005	112	91	24
-0.655359983	-0.559140027	-1.4102	112	91	24
-0.658510029	-0.559459984	-1.41100001	112	91	24
-0.654229999	-0.559520006	-1.40709996	112	91	24
-0.616919994	-0.565090001	-1.40100002	112	91	24
-0.608699977	-0.567820013	-1.39970005	112	91	24
-0.608699977	-0.566429973	-1.40030003	112	91	24
-0.608699977	-0.565050006	-1.40090001	112	91	24
-0.605960011	-0.565039992	-1.40079999	112	91	24
-0.605960011	-0.566420019	-1.40030003	112	91	24
-0.605260015	-0.567099988	-1.398	112	91	24
-0.600139976	-0.566020012	-1.39929998	112	91	24
-0.597410023	-0.565999985	-1.39919996	112	91	24
-0.60781002	-0.581070006	-1.37609994	112	91	24
-0.610170007	-0.580720007	-1.37530005	112	91	24
-0.600380003	-0.581740022	-1.37769997	112	91	24
-0.599680007	-0.579580009	-1.37660003	112	91	24
-0.599680007	-0.578069985	-1.37720001	112	91	24
-0.599680007	-0.576650023	-1.37779999	112	91	24
-0.597670019	-0.57735002	-1.37950003	112	91	24
-0.597670019	-0.575929999	-1.38010001	112	91	24
-0.598020017	-0.575039983	-1.38150001	112	91	24
-0.595650017	-0.575370014	-1.38230002	112	91	24
-0.596000016	-0.576990008	-1.38259995	112	91	24
-0.596340001	-0.574850023	-1.38450003	112	91	24
-0.593630016	-0.574819982	-1.38450003	112	91	24
-0.591600001	-0.574129999	-1.38670003	112	91	24
-0.589569986	-0.574819982	-1.38839996	112	91	24
-0.586520016	-0.57299	-1.38800001	112	91	24
-0.586179972	-0.571229994	-1.38769996	112	91	24
-0.586179972	-0.569850028	-1.38829994	112	91	24
-0.588549972	-0.569519997	-1.38750005	112	91	24
-0.588209987	-0.570550025	-1.38610005	112	91	24
-0.591260016	-0.570940018	-1.38699996	112	91	24
-0.593970001	-0.570969999	-1.38709998	112	91	24
-0.594659984	-0.573080003	-1.38820004	112	91	24
-0.595350027	-0.575240016	-1.38940001	112	91	24
-0.597379982	-0.574549973	-1.38769996	112	91	24
-0.596340001	-0.572030008	-1.38569999	112	91	24
-0.592970014	-0.574129999	-1.3908	112	91	24
-0.590929985	-0.574819982	-1.39240003	112	91	24
-0.592289984	-0.57062	-1.39020002	112	91	24
-0.586179972	-0.574069977	-1.3865	112	91	24
-0.586179972	-0.575450003	-1.38600004	112	91	24
-0.586179972	-0.576699972	-1.38549995	112	91	24
-0.588209987	-0.576009989	-1.38380003	112	91	24
-0.588209987	-0.57476002	-1.38429999	112	91	24
-0.590579987	-0.575680017	-1.38300002	112	91	24
-0.589890003	-0.573710024	-1.38180006	112	91	24
-0.589890003	-0.576210022	-1.38069999	112	91	24
-0.587189972	-0.576179981	-1.38069999	112	91	24
-0.587189972	-0.577589989	-1.38010001	112	91	24
-0.587870002	-0.579750001	-1.38119996	112	91	24
-0.585500002	-0.580079973	-1.38199997	112	91	24
-0.584819973	-0.580860019	-1.37960005	112	91	24
