-0.433690012	-0.34957999	-1.79299998	126	12	132
-0.434080005	-0.351779997	-1.79460001	126	12	132
-0.437220007	-0.34819001	-1.79569995	126	12	132
-0.437420011	-0.346520007	-1.79700005	126	12	132
-0.438010007	-0.345200002	-1.80019999	126	12	132
-0.44095999	-0.345090002	-1.79960001	126	12	132
-0.44095999	-0.346960008	-1.79929996	126	12	132
-0.44095999	-0.348820001	-1.79890001	126	12	132
-0.443910003	-0.348710001	-1.79830003	126	12	132
-0.443910003	-0.346850008	-1.79869998	126	12	132
-0.444110006	-0.345160007	-1.79999995	126	12	132
-0.444510013	-0.343769997	-1.80229998	126	12	132
-0.441359997	-0.343699992	-1.80190003	126	12	132
-0.438800007	-0.344179988	-1.80439997	126	12	132
-0.439200014	-0.342799991	-1.80669999	126	12	132
-0.439390004	-0.341210008	-1.80799997	126	12	132
-0.43682	-0.341690004	-1.81050003	126	12	132
-0.436630011	-0.343279988	-1.80920005	126	12	132
-0.436040014	-0.344469994	-1.80599999	126	12	132
-0.435649991	-0.345869988	-1.80369997	126	12	132
-0.432500005	-0.345800012	-1.80330002	126	12	132
-0.429540008	-0.345910013	-1.8039	126	12	132
-0.429349989	-0.347589999	-1.80260003	126	12	132
-0.426389992	-0.3477	-1.80309999	126	12	132
-0.426200002	-0.345649987	-1.80250001	126	12	132
-0.423240006	-0.345750004	-1.80309999	126	12	132
-0.423240006	-0.343989998	-1.80340004	126	12	132
-0.420289993	-0.344090015	-1.80400002	126	12	132
-0.420100003	-0.345670015	-1.80270004	126	12	132
-0.420100003	-0.347550005	-1.80229998	126	12	132
-0.423049986	-0.347440004	-1.80180001	126	12	132
-0.416960001	-0.347469985	-1.80190003	126	12	132
-0.417140007	-0.345779985	-1.80320001	126	12	132
-0.417329997	-0.344199985	-1.80449998	126	12	132
-0.414000005	-0.345699996	-1.80280006	126	12	132
-0.411229998	-0.345990002	-1.80429995	126	12	132
-0.413450003	-0.347009987	-1.79960001	126	12	132
-0.412900001	-0.348309994	-1.79630005	126	12	132
-0.412900001	-0.350160003	-1.79589999	126	12	132
-0.412530005	-0.351610005	-1.79369998	126	12	132
-0.409590006	-0.351709992	-1.79419994	126	12	132
-0.409770012	-0.35007	-1.79550004	126	12	132
-0.409949988	-0.348419994	-1.79680002	126	12	132
-0.410129994	-0.346749991	-1.79820001	126	12	132
-0.407180011	-0.346850008	-1.79869998	126	12	132
-0.407000005	-0.348520011	-1.7974	126	12	132
-0.406819999	-0.35018	-1.79610002	126	12	132
-0.406639993	-0.351819992	-1.79470003	126	12	132
-0.403699994	-0.351920009	-1.79530001	126	12	132
-0.403699994	-0.350089997	-1.79560006	126	12	132
-0.400750011	-0.350190014	-1.79610002	126	12	132
-0.400929987	-0.348540008	-1.79750001	126	12	132
-0.401109993	-0.346870005	-1.79879999	126	12	132
-0.401279986	-0.345180005	-1.80009997	126	12	132
-0.398510009	-0.345470011	-1.80159998	126	12	132
-0.398510009	-0.347339988	-1.80120003	126	12	132
-0.395550013	-0.347440004	-1.80180001	126	12	132
-0.395900011	-0.345939994	-1.80400002	126	12	132
-0.39625001	-0.34454	-1.80630004	126	12	132
-0.39625001	-0.342799991	-1.80669999	126	12	132
-0.399379998	-0.342880011	-1.80710006	126	12	132
-0.39974001	-0.341479987	-1.80939996	126	12	132
-0.402880013	-0.341560006	-1.80980003	126	12	132
-0.402700007	-0.34314999	-1.80850005	126	12	132
-0.405840009	-0.343230009	-1.80900002	126	12	132
-0.405840009	-0.34145999	-1.80929995	126	12	132
-0.406019986	-0.339859992	-1.81060004	126	12	132
-0.408989996	-0.339760005	-1.81009996	126	12	132
-0.40880999	-0.341360003	-1.80879998	126	12	132
-0.408989996	-0.343320012	-1.80939996	126	12	132
-0.408989996	-0.345059991	-1.80910003	126	12	132
-0.411960006	-0.344960004	-1.80850005	126	12	132
-0.411960006	-0.343219995	-1.8089	126	12	132
-0.411769986	-0.341259986	-1.8082	126	12	132
-0.411960006	-0.339659989	-1.80949998	126	12	132
-0.412140012	-0.338050008	-1.81079996	126	12	132
-0.409170002	-0.338149995	-1.81140006	126	12	132
-0.406560004	-0.338609993	-1.81379998	126	12	132
-0.406919986	-0.337179989	-1.8161	126	12	132
-0.407449991	-0.335889995	-1.81930006	126	12	132
-0.407810003	-0.334410012	-1.82159996	126	12	132
-0.404650003	-0.334329993	-1.82120001	126	12	132
-0.404469997	-0.335990012	-1.81990004	126	12	132
-0.404289991	-0.337639987	-1.81860006	126	12	132
-0.404289991	-0.339430004	-1.81819999	126	12	132
-0.401140004	-0.339349985	-1.81780005	126	12	132
-0.400959998	-0.337379992	-1.81719995	126	12	132
-0.401309997	-0.335909992	-1.81939995	126	12	132
-0.401659995	-0.334419996	-1.82169998	126	12	132
-0.398510009	-0.334340006	-1.82130003	126	12	132
-0.398510009	-0.336180001	-1.82089996	126	12	132
-0.398330003	-0.337830007	-1.81959999	126	12	132
-0.397989988	-0.339269996	-1.81729996	126	12	132
-0.394659996	-0.338999987	-1.81589997	126	12	132
-0.391519994	-0.338919997	-1.81550002	126	12	132
-0.388370007	-0.338829994	-1.81500006	126	12	132
-0.388029993	-0.340259999	-1.81270003	126	12	132
-0.387870014	-0.341859996	-1.81140006	126	12	132
-0.384900004	-0.341960013	-1.81190002	126	12	132
-0.385060012	-0.340350002	-1.8132	126	12	132
-0.382090002	-0.340440005	-1.81369996	126	12	132
-0.379119992	-0.340530008	-1.81420004	126	12	132
-0.375820011	-0.340259999	-1.81270003	126	12	132
-0.375660002	-0.341859996	-1.81140006	126	12	132
-0.391000003	-0.341949999	-1.81190002	126	12	132
-0.391000003	-0.340160012	-1.81219995	126	12	132
-0.393970013	-0.340070009	-1.81169999	126	12	132
-0.393970013	-0.341850013	-1.81140006	126	12	132
-0.39379999	-0.34345001	-1.81009996	126	12	132
-0.393460006	-0.344819993	-1.80780005	126	12	132
-0.392940015	-0.346029997	-1.8046	126	12	132
-0.3926	-0.347539991	-1.80229998	126	12	132
-0.389979988	-0.346130013	-1.80509996	126	12	132
-0.390150011	-0.344550014	-1.80639994	126	12	132
-0.390659988	-0.343360007	-1.8096	126	12	132
-0.396939993	-0.34176001	-1.81089997	126	12	132
-0.397289991	-0.340330005	-1.81309998	126	12	132
-0.400440007	-0.340420008	-1.81359994	126	12	132
-0.403759986	-0.340680003	-1.81500006	126	12	132
-0.392030001	-0.337660015	-1.81869996	126	12	132
-0.392030001	-0.335839987	-1.81900001	126	12	132
-0.395179987	-0.335920006	-1.81949997	126	12	132
-0.395179987	-0.337749988	-1.81920004	126	12	132
-0.395689994	-0.334609985	-1.82270002	126	12	132
-0.39587	-0.332980007	-1.824	126	12	132
-0.392879993	-0.33307001	-1.82449996	126	12	132
-0.392540008	-0.334529996	-1.82229996	126	12	132
-0.389889985	-0.334980011	-1.8247	126	12	132
-0.389889985	-0.333160013	-1.82509995	126	12	132
-0.390390009	-0.331889987	-1.8283	126	12	132
-0.387400001	-0.33197999	-1.82879996	126	12	132
-0.393730015	-0.332150012	-1.82969999	126	12	132
-0.396730006	-0.332060009	-1.82920003	126	12	132
-0.399549991	-0.33179	-1.82770002	126	12	132
-0.39903	-0.333059996	-1.82449996	126	12	132
-0.40219	-0.333139986	-1.82490003	126	12	132
-0.405180007	-0.333050013	-1.82439995	126	12	132
-0.408349991	-0.333119988	-1.82480001	126	12	132
-0.411339998	-0.333029985	-1.82430005	126	12	132
-0.414510012	-0.333099991	-1.8247	126	12	132
-0.414869994	-0.331660002	-1.82700002	126	12	132
-0.411879987	-0.331750005	-1.82749999	126	12	132
-0.409060001	-0.332029998	-1.829	126	12	132
-0.405889988	-0.331950009	-1.82860005	126	12	132
-0.406069994	-0.330220014	-1.82990003	126	12	132
-0.405889988	-0.328090012	-1.82930005	126	12	132
-0.402720004	-0.328009993	-1.82889998	126	12	132
-0.403070003	-0.330309987	-1.83050001	126	12	132
-0.402889997	-0.332040012	-1.82910001	126	12	132
-0.400070012	-0.330410004	-1.83099997	126	12	132
-0.400070012	-0.328460008	-1.83130002	126	12	132
-0.397410005	-0.330850005	-1.83340001	126	12	132
-0.397590011	-0.329070002	-1.8348	126	12	132
-0.397929996	-0.327650011	-1.83700001	126	12	132
-0.397929996	-0.325919986	-1.83729994	126	12	132
-0.398099989	-0.324299991	-1.83860004	126	12	132
-0.395090014	-0.324389994	-1.8391	126	12	132
-0.395090014	-0.326180011	-1.83879995	126	12	132
-0.394919991	-0.327740014	-1.83749998	126	12	132
-0.394919991	-0.329510003	-1.83720005	126	12	132
-0.391909987	-0.327829987	-1.83800006	126	12	132
-0.391739994	-0.325929999	-1.83739996	126	12	132
-0.392080009	-0.324479997	-1.83959997	126	12	132
-0.392250001	-0.322840005	-1.84089994	126	12	132
-0.392250001	-0.329950005	-1.83969998	126	12	132
-0.388900012	-0.329690009	-1.83819997	126	12	132
-0.394410014	-0.330940008	-1.83389997	126	12	132
-0.391240001	-0.330859989	-1.83350003	126	12	132
-0.388060004	-0.330779999	-1.83299994	126	12	132
-0.401279986	-0.32438001	-1.8391	126	12	132
-0.401459992	-0.32633999	-1.83969998	126	12	132
-0.401279986	-0.327899992	-1.83840001	126	12	132
-0.404300004	-0.327800006	-1.83790004	126	12	132
-0.404469997	-0.326249987	-1.83920002	126	12	132
-0.404300004	-0.324290007	-1.83850002	126	12	132
-0.407660007	-0.326330006	-1.83959997	126	12	132
-0.407840014	-0.324710011	-1.84089994	126	12	132
-0.407660007	-0.322719991	-1.84029996	126	12	132
-0.405000001	-0.323159993	-1.8427	126	12	132
-0.401980013	-0.323249996	-1.84329998	126	12	132
-0.411029994	-0.322970003	-1.84169996	126	12	132
-0.410849988	-0.324609995	-1.84039998	126	12	132
-0.410490006	-0.326059997	-1.83809996	126	12	132
-0.410490006	-0.327789992	-1.83780003	126	12	132
-0.409960002	-0.329039991	-1.83459997	126	12	132
-0.40959999	-0.330650002	-1.83229995	126	12	132
-0.412779987	-0.330720007	-1.83270001	126	12	132
-0.412779987	-0.328770012	-1.83309996	126	12	132
-0.413139999	-0.327349991	-1.83529997	126	12	132
-0.416150004	-0.327250004	-1.8348	126	12	132
-0.416150004	-0.325520009	-1.83510005	126	12	132
-0.416689992	-0.324250013	-1.83829999	126	12	132
-0.417059988	-0.322780013	-1.84060001	126	12	132
-0.413859993	-0.322699994	-1.84010005	126	12	132
-0.413679987	-0.324349999	-1.83889997	126	12	132
-0.413679987	-0.326139987	-1.83850002	126	12	132
-0.420439988	-0.323020011	-1.84200001	126	12	132
-0.420619994	-0.325010002	-1.84259999	126	12	132
-0.420439988	-0.326629996	-1.84130001	126	12	132
-0.423460007	-0.32653001	-1.84080005	126	12	132
-0.426470011	-0.326429993	-1.84019995	126	12	132
-0.426840007	-0.324979991	-1.84239995	126	12	132
-0.426840007	-0.323159993	-1.84280002	126	12	132
-0.427219987	-0.321559995	-1.84500003	126	12	132
-0.427590013	-0.319900006	-1.84730005	126	12	132
-0.427969992	-0.318430007	-1.84959996	126	12	132
-0.430999994	-0.320140004	-1.84870005	126	12	132
-0.430620015	-0.321799994	-1.84640002	126	12	132
-0.433829993	-0.321869999	-1.84679997	126	12	132
-0.436659992	-0.32159999	-1.84519994	126	12	132
-0.43968001	-0.32148999	-1.84469998	126	12	132
-0.43948999	-0.323260009	-1.8434	126	12	132
-0.439099997	-0.324739993	-1.84109998	126	12	132
-0.436080009	-0.324849993	-1.84169996	126	12	132
-0.436080009	-0.323029995	-1.84200001	126	12	132
-0.433259994	-0.323300004	-1.84360003	126	12	132
-0.432880014	-0.324779987	-1.84130001	126	12	132
-0.429859996	-0.324880004	-1.84189999	126	12	132
-0.430049986	-0.323229998	-1.84319997	126	12	132
-0.429289997	-0.326160014	-1.83870006	126	12	132
-0.428920001	-0.32754001	-1.83640003	126	12	132
-0.432110012	-0.327609986	-1.83679998	126	12	132
-0.432300001	-0.326050013	-1.83809996	126	12	132
-0.435310006	-0.325949997	-1.83749998	126	12	132
-0.434929997	-0.327329993	-1.83529997	126	12	132
-0.434740007	-0.328929991	-1.83399999	126	12	132
-0.437929988	-0.328999996	-1.83440006	126	12	132
-0.437929988	-0.327230006	-1.83469999	126	12	132
-0.438520014	-0.326020002	-1.83790004	126	12	132
-0.441130012	-0.325569987	-1.83539999	126	12	132
-0.441329986	-0.327470005	-1.83599997	126	12	132
-0.441529989	-0.329409987	-1.83669996	126	12	132
-0.44453001	-0.32931	-1.83609998	126	12	132
-0.44453001	-0.32754001	-1.83640003	126	12	132
-0.444139987	-0.325470001	-1.8348	126	12	132
-0.447140008	-0.32536	-1.83420002	126	12	132
-0.447539985	-0.32743001	-1.83580005	126	12	132
-0.447140008	-0.328850001	-1.83350003	126	12	132
-0.450150013	-0.328750014	-1.83290005	126	12	132
-0.450150013	-0.33070001	-1.8326	126	12	132
-0.453150004	-0.33059001	-1.83200002	126	12	132
-0.456149995	-0.330480009	-1.83140004	126	12	132
-0.459149987	-0.330370009	-1.83080006	126	12	132
-0.461939991	-0.330080003	-1.82920003	126	12	132
-0.461730003	-0.331809998	-1.82790005	126	12	132
-0.461309999	-0.33326	-1.82560003	126	12	132
-0.464300007	-0.333149999	-1.82500005	126	12	132
-0.464300007	-0.334960014	-1.82459998	126	12	132
-0.463889986	-0.336450011	-1.82239997	126	12	132
-0.46687001	-0.33634001	-1.82169998	126	12	132
-0.467290014	-0.334850013	-1.824	126	12	132
-0.470279992	-0.334729999	-1.82340002	126	12	132
-0.470499992	-0.333090007	-1.8247	126	12	132
-0.471130013	-0.331809998	-1.82790005	126	12	132
-0.471560001	-0.330260009	-1.83010006	126	12	132
-0.471560001	-0.328310013	-1.83050001	126	12	132
-0.46856001	-0.328420013	-1.83109999	126	12	132
-0.468349993	-0.330199987	-1.82980001	126	12	132
-0.468140006	-0.331930012	-1.82850003	126	12	132
-0.467929989	-0.33355999	-1.82720006	126	12	132
-0.464929998	-0.329970002	-1.82850003	126	12	132
-0.465140015	-0.328189999	-1.82980001	126	12	132
-0.462150007	-0.328299999	-1.83050001	126	12	132
-0.464509994	-0.331519991	-1.82630002	126	12	132
-0.47477001	-0.328359991	-1.83080006	126	12	132
-0.474339992	-0.329970002	-1.82850003	126	12	132
-0.47477001	-0.332219988	-1.83010006	126	12	132
-0.477990001	-0.33228001	-1.83039999	126	12	132
-0.47755	-0.33002001	-1.82879996	126	12	132
-0.477990001	-0.328420013	-1.83109999	126	12	132
-0.480989993	-0.330249995	-1.83010006	126	12	132
-0.473910004	-0.333319992	-1.82589996	126	12	132
-0.476689994	-0.333029985	-1.82430005	126	12	132
-0.476469994	-0.334670007	-1.82299995	126	12	132
-0.476040006	-0.336160004	-1.82079995	126	12	132
-0.478799999	-0.335860014	-1.81920004	126	12	132
-0.47815001	-0.337159991	-1.81599998	126	12	132
-0.475169986	-0.337280005	-1.81659997	126	12	132
-0.474519998	-0.338530004	-1.81340003	126	12	132
-0.477490008	-0.33840999	-1.81270003	126	12	132
-0.477490008	-0.341989994	-1.81210005	126	12	132
-0.474519998	-0.342110008	-1.81270003	126	12	132
-0.480019987	-0.341500014	-1.80949998	126	12	132
-0.479799986	-0.339540005	-1.8089	126	12	132
-0.479369998	-0.342729986	-1.80630004	126	12	132
-0.476190001	-0.342669994	-1.80599999	126	12	132
-0.473219991	-0.342790008	-1.80659997	126	12	132
-0.470479995	-0.343100011	-1.8082	126	12	132
-0.470910013	-0.341690004	-1.81050003	126	12	132
-0.46814999	-0.341989994	-1.81210005	126	12	132
-0.467729986	-0.339839995	-1.81050003	126	12	132
-0.46814999	-0.33840999	-1.81280005	126	12	132
-0.468360007	-0.336800009	-1.81400001	126	12	132
-0.465389997	-0.336919993	-1.81470001	126	12	132
-0.46518001	-0.338530004	-1.81340003	126	12	132
-0.462419987	-0.338829994	-1.81500006	126	12	132
-0.462630004	-0.33721	-1.81630003	126	12	132
-0.459439993	-0.338939995	-1.81560004	126	12	132
-0.458819985	-0.340189993	-1.81239998	126	12	132
-0.458400011	-0.341619998	-1.81009996	126	12	132
-0.457989991	-0.343030006	-1.80789995	126	12	132
-0.457780004	-0.344590008	-1.80659997	126	12	132
-0.457359999	-0.345990002	-1.80429995	126	12	132
-0.454400003	-0.344339997	-1.8053	126	12	132
-0.451440006	-0.344460011	-1.80589998	126	12	132
-0.451240003	-0.34604001	-1.8046	126	12	132
-0.450630009	-0.347359985	-1.80130005	126	12	132
-0.450830013	-0.349409997	-1.80190003	126	12	132
-0.447670013	-0.349339992	-1.80159998	126	12	132
-0.447270006	-0.34709999	-1.79999995	126	12	132
-0.447470009	-0.345420003	-1.80130005	126	12	132
-0.447869986	-0.344020009	-1.80359995	126	12	132
-0.450219989	-0.350690007	-1.79869998	126	12	132
-0.453370005	-0.348919988	-1.79939997	126	12	132
-0.453579992	-0.347240001	-1.80069995	126	12	132
-0.453790009	-0.345550001	-1.80200005	126	12	132
-0.456530005	-0.347119987	-1.80009997	126	12	132
-0.459479988	-0.347000003	-1.79949999	126	12	132
-0.462220013	-0.346700013	-1.79789996	126	12	132
-0.462009996	-0.348369986	-1.79659998	126	12	132
-0.461800009	-0.350030005	-1.79530001	126	12	132
-0.461589992	-0.351660013	-1.79400003	126	12	132
-0.464529991	-0.351539999	-1.79330003	126	12	132
-0.464100003	-0.352959991	-1.79110003	126	12	132
-0.467040002	-0.352829993	-1.79040003	126	12	132
-0.46746999	-0.351419985	-1.79270005	126	12	132
-0.469980001	-0.352710009	-1.78980005	126	12	132
-0.472689986	-0.354169995	-1.78779995	126	12	132
-0.472479999	-0.355749995	-1.78649998	126	12	132
-0.475410014	-0.355619997	-1.7859	126	12	132
-0.476069987	-0.354420006	-1.78910005	126	12	132
-0.479000002	-0.356059998	-1.7881	126	12	132
-0.482160002	-0.35611999	-1.78840005	126	12	132
-0.482160002	-0.352569997	-1.78910005	126	12	132
-0.482829988	-0.351350009	-1.79229999	126	12	132
-0.479889989	-0.351469994	-1.79299998	126	12	132
-0.48032999	-0.350019991	-1.79530001	126	12	132
-0.480769992	-0.348549992	-1.79750001	126	12	132
-0.480769992	-0.346689999	-1.79789996	126	12	132
-0.48416999	-0.346940011	-1.79910004	126	12	132
-0.483940005	-0.348610014	-1.79779994	126	12	132
-0.483500004	-0.350080013	-1.79560006	126	12	132
-0.486669987	-0.350140005	-1.79589999	126	12	132
-0.486889988	-0.348479986	-1.79719996	126	12	132
-0.486889988	-0.346619993	-1.79750001	126	12	132
-0.490069985	-0.348540008	-1.79750001	126	12	132
-0.49052	-0.347050011	-1.79970002	126	12	132
-0.493470013	-0.346920013	-1.79900002	126	12	132
-0.493010014	-0.34841001	-1.79680002	126	12	132
-0.492559999	-0.34988001	-1.79449999	126	12	132
-0.4921	-0.351330012	-1.79219997	126	12	132
-0.494809985	-0.351009995	-1.79059994	126	12	132
-0.497979999	-0.351060003	-1.79089999	126	12	132
-0.498670012	-0.349799991	-1.79410005	126	12	132
-0.499130011	-0.348329991	-1.79639995	126	12	132
-0.495959997	-0.348269999	-1.79610002	126	12	132
-0.495499998	-0.349739999	-1.7938	126	12	132
-0.499830008	-0.34702	-1.79960001	126	12	132
-0.500060022	-0.34533	-1.80089998	126	12	132
-0.496879995	-0.345279992	-1.80060005	126	12	132
-0.496879995	-0.347149998	-1.8003	126	12	132
-0.494379997	-0.345779985	-1.80320001	126	12	132
-0.503250003	-0.345380008	-1.80120003	126	12	132
-0.502550006	-0.346700013	-1.79789996	126	12	132
-0.505959988	-0.346940011	-1.79920006	126	12	132
-0.489389986	-0.35165	-1.79390001	126	12	132
-0.489389986	-0.349819988	-1.79419994	126	12	132
-0.486220002	-0.351590008	-1.79359996	126	12	132
-0.465169996	-0.350279987	-1.79659998	126	12	132
-0.465380013	-0.348619998	-1.79789996	126	12	132
-0.46559	-0.346949995	-1.79920006	126	12	132
-0.468540013	-0.344960004	-1.79890001	126	12	132
-0.468970001	-0.347189993	-1.80050004	126	12	132
-0.468760014	-0.348870009	-1.79920006	126	12	132
-0.468329996	-0.350340009	-1.79690003	126	12	132
-0.471709996	-0.350589991	-1.79820001	126	12	132
-0.472140014	-0.349119991	-1.80040002	126	12	132
-0.472140014	-0.347250015	-1.80079997	126	12	132
-0.471929997	-0.345200002	-1.80019999	126	12	132
-0.472359985	-0.343800008	-1.80250001	126	12	132
-0.475529999	-0.34386	-1.80280006	126	12	132
-0.475089997	-0.345259994	-1.80050004	126	12	132
-0.47488001	-0.346949995	-1.79920006	126	12	132
-0.474660009	-0.348619998	-1.79789996	126	12	132
-0.474220008	-0.350089997	-1.79560006	126	12	132
-0.474220008	-0.351920009	-1.79530001	126	12	132
-0.47378999	-0.353329986	-1.79299998	126	12	132
-0.471060008	-0.351859987	-1.79489994	126	12	132
-0.469190001	-0.343739986	-1.80209994	126	12	132
-0.466450006	-0.345809996	-1.80340004	126	12	132
-0.463699996	-0.34612	-1.80499995	126	12	132
-0.464120001	-0.344720006	-1.80719995	126	12	132
-0.463910013	-0.342790008	-1.80659997	126	12	132
-0.461160004	-0.343089998	-1.8082	126	12	132
-0.461160004	-0.34483999	-1.80789995	126	12	132
-0.46074	-0.346240014	-1.80560005	126	12	132
-0.467090011	-0.344599992	-1.80659997	126	12	132
-0.467510015	-0.343219995	-1.8089	126	12	132
-0.458220005	-0.351410002	-1.79270005	126	12	132
-0.458020002	-0.349400014	-1.79209995	126	12	132
-0.458640009	-0.348120004	-1.79530001	126	12	132
-0.45570001	-0.348239988	-1.79589999	126	12	132
-0.455489993	-0.349889994	-1.79460001	126	12	132
-0.455280006	-0.351529986	-1.79330003	126	12	132
-0.452340007	-0.349819988	-1.79419994	126	12	132
-0.451849997	-0.343080014	-1.80809999	126	12	132
-0.449090004	-0.343380004	-1.80970001	126	12	132
-0.449699998	-0.342150003	-1.81289995	126	12	132
-0.449900001	-0.340539992	-1.81420004	126	12	132
-0.449699998	-0.338569999	-1.81359994	126	12	132
-0.449900001	-0.336959988	-1.81490004	126	12	132
-0.453079998	-0.33702001	-1.81519997	126	12	132
-0.452879995	-0.338640004	-1.81389999	126	12	132
-0.452879995	-0.340429991	-1.81359994	126	12	132
-0.452670008	-0.342029989	-1.81229997	126	12	132
-0.455440015	-0.341740012	-1.81070006	126	12	132
-0.455229998	-0.343329996	-1.80939996	126	12	132
-0.455850005	-0.340310007	-1.81299996	126	12	132
-0.455850005	-0.33851999	-1.81330001	126	12	132
-0.456470013	-0.337269992	-1.81659997	126	12	132
-0.453280002	-0.335379988	-1.81649995	126	12	132
-0.447129995	-0.337249994	-1.81649995	126	12	132
-0.447129995	-0.339040011	-1.8161	126	12	132
-0.447329998	-0.341010004	-1.8168	126	12	132
-0.444150001	-0.337359995	-1.81710005	126	12	132
-0.443749994	-0.338789999	-1.81480002	126	12	132
-0.443749994	-0.340579987	-1.81449997	126	12	132
-0.443159997	-0.341829985	-1.81120002	126	12	132
-0.446530014	-0.342079997	-1.81260002	126	12	132
-0.440380007	-0.340330005	-1.81309998	126	12	132
-0.44058001	-0.338719994	-1.81439996	126	12	132
-0.441170007	-0.337469995	-1.81760001	126	12	132
-0.438199997	-0.337579995	-1.81819999	126	12	132
-0.435409993	-0.337870002	-1.81980002	126	12	132
-0.435600013	-0.336219996	-1.8211	126	12	132
-0.435409993	-0.334190011	-1.82050002	126	12	132
-0.43858999	-0.334259987	-1.82079995	126	12	132
-0.438980013	-0.336459994	-1.82239997	126	12	132
-0.441960007	-0.336360008	-1.82179999	126	12	132
-0.444950014	-0.336250007	-1.82120001	126	12	132
-0.445149988	-0.334580004	-1.82260001	126	12	132
-0.448130012	-0.334470004	-1.82200003	126	12	132
-0.447730005	-0.335960001	-1.8197	126	12	132
-0.451119989	-0.336199999	-1.82099998	126	12	132
-0.451319993	-0.334529996	-1.82229996	126	12	132
-0.454510003	-0.334600002	-1.82270002	126	12	132
-0.454919994	-0.333139986	-1.82490003	126	12	132
-0.455130011	-0.331510007	-1.82620001	126	12	132
-0.458119988	-0.331400007	-1.82560003	126	12	132
-0.457700014	-0.332850009	-1.8233	126	12	132
-0.458119988	-0.335020006	-1.82490003	126	12	132
-0.457500011	-0.336329997	-1.82169998	126	12	132
-0.460689992	-0.336389989	-1.82200003	126	12	132
-0.460689992	-0.334549993	-1.82239997	126	12	132
-0.460269988	-0.337870002	-1.81980002	126	12	132
-0.45212999	-0.331620008	-1.82679999	126	12	132
-0.451929986	-0.333249986	-1.82550001	126	12	132
-0.448740005	-0.33318001	-1.82519996	126	12	132
-0.449140012	-0.331730008	-1.82739997	126	12	132
-0.446150005	-0.331840008	-1.82799995	126	12	132
-0.445950001	-0.333469987	-1.82669997	126	12	132
-0.44295001	-0.331779987	-1.82770002	126	12	132
-0.44295001	-0.329869986	-1.82799995	126	12	132
-0.439960003	-0.329979986	-1.82860005	126	12	132
-0.439960003	-0.331880003	-1.8283	126	12	132
-0.436569989	-0.329739988	-1.82729995	126	12	132
-0.435990006	-0.331110001	-1.824	126	12	132
-0.435990006	-0.332910001	-1.82369995	126	12	132
-0.439170003	-0.332980007	-1.82410002	126	12	132
-0.442559987	-0.333229989	-1.82539999	126	12	132
-0.432810009	-0.334659994	-1.82299995	126	12	132
-0.432429999	-0.332489997	-1.82140005	126	12	132
-0.429630011	-0.33276999	-1.82290006	126	12	132
-0.429250002	-0.334230006	-1.82060003	126	12	132
-0.428869992	-0.335720003	-1.81840003	126	12	132
-0.428869992	-0.337540001	-1.81799996	126	12	132
-0.429060012	-0.339520007	-1.81869996	126	12	132
-0.431849986	-0.339230001	-1.81710005	126	12	132
-0.431849986	-0.337440014	-1.8175	126	12	132
-0.432429999	-0.336140007	-1.82070005	126	12	132
-0.43483001	-0.339120001	-1.81659997	126	12	132
-0.434240013	-0.340369999	-1.81330001	126	12	132
-0.431270003	-0.34048	-1.81389999	126	12	132
-0.430689991	-0.341720015	-1.81070006	126	12	132
-0.430310011	-0.343129992	-1.80840003	126	12	132
-0.430119991	-0.344689995	-1.80710006	126	12	132
-0.433079988	-0.344579995	-1.80649996	126	12	132
-0.433270007	-0.343019992	-1.80780005	126	12	132
-0.433660001	-0.341619998	-1.81009996	126	12	132
-0.426770002	-0.34443	-1.80579996	126	12	132
-0.426959991	-0.342869997	-1.80710006	126	12	132
-0.426959991	-0.341100007	-1.80739999	126	12	132
-0.424190015	-0.343160003	-1.80859995	126	12	132
-0.424569994	-0.34176001	-1.81079996	126	12	132
-0.424760014	-0.340149999	-1.81210005	126	12	132
-0.42513001	-0.338719994	-1.81439996	126	12	132
-0.425509989	-0.337289989	-1.81669998	126	12	132
-0.42216	-0.337040007	-1.81529999	126	12	132
-0.422349989	-0.33901	-1.81589997	126	12	132
-0.42197001	-0.340440005	-1.81369996	126	12	132
-0.421600014	-0.341859996	-1.81140006	126	12	132
-0.421030015	-0.343089998	-1.8082	126	12	132
-0.418069988	-0.343190014	-1.80869997	126	12	132
-0.415100008	-0.343300015	-1.80929995	126	12	132
-0.415100008	-0.345039994	-1.8089	126	12	132
-0.415470004	-0.341890007	-1.81149995	126	12	132
-0.419	-0.342330009	-1.81389999	126	12	132
-0.419369996	-0.340900004	-1.81620002	126	12	132
-0.419369996	-0.339109987	-1.81649995	126	12	132
-0.419180006	-0.337139994	-1.81589997	126	12	132
-0.416390002	-0.339210004	-1.81700003	126	12	132
-0.416390002	-0.341010004	-1.81669998	126	12	132
-0.416759998	-0.337779999	-1.81930006	126	12	132
-0.416759998	-0.335949987	-1.81959999	126	12	132
-0.416940004	-0.334289998	-1.82099998	126	12	132
-0.413780004	-0.334210008	-1.82050002	126	12	132
-0.413599998	-0.335869998	-1.81920004	126	12	132
-0.413780004	-0.337879986	-1.81990004	126	12	132
-0.410430014	-0.335790008	-1.81879997	126	12	132
-0.410250008	-0.337440014	-1.8175	126	12	132
-0.410250008	-0.333770007	-1.81819999	126	12	132
-0.419930011	-0.336030006	-1.82009995	126	12	132
-0.423099995	-0.336100012	-1.82050002	126	12	132
-0.426270008	-0.336180001	-1.82089996	126	12	132
-0.427920014	-0.340229988	-1.8125	126	12	132
-0.437409997	-0.340440005	-1.81369996	126	12	132
-0.437220007	-0.338470012	-1.81309998	126	12	132
-0.427020013	-0.333229989	-1.82539999	126	12	132
-0.427399993	-0.335399985	-1.82700002	126	12	132
-0.424219996	-0.333510011	-1.82690001	126	12	132
-0.42385	-0.334969997	-1.8247	126	12	132
-0.420670003	-0.334890008	-1.82430005	126	12	132
-0.420859993	-0.33326	-1.82560003	126	12	132
-0.421039999	-0.331629992	-1.82690001	126	12	132
-0.417860001	-0.331559986	-1.82640004	126	12	132
-0.417679995	-0.33318001	-1.82519996	126	12	132
-0.421600014	-0.330249995	-1.83010006	126	12	132
-0.424600005	-0.330150008	-1.82949996	126	12	132
-0.424600005	-0.332060009	-1.82920003	126	12	132
-0.427590013	-0.331950009	-1.82860005	126	12	132
-0.427969992	-0.33039999	-1.83089995	126	12	132
-0.427969992	-0.328440011	-1.83130002	126	12	132
-0.431160003	-0.32852	-1.83169997	126	12	132
-0.430970013	-0.33028999	-1.83029997	126	12	132
-0.430970013	-0.332199991	-1.83000004	126	12	132
-0.433970004	-0.330190003	-1.82980001	126	12	132
-0.424600005	-0.328200012	-1.82990003	126	12	132
-0.418779999	-0.330520004	-1.83159995	126	12	132
-0.418779999	-0.328570008	-1.83200002	126	12	132
-0.419149995	-0.327149987	-1.83420002	126	12	132
-0.422340006	-0.327219993	-1.83459997	126	12	132
-0.42216	-0.32881999	-1.83340001	126	12	132
-0.425720006	-0.327470005	-1.83599997	126	12	132
-0.416150004	-0.329019994	-1.83449996	126	12	132
-0.415969998	-0.330799997	-1.83309996	126	12	132
-0.433200002	-0.331389993	-1.82560003	126	12	132
-0.446550012	-0.33028999	-1.83029997	126	12	132
-0.44137001	-0.333979994	-1.81930006	126	12	132
-0.462000012	-0.340259999	-1.81270003	126	12	132
-0.46221	-0.342229992	-1.81330001	126	12	132
-0.46518001	-0.342110008	-1.81270003	126	12	132
-0.471769989	-0.337040007	-1.81529999	126	12	132
-0.47112	-0.338290006	-1.81210005	126	12	132
-0.464340001	-0.339599997	-1.80920005	126	12	132
-0.470259994	-0.339359999	-1.80789995	126	12	132
-0.473219991	-0.339240015	-1.80729997	126	12	132
-0.476190001	-0.339120001	-1.80659997	126	12	132
-0.482989997	-0.34314999	-1.80850005	126	12	132
-0.483429998	-0.341740012	-1.81079996	126	12	132
-0.484100014	-0.340490013	-1.81400001	126	12	132
-0.484100014	-0.338699996	-1.81429994	126	12	132
-0.483880013	-0.336730003	-1.81369996	126	12	132
-0.486849993	-0.336609989	-1.81299996	126	12	132
-0.487069994	-0.338580012	-1.81359994	126	12	132
-0.487069994	-0.340369999	-1.81330001	126	12	132
-0.487069994	-0.342150003	-1.81299996	126	12	132
-0.489820004	-0.341850013	-1.81130004	126	12	132
-0.490040004	-0.340240002	-1.81260002	126	12	132
-0.489369988	-0.337909997	-1.81009996	126	12	132
-0.489369988	-0.336129993	-1.81040001	126	12	132
-0.492559999	-0.336180001	-1.81070006	126	12	132
-0.492330015	-0.337790012	-1.80939996	126	12	132
-0.489369988	-0.34325999	-1.80910003	126	12	132
-0.486400008	-0.343389988	-1.80980003	126	12	132
-0.48089999	-0.338649988	-1.81400001	126	12	132
-0.481559992	-0.337390006	-1.81719995	126	12	132
-0.472840011	-0.336100012	-1.82050002	126	12	132
-0.473269999	-0.334609985	-1.82270002	126	12	132
-0.469639987	-0.33603999	-1.82019997	126	12	132
-0.479680002	-0.334719986	-1.8233	126	12	132
-0.479889989	-0.333090007	-1.82459998	126	12	132
-0.479889989	-0.331290007	-1.82500005	126	12	132
-0.482879996	-0.331169993	-1.82430005	126	12	132
-0.482879996	-0.332969993	-1.824	126	12	132
-0.482659996	-0.334600002	-1.82270002	126	12	132
-0.482439995	-0.336270005	-1.82140005	126	12	132
-0.485210001	-0.335970014	-1.81980002	126	12	132
-0.486090004	-0.334829986	-1.82389998	126	12	132
-0.48653999	-0.33337	-1.82620001	126	12	132
-0.48653999	-0.331569999	-1.82650006	126	12	132
-0.489969999	-0.33179	-1.82780004	126	12	132
-0.489969999	-0.333600014	-1.82739997	126	12	132
-0.49296999	-0.333469987	-1.82679999	126	12	132
-0.493189991	-0.331849992	-1.82799995	126	12	132
-0.495510012	-0.333000004	-1.82420003	126	12	132
-0.495050013	-0.330850005	-1.82260001	126	12	132
-0.498270005	-0.330900013	-1.82280004	126	12	132
-0.498270005	-0.332700014	-1.82249999	126	12	132
-0.498950005	-0.335040003	-1.82509995	126	12	132
-0.501940012	-0.334910005	-1.82439995	126	12	132
-0.501709998	-0.332920015	-1.82369995	126	12	132
-0.501020014	-0.330599993	-1.82120001	126	12	132
-0.501479983	-0.336409986	-1.82210004	126	12	132
-0.488629997	-0.334360003	-1.82140005	126	12	132
-0.488860011	-0.336380005	-1.82200003	126	12	132
-0.49138999	-0.335900009	-1.81939995	126	12	132
-0.491620004	-0.334230006	-1.82070005	126	12	132
-0.494599998	-0.334109992	-1.82000005	126	12	132
-0.494370013	-0.335779995	-1.81869996	126	12	132
-0.497810006	-0.335999995	-1.81990004	126	12	132
-0.456759989	-0.329039991	-1.83459997	126	12	132
-0.456759989	-0.327270001	-1.83490002	126	12	132
-0.45717001	-0.325890005	-1.83720005	126	12	132
-0.453759998	-0.32565999	-1.83589995	126	12	132
-0.453759998	-0.327380002	-1.8355	126	12	132
-0.453759998	-0.329149991	-1.83519995	126	12	132
-0.45054999	-0.327320009	-1.83519995	126	12	132
-0.45054999	-0.325599998	-1.8355	126	12	132
-0.459969997	-0.327329993	-1.83529997	126	12	132
-0.459969997	-0.329109997	-1.83500004	126	12	132
-0.463189989	-0.327389985	-1.83560002	126	12	132
-0.466399997	-0.327450007	-1.83589995	126	12	132
-0.442510009	-0.324979991	-1.84239995	126	12	132
-0.442699999	-0.323329985	-1.84370005	126	12	132
-0.442699999	-0.321390003	-1.8441	126	12	132
-0.445719987	-0.321289986	-1.84350002	126	12	132
-0.445719987	-0.323229998	-1.84309995	126	12	132
-0.445919991	-0.325210005	-1.84379995	126	12	132
-0.449140012	-0.325280011	-1.8441	126	12	132
-0.448940009	-0.32328999	-1.84350002	126	12	132
-0.448940009	-0.321350008	-1.84379995	126	12	132
-0.452160001	-0.32141	-1.84420002	126	12	132
-0.452160001	-0.323350012	-1.84389997	126	12	132
-0.452160001	-0.32517001	-1.84350002	126	12	132
-0.455179989	-0.32506001	-1.84290004	126	12	132
-0.455379993	-0.323410004	-1.84420002	126	12	132
-0.458400011	-0.323309988	-1.84360003	126	12	132
-0.457989991	-0.324779987	-1.84130001	126	12	132
-0.460799992	-0.324499995	-1.83969998	126	12	132
-0.460799992	-0.326290011	-1.83940005	126	12	132
-0.464230001	-0.326519996	-1.84070003	126	12	132
-0.464430004	-0.324900001	-1.84200001	126	12	132
-0.464020014	-0.322750002	-1.84039998	126	12	132
-0.467029989	-0.322640002	-1.8398	126	12	132
-0.470459998	-0.322860003	-1.84109998	126	12	132
-0.470889986	-0.325019985	-1.8427	126	12	132
-0.470459998	-0.326469988	-1.84039998	126	12	132
-0.470039994	-0.327850014	-1.83819997	126	12	132
-0.467240006	-0.326409996	-1.84010005	126	12	132
-0.472629994	-0.327399999	-1.83560002	126	12	132
-0.473690003	-0.326519996	-1.84070003	126	12	132
-0.476489991	-0.326240003	-1.8391	126	12	132
-0.476280004	-0.327800006	-1.83790004	126	12	132
-0.479290009	-0.327679992	-1.83720005	126	12	132
-0.479499996	-0.326119989	-1.83850002	126	12	132
-0.479719996	-0.324499995	-1.83969998	126	12	132
-0.479939997	-0.322860003	-1.84099996	126	12	132
-0.476709992	-0.32280001	-1.84070003	126	12	132
-0.476280004	-0.324279994	-1.83850002	126	12	132
-0.473690003	-0.322919995	-1.84140003	126	12	132
-0.474330008	-0.325239986	-1.84389997	126	12	132
-0.474330008	-0.321480006	-1.84459996	126	12	132
-0.477780014	-0.321709991	-1.84590006	126	12	132
-0.478210002	-0.320050001	-1.84809995	126	12	132
-0.47518	-0.320160002	-1.84879994	126	12	132
-0.47518	-0.318349987	-1.84909999	126	12	132
-0.475820005	-0.317090005	-1.85230005	126	12	132
-0.472579986	-0.317030013	-1.852	126	12	132
-0.47299999	-0.319130003	-1.85360003	126	12	132
-0.472579986	-0.320609987	-1.85140002	126	12	132
-0.469760001	-0.320879996	-1.85300004	126	12	132
-0.469550014	-0.318910003	-1.85230005	126	12	132
-0.469760001	-0.317310005	-1.85360003	126	12	132
-0.466300011	-0.317090005	-1.85230005	126	12	132
-0.466100007	-0.318679988	-1.85099995	126	12	132
-0.466720015	-0.320989996	-1.85360003	126	12	132
-0.463070005	-0.320600003	-1.85140002	126	12	132
-0.462449998	-0.318300009	-1.84879994	126	12	132
-0.462859988	-0.316870004	-1.85099995	126	12	132
-0.459829986	-0.316969991	-1.85160005	126	12	132
-0.459630013	-0.318569988	-1.85039997	126	12	132
-0.459630013	-0.320380002	-1.85010004	126	12	132
-0.459219992	-0.322039992	-1.84780002	126	12	132
-0.46224001	-0.321929991	-1.84720004	126	12	132
-0.465469986	-0.321990013	-1.84749997	126	12	132
-0.468499988	-0.321880013	-1.84689999	126	12	132
-0.471729994	-0.321929991	-1.84720004	126	12	132
-0.468290001	-0.325470001	-1.84519994	126	12	132
-0.455989987	-0.32198	-1.84739995	126	12	132
-0.45660001	-0.320490003	-1.85070002	126	12	132
-0.456389993	-0.318509996	-1.85000002	126	12	132
-0.453159988	-0.318450004	-1.84969997	126	12	132
-0.453159988	-0.320259988	-1.84940004	126	12	132
-0.449739993	-0.31821999	-1.8484	126	12	132
-0.449539989	-0.319860011	-1.84710002	126	12	132
-0.446310014	-0.319799989	-1.84669995	126	12	132
-0.446709991	-0.31832999	-1.84899998	126	12	132
-0.443879992	-0.318599999	-1.85049999	126	12	132
-0.444469988	-0.317330003	-1.85370004	126	12	132
-0.447299987	-0.317059994	-1.85220003	126	12	132
-0.450729996	-0.317290008	-1.85350001	126	12	132
-0.453969985	-0.31735	-1.85380006	126	12	132
-0.457199991	-0.317409992	-1.85420001	126	12	132
-0.441240013	-0.319029987	-1.85300004	126	12	132
-0.4384	-0.319299996	-1.85459995	126	12	132
-0.43878001	-0.317860007	-1.85679996	126	12	132
-0.43897	-0.316399992	-1.85810006	126	12	132
-0.439170003	-0.314550012	-1.85940003	126	12	132
-0.43897	-0.312519997	-1.85870004	126	12	132
-0.436120003	-0.312779993	-1.86029994	126	12	132
-0.435930014	-0.314480007	-1.85899997	126	12	132
-0.435739994	-0.316339999	-1.85769999	126	12	132
-0.435360014	-0.317629993	-1.85549998	126	12	132
-0.434980005	-0.319070011	-1.85329998	126	12	132
-0.431939989	-0.319169998	-1.85380006	126	12	132
-0.431939989	-0.317400008	-1.85409999	126	12	132
-0.432319999	-0.316100001	-1.85640001	126	12	132
-0.432889998	-0.314579993	-1.85959995	126	12	132
-0.433270007	-0.313039988	-1.86179996	126	12	132
-0.433640003	-0.311479986	-1.86409998	126	12	132
-0.430590004	-0.311569989	-1.86469996	126	12	132
-0.430220008	-0.313140005	-1.86240005	126	12	132
-0.436879992	-0.311540008	-1.86450005	126	12	132
-0.440129995	-0.3116	-1.86489999	126	12	132
-0.440510005	-0.309969991	-1.8671	126	12	132
-0.440710008	-0.30814001	-1.86839998	126	12	132
-0.437649995	-0.308230013	-1.86899996	126	12	132
-0.437460005	-0.310070008	-1.86769998	126	12	132
-0.434210002	-0.310000002	-1.86730003	126	12	132
-0.434399992	-0.308169991	-1.86860001	126	12	132
-0.431340009	-0.310259998	-1.86889994	126	12	132
-0.428279996	-0.310350001	-1.86950004	126	12	132
-0.424860001	-0.31013	-1.86810005	126	12	132
-0.434399992	-0.320380002	-1.85000002	126	12	132
-0.437629998	-0.320439994	-1.85039997	126	12	132
-0.440270007	-0.320010006	-1.84790003	126	12	132
-0.443289995	-0.319900006	-1.84730005	126	12	132
-0.442400008	-0.314610004	-1.85979998	126	12	132
-0.442209989	-0.316460013	-1.8585	126	12	132
-0.441819996	-0.317759991	-1.8563	126	12	132
-0.445250005	-0.316359997	-1.85790002	126	12	132
-0.445450008	-0.314509988	-1.8592	126	12	132
-0.445639998	-0.31279999	-1.86049998	126	12	132
-0.442790002	-0.313069999	-1.86199999	126	12	132
-0.448689997	-0.31457001	-1.85950005	126	12	132
-0.448489994	-0.316419989	-1.85819995	126	12	132
-0.451929986	-0.316650003	-1.85959995	126	12	132
-0.451929986	-0.314630002	-1.8599	126	12	132
-0.454970002	-0.314529985	-1.85930002	126	12	132
-0.454369992	-0.312169999	-1.85669994	126	12	132
-0.451330006	-0.312279999	-1.85730004	126	12	132
-0.448089987	-0.312220007	-1.85699999	126	12	132
-0.457610011	-0.314099997	-1.85669994	126	12	132
-0.458020002	-0.316439986	-1.85829997	126	12	132
-0.460649997	-0.316009998	-1.85580003	126	12	132
-0.460649997	-0.313989997	-1.85609996	126	12	132
-0.464100003	-0.314209998	-1.85739994	126	12	132
-0.463679999	-0.315899998	-1.85510004	126	12	132
-0.467339993	-0.31426999	-1.85769999	126	12	132
-0.467339993	-0.316280007	-1.85739994	126	12	132
-0.455579996	-0.317039996	-1.86179996	126	12	132
-0.479070008	-0.317140013	-1.85259998	126	12	132
-0.478850007	-0.31874001	-1.8513	126	12	132
-0.482320011	-0.318960011	-1.85259998	126	12	132
-0.482320011	-0.317189991	-1.85290003	126	12	132
-0.485350013	-0.317079991	-1.85220003	126	12	132
-0.485350013	-0.318839997	-1.85189998	126	12	132
-0.485130012	-0.320479989	-1.85070002	126	12	132
-0.487940013	-0.320199996	-1.84899998	126	12	132
-0.487720013	-0.322030008	-1.8477	126	12	132
-0.484259993	-0.321810007	-1.84650004	126	12	132
-0.484039992	-0.323579997	-1.84519994	126	12	132
-0.48684001	-0.323300004	-1.84350002	126	12	132
-0.489639997	-0.323009998	-1.84189999	126	12	132
-0.489419997	-0.324660003	-1.84060001	126	12	132
-0.485960007	-0.324440002	-1.83940005	126	12	132
-0.485740006	-0.326059997	-1.83809996	126	12	132
-0.485960007	-0.327960014	-1.83879995	126	12	132
-0.482730001	-0.327899992	-1.83850002	126	12	132
-0.48251	-0.326009989	-1.83780003	126	12	132
-0.482080013	-0.329160005	-1.83529997	126	12	132
-0.485080004	-0.329039991	-1.83459997	126	12	132
-0.484640002	-0.330650002	-1.83229995	126	12	132
-0.487859994	-0.33070001	-1.8326	126	12	132
-0.488310009	-0.329089999	-1.83490002	126	12	132
-0.488310009	-0.327320009	-1.83519995	126	12	132
-0.48853001	-0.325769991	-1.83650005	126	12	132
-0.491540015	-0.325650007	-1.83580005	126	12	132
-0.49109	-0.327030003	-1.83360004	126	12	132
-0.49131	-0.328969985	-1.83420002	126	12	132
-0.49109	-0.330760002	-1.83290005	126	12	132
-0.494089991	-0.330630004	-1.83220005	126	12	132
-0.494320005	-0.328850001	-1.83350003	126	12	132
-0.494089991	-0.326909989	-1.83290005	126	12	132
-0.491979986	-0.324200004	-1.83800006	126	12	132
-0.492650002	-0.322890013	-1.84119999	126	12	132
-0.495669991	-0.32277	-1.84060001	126	12	132
-0.495440006	-0.324420005	-1.83930004	126	12	132
-0.494989991	-0.325870007	-1.83700001	126	12	132
-0.498450011	-0.324299991	-1.83860004	126	12	132
-0.483390003	-0.324900001	-1.84200001	126	12	132
-0.481020004	-0.321759999	-1.84619999	126	12	132
-0.481449991	-0.320100009	-1.8484	126	12	132
-0.491189986	-0.322250009	-1.84899998	126	12	132
-0.491189986	-0.320250005	-1.84930003	126	12	132
-0.490750015	-0.318109989	-1.8477	126	12	132
-0.493990004	-0.319970012	-1.8477	126	12	132
-0.493990004	-0.321960002	-1.84730005	126	12	132
-0.494439989	-0.318489999	-1.84990001	126	12	132
-0.488599986	-0.318890005	-1.85220003	126	12	132
-0.488819987	-0.317290008	-1.85350001	126	12	132
-0.488819987	-0.315670013	-1.85380006	126	12	132
-0.485790014	-0.315780014	-1.85440004	126	12	132
-0.486220002	-0.314090014	-1.85669994	126	12	132
-0.483399987	-0.314370006	-1.85829997	126	12	132
-0.483619988	-0.312660009	-1.85959995	126	12	132
-0.480569988	-0.312770009	-1.86029994	126	12	132
-0.480569988	-0.310889989	-1.86059999	126	12	132
-0.477310002	-0.310840011	-1.86029994	126	12	132
-0.477310002	-0.312720001	-1.86000001	126	12	132
-0.477310002	-0.314590007	-1.85969996	126	12	132
-0.476889998	-0.316280007	-1.85739994	126	12	132
-0.479710013	-0.316009998	-1.85580003	126	12	132
-0.480360001	-0.314480007	-1.85899997	126	12	132
-0.483179986	-0.316219985	-1.85699999	126	12	132
-0.474059999	-0.31656	-1.85899997	126	12	132
-0.474269986	-0.314700007	-1.86029994	126	12	132
-0.474269986	-0.312830001	-1.86059999	126	12	132
-0.474480003	-0.31110999	-1.86189997	126	12	132
-0.47468999	-0.309309989	-1.86319995	126	12	132
-0.471850008	-0.309579998	-1.86479998	126	12	132
-0.471850008	-0.311540008	-1.86450005	126	12	132
-0.469009995	-0.311809987	-1.86609995	126	12	132
-0.468800008	-0.309689999	-1.86549997	126	12	132
-0.465950012	-0.309960008	-1.8671	126	12	132
-0.465950012	-0.311919987	-1.86670005	126	12	132
-0.47101	-0.312779993	-1.86029994	126	12	132
-0.471219987	-0.314810008	-1.86099994	126	12	132
-0.47101	-0.316670001	-1.85969996	126	12	132
-0.468180001	-0.313050002	-1.86189997	126	12	132
-0.465130001	-0.313160002	-1.86259997	126	12	132
-0.462280005	-0.313430011	-1.8642	126	12	132
-0.492069989	-0.315710008	-1.85409999	126	12	132
-0.492069989	-0.317339987	-1.85380006	126	12	132
-0.460999995	-0.322860003	-1.84099996	126	12	132
-0.424380004	-0.31983	-1.84689999	126	12	132
-0.424380004	-0.31803	-1.84720004	126	12	132
-0.421359986	-0.319929987	-1.84749997	126	12	132
-0.42118001	-0.321759999	-1.84619999	126	12	132
-0.424199998	-0.321660012	-1.84560001	126	12	132
-0.424010009	-0.32525	-1.84399998	126	12	132
-0.423460007	-0.322919995	-1.84140003	126	12	132
-0.417970002	-0.321680009	-1.84570003	126	12	132
-0.414590001	-0.321440011	-1.84440005	126	12	132
-0.411390007	-0.321370006	-1.84389997	126	12	132
-0.408369988	-0.321460009	-1.84449995	126	12	132
-0.421909988	-0.31863001	-1.85070002	126	12	132
-0.419059992	-0.318890005	-1.85220003	126	12	132
-0.418879986	-0.316960007	-1.85160005	126	12	132
-0.41870001	-0.320360005	-1.85000002	126	12	132
-0.415309995	-0.320120007	-1.84860003	126	12	132
-0.412279993	-0.320219994	-1.84909999	126	12	132
-0.407130003	-0.32754001	-1.83640003	126	12	132
-0.389039993	-0.337760001	-1.81920004	126	12	132
-0.388709992	-0.335570008	-1.81760001	126	12	132
-0.405490011	-0.344610006	-1.80669999	126	12	132
-0.398860008	-0.344069988	-1.8039	126	12	132
-0.401820004	-0.343970001	-1.80330002	126	12	132
-0.404410005	-0.345270008	-1.80060005	126	12	132
-0.404410005	-0.347140014	-1.80019999	126	12	132
-0.404229999	-0.348809987	-1.79890001	126	12	132
-0.407730013	-0.345539987	-1.80200005	126	12	132
-0.397980005	-0.348639995	-1.79799998	126	12	132
-0.397810012	-0.35029	-1.7967	126	12	132
-0.400220007	-0.351449996	-1.79289997	126	12	132
-0.400040001	-0.353049994	-1.79159999	126	12	132
-0.403340012	-0.353329986	-1.79299998	126	12	132
-0.406100005	-0.35304001	-1.79149997	126	12	132
-0.409040004	-0.352930009	-1.79089999	126	12	132
-0.408670008	-0.354330003	-1.78869998	126	12	132
-0.408490002	-0.355910003	-1.78740001	126	12	132
-0.408309996	-0.357540011	-1.78600001	126	12	132
-0.40812999	-0.359290004	-1.78470004	126	12	132
-0.410869986	-0.358990014	-1.78320003	126	12	132
-0.411240011	-0.357430011	-1.78550005	126	12	132
-0.411240011	-0.355610013	-1.7859	126	12	132
-0.411610007	-0.354229987	-1.7881	126	12	132
-0.411980003	-0.352829993	-1.79040003	126	12	132
-0.414909989	-0.352719992	-1.78989995	126	12	132
-0.414909989	-0.354499996	-1.7895	126	12	132
-0.417849988	-0.354389995	-1.78900003	126	12	132
-0.417849988	-0.352609992	-1.78929996	126	12	132
-0.420780003	-0.352499992	-1.7888	126	12	132
-0.420780003	-0.354290009	-1.78840005	126	12	132
-0.423530012	-0.353980005	-1.78690004	126	12	132
-0.42295	-0.355170012	-1.78369999	126	12	132
-0.423139989	-0.357179999	-1.78429997	126	12	132
-0.420029998	-0.35710001	-1.78390002	126	12	132
-0.420219988	-0.355479985	-1.7852	126	12	132
-0.417470008	-0.355780005	-1.78670001	126	12	132
-0.414359987	-0.355690002	-1.78629994	126	12	132
-0.413980007	-0.357129991	-1.78400004	126	12	132
-0.413610011	-0.358689994	-1.78170002	126	12	132
-0.416909993	-0.357019991	-1.78340006	126	12	132
-0.425689995	-0.35668999	-1.78180003	126	12	132
-0.424100012	-0.352770001	-1.79009998	126	12	132
-0.424479991	-0.351359993	-1.7924	126	12	132
-0.421730012	-0.351660013	-1.79390001	126	12	132
-0.421920002	-0.350019991	-1.79530001	126	12	132
-0.421730012	-0.347990006	-1.79470003	126	12	132
-0.42504999	-0.348259985	-1.796	126	12	132
-0.42504999	-0.350100011	-1.79569995	126	12	132
-0.428000003	-0.34999001	-1.79509997	126	12	132
-0.428000003	-0.348150015	-1.79550004	126	12	132
-0.419160008	-0.350320011	-1.79680002	126	12	132
-0.419349998	-0.348659992	-1.79809999	126	12	132
-0.418790013	-0.351770014	-1.79449999	126	12	132
-0.415659994	-0.349860013	-1.79439998	126	12	132
-0.41584	-0.348210007	-1.79579997	126	12	132
-0.427029997	-0.350870013	-1.78989995	126	12	132
-0.427029997	-0.35266	-1.78960001	126	12	132
-0.414730012	-0.350739986	-1.78929996	126	12	132
-0.405559987	-0.354250014	-1.78820002	126	12	132
-0.405019999	-0.355439991	-1.78499997	126	12	132
-0.402269989	-0.353969991	-1.78680003	126	12	132
-0.44216001	-0.342689991	-1.80610001	126	12	132
-0.44532001	-0.342759997	-1.80649996	126	12	132
-0.443309993	-0.34999001	-1.79509997	126	12	132
-0.446449995	-0.350059986	-1.79550004	126	12	132
-0.431719989	-0.346929997	-1.79910004	126	12	132
-0.442499995	-0.351060003	-1.79089999	126	12	132
-0.442499995	-0.35284999	-1.79050004	126	12	132
-0.442299992	-0.354440004	-1.78919995	126	12	132
-0.445639998	-0.354710013	-1.79050004	126	12	132
-0.445639998	-0.352919996	-1.79089999	126	12	132
-0.445239991	-0.350760013	-1.78929996	126	12	132
-0.448379993	-0.350829989	-1.78970003	126	12	132
-0.451519996	-0.350899994	-1.78999996	126	12	132
-0.415789992	-0.361369997	-1.7766	126	12	132
-0.406309992	-0.362619996	-1.77400005	126	12	132
-0.405939996	-0.360520005	-1.77240002	126	12	132
-0.405939996	-0.363929987	-1.77170002	126	12	132
-0.405580014	-0.365260005	-1.7694	126	12	132
-0.405580014	-0.367049992	-1.76900005	126	12	132
-0.408479989	-0.365150005	-1.76890004	126	12	132
-0.422989994	-0.366380006	-1.7658	126	12	132
-0.438879997	-0.361959994	-1.77069998	126	12	132
-0.444689989	-0.36342001	-1.76919997	126	12	132
-0.444489986	-0.364950001	-1.76789999	126	12	132
-0.444079995	-0.366340011	-1.76559997	126	12	132
-0.447189987	-0.366409987	-1.76600003	126	12	132
-0.44738999	-0.364820004	-1.76730001	126	12	132
-0.443470001	-0.371030003	-1.76160002	126	12	132
-0.447759986	-0.35383001	-1.78610003	126	12	132
-0.447349995	-0.351669997	-1.7845	126	12	132
-0.468989998	-0.363389999	-1.76909995	126	12	132
-0.468549997	-0.364719987	-1.76680005	126	12	132
-0.468329996	-0.36631	-1.76549995	126	12	132
-0.471450001	-0.366380006	-1.7658	126	12	132
-0.47123	-0.364389986	-1.76520002	126	12	132
-0.474350005	-0.364459991	-1.76549995	126	12	132
-0.473910004	-0.365850002	-1.76320004	126	12	132
-0.473910004	-0.367630005	-1.76289999	126	12	132
-0.476799995	-0.367489994	-1.7622	126	12	132
-0.476799995	-0.365720004	-1.76259995	126	12	132
-0.47992	-0.365779996	-1.76289999	126	12	132
-0.47992	-0.367559999	-1.76250005	126	12	132
-0.479470015	-0.368919998	-1.76020002	126	12	132
-0.47924	-0.370460004	-1.75890005	126	12	132
-0.47902	-0.371969998	-1.75759995	126	12	132
-0.481680006	-0.371630013	-1.75600004	126	12	132
-0.484329998	-0.371289998	-1.75440001	126	12	132
-0.487450004	-0.37134999	-1.75469995	126	12	132
-0.487910002	-0.370050013	-1.75689995	126	12	132
-0.490559995	-0.369709998	-1.75530005	126	12	132
-0.490559995	-0.371410012	-1.755	126	12	132
-0.490099996	-0.372729987	-1.75269997	126	12	132
-0.493440002	-0.372990012	-1.75390005	126	12	132
-0.493440002	-0.371270001	-1.7543	126	12	132
-0.493440002	-0.369560003	-1.75460005	126	12	132
-0.496320009	-0.369419992	-1.75399995	126	12	132
-0.496089995	-0.370929986	-1.75269997	126	12	132
-0.496560007	-0.373050004	-1.75419998	126	12	132
-0.496089995	-0.37439999	-1.75189996	126	12	132
-0.475910008	-0.371910006	-1.75730002	126	12	132
