0.419279993	0.282180011	-1.47459996	204	252	192
0.422369987	0.282359987	-1.47549999	204	252	192
0.425099999	0.282359987	-1.47549999	204	252	192
0.424380004	0.280609995	-1.47399998	204	252	192
0.426389992	0.280259997	-1.47220004	204	252	192
0.429850012	0.280609995	-1.47399998	204	252	192
0.427830011	0.282370001	-1.4756	204	252	192
0.431290001	0.28272	-1.47739995	204	252	192
0.432009995	0.284530014	-1.47899997	204	252	192
0.431650013	0.285820007	-1.47780001	204	252	192
0.430350006	0.285059988	-1.48169994	204	252	192
0.43107	0.286879987	-1.48319995	204	252	192
0.433820009	0.28836	-1.48300004	204	252	192
0.430119991	0.289249986	-1.48749995	204	252	192
0.430480003	0.29095	-1.48810005	204	252	192
0.429760009	0.292199999	-1.48599994	204	252	192
0.426649988	0.288890004	-1.48570001	204	252	192
0.425940007	0.287050009	-1.48409998	204	252	192
0.427969992	0.28670001	-1.48230004	204	252	192
0.427969992	0.285230011	-1.48259997	204	252	192
0.424870014	0.285050005	-1.48169994	204	252	192
0.422120005	0.285039991	-1.48160005	204	252	192
0.419739991	0.285219997	-1.48249996	204	252	192
0.416649997	0.285030007	-1.48160005	204	252	192
0.41426	0.2852	-1.48239994	204	252	192
0.41257	0.28718999	-1.4849	204	252	192
0.412919998	0.288859993	-1.48549998	204	252	192
0.410519987	0.289029986	-1.48640001	204	252	192
0.409830004	0.287180007	-1.48479998	204	252	192
0.407440007	0.287349999	-1.48570001	204	252	192
0.405039996	0.287519991	-1.48660004	204	252	192
0.405730009	0.289359987	-1.48810005	204	252	192
0.408470005	0.28937	-1.48819995	204	252	192
0.4102	0.291799992	-1.49249995	204	252	192
0.412609994	0.29163	-1.49160004	204	252	192
0.415360004	0.291640013	-1.49160004	204	252	192
0.416359991	0.287739992	-1.48769999	204	252	192
0.415659994	0.288870007	-1.48549998	204	252	192
0.418410003	0.287389994	-1.48590004	204	252	192
0.418760002	0.289050013	-1.48650002	204	252	192
0.421149999	0.288879991	-1.48559999	204	252	192
0.4208	0.287220001	-1.48500001	204	252	192
0.423189998	0.287039995	-1.48409998	204	252	192
0.423900008	0.288879991	-1.48559999	204	252	192
0.425319999	0.291119993	-1.48899996	204	252	192
0.429149985	0.291660011	-1.49179995	204	252	192
0.429149985	0.29618001	-1.49090004	204	252	192
0.433589995	0.291130006	-1.48909998	204	252	192
0.433589995	0.289609998	-1.48940003	204	252	192
0.410829991	0.284839988	-1.4806	204	252	192
0.408100009	0.284830004	-1.48049998	204	252	192
0.405019999	0.284640014	-1.47950006	204	252	192
0.404329985	0.28283	-1.47800004	204	252	192
0.401950002	0.282990009	-1.47880006	204	252	192
0.401950002	0.284449995	-1.47850001	204	252	192
0.399569988	0.284610003	-1.47940004	204	252	192
0.397190005	0.284779996	-1.48020005	204	252	192
0.395139992	0.28512001	-1.48199999	204	252	192
0.39309001	0.285459995	-1.48380005	204	252	192
0.390370011	0.285439998	-1.48370004	204	252	192
0.391380012	0.287449986	-1.48619998	204	252	192
0.391039997	0.288749993	-1.48500001	204	252	192
0.38865	0.288910002	-1.48580003	204	252	192
0.38865	0.287429988	-1.48609996	204	252	192
0.386249989	0.289079994	-1.48660004	204	252	192
0.385589987	0.287230015	-1.48510003	204	252	192
0.382860005	0.287209988	-1.48500001	204	252	192
0.38319999	0.288879991	-1.48559999	204	252	192
0.382530004	0.285560012	-1.48430002	204	252	192
0.379810005	0.285540015	-1.4842	204	252	192
0.379810005	0.287010014	-1.48389995	204	252	192
0.379810005	0.288489997	-1.48360002	204	252	192
0.377420008	0.287169993	-1.48469996	204	252	192
0.37676999	0.285340011	-1.48319995	204	252	192
0.374379992	0.28696999	-1.48370004	204	252	192
0.371989995	0.287120014	-1.48450005	204	252	192
0.368950009	0.286920011	-1.48339999	204	252	192
0.365920007	0.286709994	-1.48239994	204	252	192
0.365130007	0.289249986	-1.48749995	204	252	192
0.363050014	0.289590001	-1.48930001	204	252	192
0.360020012	0.289380014	-1.48819995	204	252	192
0.357620001	0.289530009	-1.48899996	204	252	192
0.354909986	0.289499998	-1.48880005	204	252	192
0.351889998	0.289290011	-1.48769999	204	252	192
0.351260006	0.287440002	-1.48609996	204	252	192
0.353659987	0.287290007	-1.48539996	204	252	192
0.356359988	0.287319988	-1.48549998	204	252	192
0.349489987	0.289440006	-1.4885	204	252	192
0.346469998	0.289220005	-1.48740005	204	252	192
0.344379991	0.289550006	-1.48909998	204	252	192
0.342889994	0.291770011	-1.49230003	204	252	192
0.33987999	0.29155001	-1.49119997	204	252	192
0.341699988	0.294259995	-1.49650002	204	252	192
0.344720006	0.294479996	-1.49759996	204	252	192
0.347440004	0.294519991	-1.49779999	204	252	192
0.349849999	0.294369996	-1.49699998	204	252	192
0.352270007	0.294220001	-1.49629998	204	252	192
0.354680002	0.294059992	-1.49549997	204	252	192
0.356779993	0.29212001	-1.49409997	204	252	192
0.35374999	0.291900009	-1.49300003	204	252	192
0.351029992	0.291869998	-1.49290001	204	252	192
0.348930001	0.292199999	-1.49460006	204	252	192
0.346219987	0.292169988	-1.49440002	204	252	192
0.348560005	0.287409991	-1.48599994	204	252	192
0.35115999	0.282920003	-1.47850001	204	252	192
0.348159999	0.282709986	-1.47739995	204	252	192
0.347229987	0.280770004	-1.47479999	204	252	192
0.349599987	0.280629992	-1.47409999	204	252	192
0.351339996	0.280119985	-1.47140002	204	252	192
0.353709996	0.279980004	-1.47070003	204	252	192
0.353069991	0.278239995	-1.4691	204	252	192
0.355430007	0.278100014	-1.46829998	204	252	192
0.356070012	0.279830009	-1.46990001	204	252	192
0.358110011	0.278129995	-1.4684	204	252	192
0.359070003	0.280039996	-1.47099996	204	252	192
0.36175999	0.280059993	-1.47109997	204	252	192
0.361440003	0.278510004	-1.47049999	204	252	192
0.364769995	0.27888	-1.47249997	204	252	192
0.365090013	0.280449986	-1.47309995	204	252	192
0.365729988	0.282209992	-1.47469997	204	252	192
0.363359988	0.282359987	-1.47549999	204	252	192
0.360980004	0.282510012	-1.4763	204	252	192
0.357340008	0.281940013	-1.47329998	204	252	192
0.355280012	0.282270014	-1.47510004	204	252	192
0.352910012	0.282420009	-1.47580004	204	252	192
0.34454	0.282139987	-1.47440004	204	252	192
0.344229996	0.280559987	-1.47370005	204	252	192
0.341859996	0.282110006	-1.47420001	204	252	192
0.341250002	0.28035	-1.47259998	204	252	192
0.338569999	0.280310005	-1.47239995	204	252	192
0.339190006	0.282070011	-1.47399998	204	252	192
0.340330005	0.278430015	-1.47010005	204	252	192
0.337660015	0.278400004	-1.46990001	204	252	192
0.343309999	0.278640002	-1.47119999	204	252	192
0.345670015	0.278499991	-1.47039998	204	252	192
0.347719997	0.278180003	-1.46870005	204	252	192
0.350080013	0.278039992	-1.46800005	204	252	192
0.352129996	0.276259989	-1.46650004	204	252	192
0.354169995	0.275940001	-1.4648	204	252	192
0.356840014	0.275970012	-1.46500003	204	252	192
0.359189987	0.275819987	-1.46420002	204	252	192
0.360900015	0.273820013	-1.46179998	204	252	192
0.363570005	0.273849994	-1.46200001	204	252	192
0.365920007	0.273699999	-1.4612	204	252	192
0.365269989	0.271860003	-1.45959997	204	252	192
0.367940009	0.271880001	-1.4598	204	252	192
0.370609999	0.271910012	-1.45990002	204	252	192
0.371259987	0.273750007	-1.46150005	204	252	192
0.373279989	0.273420006	-1.45969999	204	252	192
0.373279989	0.271930009	-1.46000004	204	252	192
0.375290006	0.271600008	-1.45829999	204	252	192
0.375620008	0.273270011	-1.45889997	204	252	192
0.377629995	0.271450013	-1.45749998	204	252	192
0.379970014	0.271299988	-1.45659995	204	252	192
0.378960013	0.26929	-1.45410001	204	252	192
0.378289998	0.26749	-1.4526	204	252	192
0.380290002	0.267170012	-1.45079994	204	252	192
0.380959988	0.268970013	-1.45239997	204	252	192
0.376300007	0.269270003	-1.454	204	252	192
0.373959988	0.269419998	-1.45480001	204	252	192
0.371300012	0.269400001	-1.45469999	204	252	192
0.368310004	0.269210011	-1.45369995	204	252	192
0.367650002	0.267399997	-1.45210004	204	252	192
0.365319997	0.267549992	-1.45290005	204	252	192
0.363959998	0.26967001	-1.4562	204	252	192
0.361629993	0.269820005	-1.45700002	204	252	192
0.36195001	0.271479994	-1.4576	204	252	192
0.359290004	0.271459997	-1.45749998	204	252	192
0.356950015	0.271600008	-1.45829999	204	252	192
0.35492	0.271919996	-1.46000004	204	252	192
0.355560005	0.273770005	-1.46150005	204	252	192
0.357910007	0.273620009	-1.46080005	204	252	192
0.353210002	0.273909986	-1.46229994	204	252	192
0.352899998	0.272240013	-1.46169996	204	252	192
0.350230008	0.272210002	-1.46150005	204	252	192
0.35086	0.274060011	-1.46309996	204	252	192
0.348830014	0.275880009	-1.46449995	204	252	192
0.34709999	0.276369989	-1.46710002	204	252	192
0.344119996	0.276160002	-1.46599996	204	252	192
0.340840012	0.275779992	-1.46399999	204	252	192
0.338479996	0.275920004	-1.46469998	204	252	192
0.335519999	0.275709987	-1.46360004	204	252	192
0.339910001	0.273750007	-1.46150005	204	252	192
0.342570007	0.273779988	-1.46159995	204	252	192
0.344909996	0.273640007	-1.46089995	204	252	192
0.344289988	0.271800011	-1.45930004	204	252	192
0.346630007	0.27166	-1.45850003	204	252	192
0.34788999	0.273849994	-1.46200001	204	252	192
0.355989993	0.26958999	-1.45570004	204	252	192
0.358639985	0.269620001	-1.45589995	204	252	192
0.357349992	0.267470002	-1.45239997	204	252	192
0.359679997	0.267320007	-1.45169997	204	252	192
0.361680001	0.267010003	-1.44990003	204	252	192
0.355019987	0.267610013	-1.45319998	204	252	192
0.354449987	0.263040006	-1.44459999	204	252	192
0.351819992	0.263009995	-1.44439995	204	252	192
0.349180013	0.262980014	-1.44430006	204	252	192
0.346870005	0.263119996	-1.44500005	204	252	192
0.34424001	0.263080001	-1.44490004	204	252	192
0.345919997	0.26117	-1.4425	204	252	192
0.348230004	0.261029989	-1.44169998	204	252	192
0.350540012	0.260890007	-1.44099998	204	252	192
0.352840006	0.260749996	-1.44019997	204	252	192
0.355150014	0.260610014	-1.43939996	204	252	192
0.357450008	0.260470003	-1.43859994	204	252	192
0.35679999	0.258709997	-1.43700004	204	252	192
0.354180008	0.258679986	-1.43690002	204	252	192
0.352200001	0.25898999	-1.43859994	204	252	192
0.348930001	0.258619994	-1.43659997	204	252	192
0.346949995	0.258929998	-1.43830001	204	252	192
0.344330013	0.258899987	-1.43809998	204	252	192
0.342029989	0.259030014	-1.43879998	204	252	192
0.339410007	0.259000003	-1.43869996	204	252	192
0.336789995	0.258969992	-1.43850005	204	252	192
0.337110013	0.260560006	-1.43910003	204	252	192
0.33772999	0.262340009	-1.44079995	204	252	192
0.335110009	0.262300014	-1.44060004	204	252	192
0.334490001	0.260520011	-1.43900001	204	252	192
0.331259996	0.260149986	-1.43690002	204	252	192
0.329259992	0.260450006	-1.43859994	204	252	192
0.326649994	0.260419995	-1.43840003	204	252	192
0.324349999	0.260549992	-1.43910003	204	252	192
0.321740001	0.260509998	-1.43889999	204	252	192
0.321440011	0.25891	-1.4382	204	252	192
0.319440007	0.259209991	-1.43980002	204	252	192
0.319739997	0.260809988	-1.44050002	204	252	192
0.320340008	0.262589991	-1.44210005	204	252	192
0.322950006	0.262629986	-1.44229996	204	252	192
0.325260013	0.262499988	-1.44159997	204	252	192
0.328179985	0.262710005	-1.44280005	204	252	192
0.330799997	0.262739986	-1.44299996	204	252	192
0.333110005	0.262609988	-1.44219995	204	252	192
0.332029998	0.264869988	-1.44649994	204	252	192
0.329710007	0.265009999	-1.44719994	204	252	192
0.326480001	0.264620006	-1.44509995	204	252	192
0.32416001	0.264759988	-1.44579995	204	252	192
0.322140008	0.265060008	-1.44749999	204	252	192
0.319519997	0.265020013	-1.44729996	204	252	192
0.316909999	0.264979988	-1.44700003	204	252	192
0.316309988	0.263190001	-1.4454	204	252	192
0.316009998	0.26157999	-1.44480002	204	252	192
0.31832999	0.261449993	-1.44400001	204	252	192
0.31863001	0.263060004	-1.4447	204	252	192
0.316529989	0.259000003	-1.43869996	204	252	192
0.314229995	0.259130001	-1.43939996	204	252	192
0.309029996	0.260470003	-1.43859994	204	252	192
0.306430012	0.260419995	-1.43840003	204	252	192
0.303840011	0.26038	-1.43809998	204	252	192
0.303550005	0.258780003	-1.4375	204	252	192
0.303259999	0.257200003	-1.4368	204	252	192
0.300669998	0.258569986	-1.43630004	204	252	192
0.298649997	0.258859992	-1.43789995	204	252	192
0.296070009	0.258810014	-1.43760002	204	252	192
0.293760002	0.258929998	-1.43830001	204	252	192
0.291460007	0.259059995	-1.43900001	204	252	192
0.288879991	0.259000003	-1.43869996	204	252	192
0.289719999	0.260939986	-1.44130003	204	252	192
0.292309999	0.260989994	-1.44149995	204	252	192
0.295179993	0.261209995	-1.44280005	204	252	192
0.301530004	0.260500014	-1.43879998	204	252	192
0.297509998	0.256770015	-1.43439996	204	252	192
0.299510002	0.256480008	-1.43270004	204	252	192
0.296640009	0.254819989	-1.43180001	204	252	192
0.294349998	0.256379992	-1.43219995	204	252	192
0.29234001	0.256669998	-1.43379998	204	252	192
0.289770007	0.25661999	-1.43359995	204	252	192
0.287470013	0.256740004	-1.43420005	204	252	192
0.28490001	0.256689996	-1.4339	204	252	192
0.282880008	0.256969988	-1.43550003	204	252	192
0.279199988	0.254810005	-1.43169999	204	252	192
0.276910007	0.254920006	-1.43239999	204	252	192
0.274619997	0.255030006	-1.43299997	204	252	192
0.274619997	0.256469995	-1.43270004	204	252	192
0.272060007	0.256419986	-1.43239999	204	252	192
0.27098	0.254299998	-1.4289	204	252	192
0.26868999	0.255849987	-1.42929995	204	252	192
0.268150002	0.254079998	-1.42760003	204	252	192
0.267619997	0.252299994	-1.426	204	252	192
0.26989001	0.252189994	-1.42540002	204	252	192
0.271899998	0.25049001	-1.42400002	204	252	192
0.269080013	0.250270009	-1.42279994	204	252	192
0.266539991	0.250209987	-1.4224	204	252	192
0.264270008	0.250319988	-1.42309999	204	252	192
0.265069991	0.252240002	-1.42569995	204	252	192
0.265599996	0.254020005	-1.42729998	204	252	192
0.263319999	0.252689987	-1.42820001	204	252	192
0.264120013	0.254640013	-1.43079996	204	252	192
0.262349993	0.256529987	-1.43299997	204	252	192
0.265439987	0.256929994	-1.43529999	204	252	192
0.266240001	0.258850008	-1.43780005	204	252	192
0.263669997	0.2588	-1.4375	204	252	192
0.261110008	0.258740008	-1.43719995	204	252	192
0.259330004	0.260610014	-1.43939996	204	252	192
0.265520006	0.26286	-1.44360006	204	252	192
0.267830014	0.26275	-1.44299996	204	252	192
0.27094999	0.263150007	-1.44519997	204	252	192
0.272989988	0.262870014	-1.44369996	204	252	192
0.27531001	0.26275	-1.44299996	204	252	192
0.277619988	0.262629986	-1.44239998	204	252	192
0.271919996	0.260740012	-1.44009995	204	252	192
0.275979996	0.258740008	-1.43719995	204	252	192
0.276369989	0.253129989	-1.43069994	204	252	192
0.278649986	0.253019989	-1.43009996	204	252	192
0.281219989	0.254519999	-1.43009996	204	252	192
0.283499986	0.254409999	-1.42949998	204	252	192
0.285230011	0.25395	-1.42690003	204	252	192
0.288069993	0.254170001	-1.42809999	204	252	192
0.291209996	0.254559994	-1.4303	204	252	192
0.293500006	0.25444001	-1.4296	204	252	192
0.286659986	0.251890004	-1.42369998	204	252	192
0.283820003	0.251670003	-1.4224	204	252	192
0.28354001	0.250090003	-1.4217	204	252	192
0.285820007	0.249970004	-1.42110002	204	252	192
0.281269997	0.250200003	-1.4224	204	252	192
0.281830013	0.251949996	-1.42400002	204	252	192
0.279280007	0.251899987	-1.42369998	204	252	192
0.276450008	0.250259995	-1.42270005	204	252	192
0.27816999	0.249819994	-1.42019999	204	252	192
0.277889997	0.248249993	-1.41949999	204	252	192
0.275620013	0.248359993	-1.42019999	204	252	192
0.273629993	0.250039995	-1.42149997	204	252	192
0.27026999	0.24808	-1.41859996	204	252	192
0.268000007	0.248190001	-1.41919994	204	252	192
0.265729994	0.248300001	-1.41980004	204	252	192
0.27226001	0.247810006	-1.41700006	204	252	192
0.280440003	0.248300001	-1.41980004	204	252	192
0.2861	0.245839998	-1.41429996	204	252	192
0.273530006	0.252909988	-1.42949998	204	252	192
0.266939998	0.256300002	-1.43180001	204	252	192
0.323439986	0.25861001	-1.43649995	204	252	192
0.325430006	0.258320004	-1.43490005	204	252	192
0.32773	0.258179992	-1.43410003	204	252	192
0.330330014	0.258219987	-1.43429995	204	252	192
0.333249986	0.258430004	-1.43550003	204	252	192
0.334960014	0.265080005	-1.44760001	204	252	192
0.340979993	0.262710005	-1.44280005	204	252	192
0.340660006	0.261099994	-1.44210005	204	252	192
0.342970014	0.260960013	-1.44140005	204	252	192
0.346370012	0.254429996	-1.4296	204	252	192
0.348329991	0.254130006	-1.42789996	204	252	192
0.347689986	0.252350003	-1.42630005	204	252	192
0.349970013	0.252220005	-1.42550004	204	252	192
0.353219986	0.252579987	-1.42760003	204	252	192
0.353549987	0.254189998	-1.42820001	204	252	192
0.351260006	0.254330009	-1.42900002	204	252	192
0.354849994	0.250690013	-1.42519999	204	252	192
0.357120007	0.250550002	-1.42439997	204	252	192
0.359400004	0.250420004	-1.42359996	204	252	192
0.363279998	0.249809995	-1.42019999	204	252	192
0.365880013	0.249840006	-1.42030001	204	252	192
0.368829995	0.250019997	-1.42139995	204	252	192
0.37143001	0.250039995	-1.42149997	204	252	192
0.373710006	0.249899998	-1.42069995	204	252	192
0.376659989	0.250079989	-1.4217	204	252	192
0.379269987	0.250099987	-1.42180002	204	252	192
0.38154	0.249960005	-1.421	204	252	192
0.383810014	0.249809995	-1.42019999	204	252	192
0.386079997	0.249669999	-1.41939998	204	252	192
0.385729998	0.248099998	-1.41869998	204	252	192
0.38835001	0.248119995	-1.4188	204	252	192
0.39131999	0.248300001	-1.41980004	204	252	192
0.39357999	0.248150006	-1.41890001	204	252	192
0.395489991	0.247840002	-1.41719997	204	252	192
0.400730014	0.246409997	-1.41760004	204	252	192
0.401089996	0.248019993	-1.41820002	204	252	192
0.399540007	0.248500004	-1.42089999	204	252	192
0.404080003	0.248199999	-1.41919994	204	252	192
0.404080003	0.246739998	-1.41949999	204	252	192
0.405620009	0.246270001	-1.41680002	204	252	192
0.405259997	0.247559994	-1.41559994	204	252	192
0.407429993	0.249929994	-1.42089999	204	252	192
0.410420001	0.250099987	-1.42180002	204	252	192
0.412330002	0.249789998	-1.41999996	204	252	192
0.414959997	0.249789998	-1.42009997	204	252	192
0.41723001	0.249640003	-1.41919994	204	252	192
0.419869989	0.249640003	-1.41919994	204	252	192
0.419499993	0.24808	-1.41859996	204	252	192
0.422129989	0.24808	-1.41859996	204	252	192
0.422129989	0.249489993	-1.41830003	204	252	192
0.424769998	0.248089999	-1.41859996	204	252	192
0.427410007	0.248089999	-1.41859996	204	252	192
0.430799991	0.248410001	-1.42040002	204	252	192
0.43156001	0.250140011	-1.42200005	204	252	192
0.433450013	0.249819994	-1.42019999	204	252	192
0.436100006	0.249819994	-1.42019999	204	252	192
0.436100006	0.251230001	-1.41999996	204	252	192
0.434960008	0.247930005	-1.41770005	204	252	192
0.432319999	0.247930005	-1.41770005	204	252	192
0.43305999	0.245680004	-1.41340005	204	252	192
0.43531999	0.245529994	-1.41250002	204	252	192
0.43531999	0.246979997	-1.41219997	204	252	192
0.43531999	0.248370007	-1.41199994	204	252	192
0.437949985	0.245519996	-1.41250002	204	252	192
0.437570006	0.243880004	-1.41180003	204	252	192
0.439440012	0.243560001	-1.40999997	204	252	192
0.434170008	0.24357	-1.40999997	204	252	192
0.430429995	0.245680004	-1.41340005	204	252	192
0.428909987	0.250140011	-1.42200005	204	252	192
0.42662999	0.250290006	-1.42289996	204	252	192
0.42701	0.251870006	-1.42359996	204	252	192
0.424360007	0.251870006	-1.42359996	204	252	192
0.421350002	0.251700014	-1.42260003	204	252	192
0.41870001	0.251700014	-1.42260003	204	252	192
0.416790009	0.252020001	-1.42439997	204	252	192
0.414519995	0.252169997	-1.4253	204	252	192
0.414880008	0.253780007	-1.42589998	204	252	192
0.412239999	0.253769994	-1.42589998	204	252	192
0.409960002	0.253930002	-1.42680001	204	252	192
0.408399999	0.255849987	-1.42920005	204	252	192
0.406109989	0.256000012	-1.43009996	204	252	192
0.403820008	0.256159991	-1.43099999	204	252	192
0.401879996	0.256480008	-1.43270004	204	252	192
0.399589986	0.256630003	-1.43359995	204	252	192
0.397300005	0.256779999	-1.43439996	204	252	192
0.394300014	0.256599993	-1.43340003	204	252	192
0.39835	0.25869	-1.43700004	204	252	192
0.398699999	0.260280013	-1.43760002	204	252	192
0.401360005	0.26030001	-1.43770003	204	252	192
0.400649995	0.258540004	-1.43610001	204	252	192
0.404020011	0.258879989	-1.43799996	204	252	192
0.406320006	0.258729994	-1.43710005	204	252	192
0.407900006	0.258240014	-1.43439996	204	252	192
0.410560012	0.258249998	-1.43449998	204	252	192
0.413569987	0.258419991	-1.43550003	204	252	192
0.415509999	0.256680012	-1.4339	204	252	192
0.417800009	0.256529987	-1.43299997	204	252	192
0.420459986	0.256529987	-1.43309999	204	252	192
0.422749996	0.256370008	-1.43219995	204	252	192
0.425410002	0.256379992	-1.43219995	204	252	192
0.424299985	0.254449993	-1.42970002	204	252	192
0.421649992	0.25444001	-1.42970002	204	252	192
0.417890012	0.25395	-1.42690003	204	252	192
0.411509991	0.252000004	-1.42429996	204	252	192
0.40851	0.251830012	-1.42340004	204	252	192
0.399399996	0.252440006	-1.42680001	204	252	192
0.392199993	0.252730012	-1.42840004	204	252	192
0.385340005	0.256060004	-1.43040001	204	252	192
0.383399993	0.256370008	-1.43219995	204	252	192
0.381449997	0.256689996	-1.4339	204	252	192
0.381099999	0.255080014	-1.43330002	204	252	192
0.379150003	0.256830007	-1.43470001	204	252	192
0.376520008	0.256810009	-1.4346	204	252	192
0.375499994	0.254880011	-1.43210006	204	252	192
0.378129989	0.254900008	-1.43219995	204	252	192
0.382369995	0.25444001	-1.42970002	204	252	192
0.373210013	0.256460011	-1.43270004	204	252	192
0.372530013	0.254689991	-1.43110001	204	252	192
0.369910002	0.254669994	-1.43089998	204	252	192
0.367619991	0.254810005	-1.43169999	204	252	192
0.364659995	0.254619986	-1.43069994	204	252	192
0.362709999	0.25492999	-1.43239999	204	252	192
0.36304	0.25654	-1.43309999	204	252	192
0.360080004	0.256339997	-1.43200004	204	252	192
0.357789993	0.256480008	-1.43280005	204	252	192
0.359429985	0.254570007	-1.43040001	204	252	192
0.36206001	0.258760005	-1.43729997	204	252	192
0.359759986	0.258899987	-1.43809998	204	252	192
0.361059994	0.261000007	-1.44159997	204	252	192
0.361389995	0.262609988	-1.44219995	204	252	192
0.363370001	0.260859996	-1.44079995	204	252	192
0.36601001	0.260879993	-1.44089997	204	252	192
0.366670012	0.262659997	-1.4425	204	252	192
0.364360005	0.262800008	-1.44330001	204	252	192
0.369309992	0.262679994	-1.44260001	204	252	192
0.369309992	0.261240005	-1.44289994	204	252	192
0.371619999	0.261099994	-1.44210005	204	252	192
0.371289998	0.26236999	-1.44089997	204	252	192
0.373930007	0.260949999	-1.44130003	204	252	192
0.376239985	0.260800004	-1.44050002	204	252	192
0.378210008	0.259059995	-1.43900001	204	252	192
0.375230014	0.258879989	-1.43799996	204	252	192
0.373259991	0.259189993	-1.43970001	204	252	192
0.370620012	0.259169996	-1.43959999	204	252	192
0.368649989	0.25948	-1.44130003	204	252	192
0.365020007	0.258949995	-1.43840003	204	252	192
0.366659999	0.257059991	-1.43599999	204	252	192
0.368950009	0.25692001	-1.43519998	204	252	192
0.371250004	0.256770015	-1.43439996	204	252	192
0.358429998	0.262410015	-1.44120002	204	252	192
0.355800003	0.262389988	-1.44099998	204	252	192
0.374599993	0.262730002	-1.44289994	204	252	192
0.377249986	0.26275	-1.44299996	204	252	192
0.374630004	0.266959995	-1.4497	204	252	192
0.372970015	0.267450005	-1.45229995	204	252	192
0.369650006	0.267080009	-1.45029998	204	252	192
0.366629988	0.269699991	-1.45630002	204	252	192
0.366890013	0.27572	-1.46370006	204	252	192
0.364540011	0.275869995	-1.46449995	204	252	192
0.362509996	0.276199996	-1.46619999	204	252	192
0.369569987	0.275750011	-1.46379995	204	252	192
0.369899988	0.274419993	-1.46500003	204	252	192
0.372249991	0.275770009	-1.46399999	204	252	192
0.374269992	0.275449991	-1.46220005	204	252	192
0.376260012	0.277949989	-1.46749997	204	252	192
0.374550015	0.278450012	-1.47019994	204	252	192
0.374879986	0.280010015	-1.47080004	204	252	192
0.377579987	0.280030012	-1.47099996	204	252	192
0.372839987	0.280339986	-1.47259998	204	252	192
0.369819999	0.280140013	-1.47150004	204	252	192
0.369500011	0.27858001	-1.47090006	204	252	192
0.367130011	0.278730005	-1.47169995	204	252	192
0.36778	0.280470014	-1.47329998	204	252	192
0.368750006	0.282409996	-1.47580004	204	252	192
0.37112999	0.282260001	-1.47500002	204	252	192
0.371529996	0.278259993	-1.4691	204	252	192
0.412129998	0.256350011	-1.43200004	204	252	192
0.414660007	0.260340005	-1.43789995	204	252	192
0.412349999	0.260500014	-1.43879998	204	252	192
0.410409987	0.260829985	-1.44060004	204	252	192
0.408100009	0.26098001	-1.44149995	204	252	192
0.407739997	0.26225999	-1.44029999	204	252	192
0.405079991	0.262250006	-1.44019997	204	252	192
0.405079991	0.260809988	-1.44050002	204	252	192
0.403479993	0.262739986	-1.44289994	204	252	192
0.400819987	0.262730002	-1.44289994	204	252	192
0.399199992	0.263220012	-1.44560003	204	252	192
0.396890014	0.263370007	-1.44640005	204	252	192
0.397579998	0.265159994	-1.44799995	204	252	192
0.400249988	0.265170008	-1.44809997	204	252	192
0.402570009	0.265009999	-1.44719994	204	252	192
0.402350008	0.26910001	-1.45309997	204	252	192
0.405389994	0.269279987	-1.45410001	204	252	192
0.408069998	0.26929	-1.45410001	204	252	192
0.409700006	0.268790007	-1.45140004	204	252	192
0.41238001	0.26879999	-1.45150006	204	252	192
0.415069997	0.267340004	-1.45179999	204	252	192
0.417750001	0.267349988	-1.45179999	204	252	192
0.419360012	0.266849995	-1.44910002	204	252	192
0.421680003	0.266680002	-1.44819999	204	252	192
0.423999995	0.265069991	-1.44760001	204	252	192
0.426319987	0.264910012	-1.44669998	204	252	192
0.43096	0.264580011	-1.44490004	204	252	192
0.43513	0.268150002	-1.44799995	204	252	192
0.43355	0.270150006	-1.45039999	204	252	192
0.434289992	0.268999994	-1.4526	204	252	192
0.431950003	0.269169986	-1.45350003	204	252	192
0.429989994	0.269510001	-1.45529997	204	252	192
0.427289993	0.269499987	-1.45529997	204	252	192
0.425680012	0.271499991	-1.45770001	204	252	192
0.426039994	0.273169994	-1.45840001	204	252	192
0.428380013	0.273000002	-1.45749998	204	252	192
0.428750008	0.271679997	-1.45869994	204	252	192
0.431450009	0.271679997	-1.45869994	204	252	192
0.431450009	0.273169994	-1.45840001	204	252	192
0.433789998	0.273000002	-1.45749998	204	252	192
0.434159994	0.271679997	-1.45869994	204	252	192
0.434899986	0.27500999	-1.45990002	204	252	192
0.433649987	0.277150005	-1.46329999	204	252	192
0.434020013	0.275880009	-1.46449995	204	252	192
0.43276	0.278019994	-1.46790004	204	252	192
0.430400014	0.278189987	-1.46879995	204	252	192
0.42730999	0.278010011	-1.46790004	204	252	192
0.424950004	0.278180003	-1.46879995	204	252	192
0.422230005	0.278180003	-1.46870005	204	252	192
0.419160008	0.277999997	-1.46780002	204	252	192
0.41644001	0.277990013	-1.4677	204	252	192
0.414440006	0.278329998	-1.46949995	204	252	192
0.415499985	0.280239999	-1.472	204	252	192
0.417860001	0.280070007	-1.47119999	204	252	192
0.420590013	0.280079991	-1.47119999	204	252	192
0.423509985	0.276039988	-1.46539998	204	252	192
0.425870001	0.275869995	-1.46449995	204	252	192
0.427489996	0.275350004	-1.46169996	204	252	192
0.430209994	0.275359988	-1.46179998	204	252	192
0.423339993	0.273160011	-1.45829999	204	252	192
0.422980011	0.271499991	-1.45770001	204	252	192
0.422069997	0.273849994	-1.46200001	204	252	192
0.420439988	0.275860012	-1.46440005	204	252	192
0.417730004	0.275849998	-1.46440005	204	252	192
0.413599998	0.273660004	-1.46099997	204	252	192
0.412889987	0.271809995	-1.45940006	204	252	192
0.415230006	0.271649987	-1.45850003	204	252	192
0.41613999	0.269309998	-1.45420003	204	252	192
0.4102	0.271809995	-1.45940006	204	252	192
0.411610007	0.273990005	-1.46270001	204	252	192
0.431849986	0.283120006	-1.47160006	204	252	192
0.434579998	0.281670004	-1.47189999	204	252	192
0.434949994	0.280440003	-1.47309995	204	252	192
0.432940006	0.280790001	-1.47490001	204	252	192
0.432940006	0.282200009	-1.47469997	204	252	192
0.432980001	0.263080001	-1.43669999	204	252	192
0.435279995	0.26146999	-1.43599999	204	252	192
0.43720001	0.258289993	-1.43470001	204	252	192
0.436450005	0.25654	-1.43309999	204	252	192
0.433400005	0.256379992	-1.43219995	204	252	192
0.43531999	0.254619986	-1.43060005	204	252	192
0.437229991	0.254290015	-1.42879999	204	252	192
0.437599987	0.255890012	-1.42949998	204	252	192
0.433809996	0.252519995	-1.42729998	204	252	192
0.431529999	0.254130006	-1.42789996	204	252	192
0.428869992	0.254130006	-1.42789996	204	252	192
0.42622	0.254130006	-1.42789996	204	252	192
0.426589996	0.25571999	-1.42850006	204	252	192
0.430359989	0.256220013	-1.43130004	204	252	192
0.430669993	0.258940011	-1.43830001	204	252	192
0.428000003	0.258940011	-1.43830001	204	252	192
0.427630007	0.260199994	-1.43719995	204	252	192
0.430029988	0.252039999	-1.42449999	204	252	192
0.435339987	0.252039999	-1.42449999	204	252	192
0.419869989	0.264400005	-1.44389999	204	252	192
0.417189986	0.264389992	-1.44379997	204	252	192
0.414869994	0.26455	-1.4447	204	252	192
0.405339986	0.242170006	-1.40999997	204	252	192
0.401639998	0.241689995	-1.40719998	204	252	192
0.398680001	0.241520002	-1.40620005	204	252	192
0.395720005	0.241349995	-1.4052	204	252	192
0.393830001	0.24165	-1.40690005	204	252	192
0.390879989	0.241479993	-1.4059	204	252	192
0.393359989	0.245419994	-1.41190004	204	252	192
0.391110003	0.245570004	-1.41270006	204	252	192
0.388850003	0.24571	-1.41359997	204	252	192
0.385899991	0.245539993	-1.41260004	204	252	192
0.38398999	0.245839998	-1.41429996	204	252	192
0.38172999	0.245989993	-1.4152	204	252	192
0.379819989	0.246289998	-1.41690004	204	252	192
0.380510002	0.248070002	-1.41849995	204	252	192
0.382770002	0.247920007	-1.41770005	204	252	192
0.377900004	0.248050004	-1.41840005	204	252	192
0.377209991	0.246270001	-1.41680002	204	252	192
0.375290006	0.248030007	-1.41830003	204	252	192
0.372339994	0.247850001	-1.41719997	204	252	192
0.369740009	0.247830003	-1.41709995	204	252	192
0.367139995	0.247799993	-1.41700006	204	252	192
0.364540011	0.247779995	-1.41690004	204	252	192
0.361939996	0.247759998	-1.41670001	204	252	192
0.368719995	0.245890006	-1.41460001	204	252	192
0.37064001	0.245590001	-1.41289997	204	252	192
0.373919994	0.245930001	-1.41480005	204	252	192
0.378960013	0.241870001	-1.40820003	204	252	192
0.381199986	0.241730005	-1.40740001	204	252	192
0.368600011	0.241789997	-1.40779996	204	252	192
0.395969987	0.245440006	-1.41199994	204	252	192
0.41358	0.239969999	-1.40489995	204	252	192
0.416189998	0.239979997	-1.40489995	204	252	192
0.418799996	0.239979997	-1.40489995	204	252	192
0.345409989	0.252490014	-1.42709994	204	252	192
0.343120009	0.252620012	-1.42780006	204	252	192
0.343120009	0.254070014	-1.42760003	204	252	192
0.340519994	0.254040003	-1.42739999	204	252	192
0.336659998	0.251899987	-1.42369998	204	252	192
0.336030006	0.250149995	-1.42209995	204	252	192
0.334390014	0.250609994	-1.42470002	204	252	192
0.333680004	0.27166	-1.45860004	204	252	192
0.330729991	0.271450013	-1.45739996	204	252	192
0.323110014	0.271499991	-1.45770001	204	252	192
0.320769995	0.271640003	-1.45840001	204	252	192
0.318430007	0.27177	-1.45920002	204	252	192
0.316089988	0.271899998	-1.45990002	204	252	192
0.313160002	0.271679997	-1.45869994	204	252	192
0.31081	0.271809995	-1.45940006	204	252	192
0.311399996	0.273660004	-1.46099997	204	252	192
0.30934	0.273970008	-1.46259999	204	252	192
0.310200006	0.275999993	-1.46519995	204	252	192
0.307850003	0.276129991	-1.46589994	204	252	192
0.307850003	0.27463001	-1.46619999	204	252	192
0.305489987	0.276259989	-1.46659994	204	252	192
0.304349989	0.274049997	-1.46309996	204	252	192
0.301999986	0.275680006	-1.46350002	204	252	192
0.299930006	0.275990009	-1.46510005	204	252	192
0.293830007	0.273860008	-1.46200001	204	252	192
0.293830007	0.272359997	-1.46229994	204	252	192
0.291480005	0.273979992	-1.46270001	204	252	192
0.289130002	0.274109989	-1.46340001	204	252	192
0.285679996	0.273519993	-1.46019995	204	252	192
0.283609986	0.273820013	-1.46179998	204	252	192
0.280719995	0.273589998	-1.46060002	204	252	192
0.278100014	0.273530006	-1.46029997	204	252	192
0.277830005	0.271860003	-1.45959997	204	252	192
0.279909998	0.271560013	-1.45799994	204	252	192
0.281969994	0.271259993	-1.45640004	204	252	192
0.284859985	0.271499991	-1.45770001	204	252	192
0.287470013	0.27155	-1.45799994	204	252	192
0.290369987	0.271780014	-1.45920002	204	252	192
0.288980007	0.269410014	-1.45480001	204	252	192
0.291310012	0.269279987	-1.45410001	204	252	192
0.294209987	0.269510001	-1.45529997	204	252	192
0.296829998	0.269560009	-1.45560002	204	252	192
0.299160004	0.269430012	-1.45490003	204	252	192
0.301209986	0.269129992	-1.4533	204	252	192
0.303250015	0.268830001	-1.45159996	204	252	192
0.307889998	0.271589994	-1.45819998	204	252	192
0.312269986	0.275689989	-1.46350002	204	252	192
0.314909995	0.275739998	-1.46379995	204	252	192
0.314619988	0.274060011	-1.46309996	204	252	192
0.313430011	0.277859986	-1.46700001	204	252	192
0.31637001	0.278079987	-1.46819997	204	252	192
0.290479988	0.26730001	-1.45150006	204	252	192
0.288150012	0.267419994	-1.45220006	204	252	192
0.281800002	0.27579999	-1.4641	204	252	192
0.278910011	0.275559992	-1.46290004	204	252	192
0.276560009	0.275689989	-1.46350002	204	252	192
0.274210006	0.275810003	-1.4641	204	252	192
0.271589994	0.275750011	-1.46379995	204	252	192
0.269239992	0.275869995	-1.46449995	204	252	192
0.267140001	0.276160002	-1.46599996	204	252	192
0.267930001	0.273470014	-1.46000004	204	252	192
0.267659992	0.271800011	-1.45930004	204	252	192
0.270009995	0.271679997	-1.45869994	204	252	192
0.269739985	0.270009995	-1.45799994	204	252	192
0.272610009	0.270249993	-1.45930004	204	252	192
0.272879988	0.271919996	-1.46000004	204	252	192
0.273409992	0.273770005	-1.46159995	204	252	192
0.275759995	0.273649991	-1.46089995	204	252	192
0.274949998	0.271620005	-1.45840001	204	252	192
0.274949998	0.270130008	-1.45869994	204	252	192
0.270529985	0.273530006	-1.46029997	204	252	192
0.300099999	0.280559987	-1.47370005	204	252	192
0.297300011	0.284949988	-1.48109996	204	252	192
0.294910014	0.285079986	-1.48179996	204	252	192
0.303469986	0.287070006	-1.4842	204	252	192
0.305860013	0.286929995	-1.4835	204	252	192
0.308820009	0.287160009	-1.48469996	204	252	192
0.310350001	0.285019994	-1.48150003	204	252	192
0.312449992	0.284700006	-1.47979999	204	252	192
0.311580002	0.282700002	-1.47730005	204	252	192
0.309489995	0.283010006	-1.47889996	204	252	192
0.320760012	0.285019994	-1.48150003	204	252	192
0.323139995	0.284880012	-1.48080003	204	252	192
0.325819999	0.284920007	-1.48099995	204	252	192
0.328500003	0.284960002	-1.48119998	204	252	192
0.331479996	0.285180002	-1.48230004	204	252	192
0.334170014	0.285219997	-1.48249996	204	252	192
0.337159991	0.285430014	-1.48370004	204	252	192
0.332679987	0.287369996	-1.48580003	204	252	192
0.330579996	0.287690014	-1.48749995	204	252	192
0.327589989	0.28896001	-1.48599994	204	252	192
0.326999992	0.287110001	-1.48440003	204	252	192
0.325199991	0.289099991	-1.48679996	204	252	192
0.325789988	0.28797999	-1.48889995	204	252	192
0.32280001	0.289240003	-1.48749995	204	252	192
0.322219998	0.287389994	-1.48590004	204	252	192
0.320120007	0.289200008	-1.48730004	204	252	192
0.317719996	0.289339989	-1.48800004	204	252	192
0.315319985	0.289469987	-1.48870003	204	252	192
0.313210011	0.289790004	-1.49030006	204	252	192
0.313490003	0.291500002	-1.49100006	204	252	192
0.311369985	0.29181999	-1.49259996	204	252	192
0.308679998	0.291779995	-1.49240005	204	252	192
0.316179991	0.29155001	-1.49119997	204	252	192
0.318870008	0.291590005	-1.4914	204	252	192
0.321859986	0.29181999	-1.49259996	204	252	192
0.32427001	0.291680008	-1.49189997	204	252	192
0.326959997	0.291720003	-1.4921	204	252	192
0.329659998	0.291759998	-1.49230003	204	252	192
0.328429997	0.294250011	-1.49650002	204	252	192
0.325729996	0.294209987	-1.49619997	204	252	192
0.323890001	0.294719994	-1.49880004	204	252	192
0.321480006	0.294869989	-1.49960005	204	252	192
0.322050005	0.296759993	-1.50109994	204	252	192
0.319339991	0.296719998	-1.50090003	204	252	192
0.318769991	0.294820011	-1.4993	204	252	192
0.316630006	0.29666999	-1.5007	204	252	192
0.317490011	0.298629999	-1.50320005	204	252	192
0.315349996	0.298949987	-1.50489998	204	252	192
0.312920004	0.299089998	-1.50559998	204	252	192
0.309920013	0.298860013	-1.50440001	204	252	192
0.307220012	0.298810005	-1.50419998	204	252	192
0.30478999	0.298949987	-1.50479996	204	252	192
0.302630007	0.299270004	-1.50650001	204	252	192
0.300199986	0.299409986	-1.5072	204	252	192
0.301840007	0.301990002	-1.51250005	204	252	192
0.304289997	0.301849991	-1.51180005	204	252	192
0.306169987	0.301340014	-1.50929999	204	252	192
0.309450001	0.301770002	-1.51139998	204	252	192
0.311890006	0.30162999	-1.51069999	204	252	192
0.314330012	0.301490009	-1.50999999	204	252	192
0.31705001	0.301530004	-1.51020002	204	252	192
0.319779992	0.301580012	-1.51049995	204	252	192
0.32249999	0.301620007	-1.51069999	204	252	192
0.324939996	0.301479995	-1.50999999	204	252	192
0.327380002	0.30133	-1.50919998	204	252	192
0.33039999	0.301560014	-1.51040006	204	252	192
0.33070001	0.303339988	-1.51100004	204	252	192
0.328249991	0.303490013	-1.51170003	204	252	192
0.326099992	0.303820014	-1.51339996	204	252	192
0.32337001	0.303779989	-1.51320004	204	252	192
0.320919991	0.303920001	-1.51390004	204	252	192
0.31904	0.304439992	-1.5165	204	252	192
0.316020012	0.304210007	-1.51530004	204	252	192
0.31329	0.304159999	-1.5151	204	252	192
0.310279995	0.303920001	-1.51390004	204	252	192
0.308109999	0.304250002	-1.51549995	204	252	192
0.30539	0.304199994	-1.51530004	204	252	192
0.302659988	0.304149985	-1.51499999	204	252	192
0.299670011	0.303909987	-1.51380002	204	252	192
0.29885	0.306760013	-1.51989996	204	252	192
0.296389997	0.306899995	-1.52049994	204	252	192
0.293119997	0.306459993	-1.51839995	204	252	192
0.290399998	0.306410015	-1.51810002	204	252	192
0.28768	0.306349993	-1.51779997	204	252	192
0.285230011	0.30647999	-1.51849997	204	252	192
0.283289999	0.306989998	-1.52100003	204	252	192
0.284069985	0.309130013	-1.52349997	204	252	192
0.281349987	0.309069991	-1.52320004	204	252	192
0.27888	0.309199989	-1.52390003	204	252	192
0.276419997	0.309329987	-1.52450001	204	252	192
0.278369993	0.307260007	-1.5223	204	252	192
0.275400013	0.307000011	-1.52100003	204	252	192
0.280059993	0.306549996	-1.51880002	204	252	192
0.286799997	0.309190005	-1.52380002	204	252	192
0.289270014	0.309060007	-1.52320004	204	252	192
0.270260006	0.313690007	-1.53050005	204	252	192
0.267780006	0.313820004	-1.53120005	204	252	192
0.261839986	0.31182	-1.52890003	204	252	192
0.263819993	0.311300009	-1.52639997	204	252	192
0.258879989	0.311549991	-1.52760005	204	252	192
0.256399989	0.311679989	-1.52820003	204	252	192
0.253690004	0.311610013	-1.52789998	204	252	192
0.251450002	0.311919987	-1.52939999	204	252	192
0.24921	0.312240005	-1.53100002	204	252	192
0.249689996	0.314099997	-1.53260005	204	252	192
0.247439995	0.314420015	-1.53410006	204	252	192
0.252409995	0.314179987	-1.53289998	204	252	192
0.256089985	0.318040013	-1.53649998	204	252	192
0.259070009	0.318300009	-1.53779995	204	252	192
0.254319996	0.318749994	-1.53989995	204	252	192
0.251349986	0.318480015	-1.53859997	204	252	192
0.250259995	0.321319997	-1.54460001	204	252	192
0.24752	0.321240008	-1.54419994	204	252	192
0.245250002	0.321559995	-1.54579997	204	252	192
0.242280006	0.321289986	-1.54449999	204	252	192
0.239769995	0.32141	-1.54499996	204	252	192
0.237039998	0.321330011	-1.54470003	204	252	192
0.234760001	0.321640015	-1.54620004	204	252	192
0.232250005	0.321759999	-1.5467	204	252	192
0.229519993	0.321680009	-1.54630005	204	252	192
0.229959995	0.323619992	-1.54789996	204	252	192
0.227669999	0.323940009	-1.54939997	204	252	192
0.230849996	0.325989991	-1.55139995	204	252	192
0.228550002	0.326310009	-1.55289996	204	252	192
0.226239994	0.326629996	-1.55439997	204	252	192
0.233809993	0.326270014	-1.55280006	204	252	192
0.236780003	0.326559991	-1.55410004	204	252	192
0.239529997	0.32664001	-1.55449998	204	252	192
0.242280006	0.326709986	-1.55490005	204	252	192
0.244580001	0.326389998	-1.55330002	204	252	192
0.247099996	0.326270014	-1.55270004	204	252	192
0.250090003	0.326539993	-1.55410004	204	252	192
0.252609998	0.326420009	-1.55350006	204	252	192
0.255129993	0.326290011	-1.55289996	204	252	192
0.257420003	0.325969994	-1.55130005	204	252	192
0.260410011	0.326240003	-1.55260003	204	252	192
0.26293999	0.326110005	-1.55200005	204	252	192
0.265450001	0.325980008	-1.55139995	204	252	192
0.269010007	0.321420014	-1.54509997	204	252	192
0.271270007	0.321090013	-1.54349995	204	252	192
0.273270011	0.320560008	-1.54100001	204	252	192
0.270520002	0.318969995	-1.54100001	204	252	192
0.272520006	0.318450004	-1.53849995	204	252	192
0.275260001	0.318509996	-1.5388	204	252	192
0.278010011	0.318580002	-1.53910005	204	252	192
0.277249992	0.316469997	-1.53649998	204	252	192
0.279989988	0.316540003	-1.53690004	204	252	192
0.282480001	0.316399992	-1.53620005	204	252	192
0.285230011	0.316460013	-1.53649998	204	252	192
0.287459999	0.316130012	-1.53489995	204	252	192
0.29073	0.316579998	-1.53709996	204	252	192
0.293220013	0.31645	-1.53639996	204	252	192
0.295709997	0.316309988	-1.53569996	204	252	192
0.297930002	0.315970004	-1.53410006	204	252	192
0.300689995	0.316029996	-1.53439999	204	252	192
0.300419986	0.314350009	-1.53380001	204	252	192
0.303169996	0.314399987	-1.53400004	204	252	192
0.303440005	0.316080004	-1.53470004	204	252	192
0.30647999	0.316329986	-1.5359	204	252	192
0.308959991	0.316190004	-1.5352	204	252	192
0.311450005	0.316040009	-1.5345	204	252	192
0.314209998	0.316089988	-1.53470004	204	252	192
0.316980004	0.316139996	-1.53489995	204	252	192
0.319469988	0.316000015	-1.53419995	204	252	192
0.321949989	0.31584999	-1.53349996	204	252	192
0.324440002	0.315699995	-1.53279996	204	252	192
0.326920003	0.315549999	-1.53209996	204	252	192
0.326350003	0.313679993	-1.53050005	204	252	192
0.323579997	0.313630015	-1.53030002	204	252	192
0.320540011	0.3134	-1.52909994	204	252	192
0.318060011	0.313540012	-1.52980006	204	252	192
0.315310001	0.313490003	-1.52960002	204	252	192
0.315030009	0.311830014	-1.52900004	204	252	192
0.317220002	0.311489999	-1.5273	204	252	192
0.319689989	0.311349988	-1.5266	204	252	192
0.322450012	0.311390013	-1.52680004	204	252	192
0.321880013	0.309480011	-1.52530003	204	252	192
0.324059993	0.30915001	-1.52359998	204	252	192
0.323489994	0.307200015	-1.52199996	204	252	192
0.32565999	0.306870013	-1.52040005	204	252	192
0.325949997	0.308620006	-1.52100003	204	252	192
0.32841	0.306910008	-1.52059996	204	252	192
0.330870003	0.306769997	-1.51989996	204	252	192
0.330579996	0.308129996	-1.51859999	204	252	192
0.327829987	0.308090001	-1.51839995	204	252	192
0.333330005	0.306620002	-1.51909995	204	252	192
0.336080015	0.306659997	-1.51929998	204	252	192
0.336670011	0.308600008	-1.52090001	204	252	192
0.334199995	0.308750004	-1.52160001	204	252	192
0.332029998	0.310609996	-1.523	204	252	192
0.329569995	0.310759991	-1.5237	204	252	192
0.327679992	0.311289996	-1.52629995	204	252	192
0.325199991	0.311439991	-1.52699995	204	252	192
0.328539997	0.313340008	-1.52880001	204	252	192
0.33129999	0.313380003	-1.52900004	204	252	192
0.333779991	0.313230008	-1.52830005	204	252	192
0.336840004	0.313459992	-1.52939999	204	252	192
0.33930999	0.313309997	-1.52869999	204	252	192
0.342079997	0.313349992	-1.52890003	204	252	192
0.344559997	0.313190013	-1.52810001	204	252	192
0.343959987	0.311340004	-1.5266	204	252	192
0.346430004	0.311190009	-1.52579999	204	252	192
0.346430004	0.309659988	-1.52610004	204	252	192
0.3486	0.309309989	-1.5244	204	252	192
0.3486	0.310840011	-1.52409995	204	252	192
0.351370007	0.310869992	-1.52429998	204	252	192
0.350769997	0.308970004	-1.52269995	204	252	192
0.35323	0.308809996	-1.52199996	204	252	192
0.355390012	0.308470011	-1.52030003	204	252	192
0.354770005	0.306529999	-1.5187	204	252	192
0.352010012	0.306499988	-1.51849997	204	252	192
0.349559993	0.306650013	-1.51929998	204	252	192
0.346199989	0.306239992	-1.51730001	204	252	192
0.343739986	0.306389987	-1.51800001	204	252	192
0.340990007	0.306360006	-1.51779997	204	252	192
0.339130014	0.306890011	-1.52049994	204	252	192
0.340009987	0.309009999	-1.523	204	252	192
0.337839991	0.310880005	-1.52429998	204	252	192
0.335079998	0.310840011	-1.52409995	204	252	192
0.340900004	0.31110999	-1.52540004	204	252	192
0.34307	0.309240013	-1.52409995	204	252	192
0.347629994	0.313419998	-1.52929997	204	252	192
0.350410014	0.313459992	-1.52939999	204	252	192
0.353789985	0.313870013	-1.53149998	204	252	192
0.356570005	0.313910007	-1.5316	204	252	192
0.359050006	0.313749999	-1.53079998	204	252	192
0.359670013	0.315620005	-1.53240001	204	252	192
0.362450004	0.314159989	-1.53289998	204	252	192
0.362760007	0.315840006	-1.53349996	204	252	192
0.364939988	0.31400001	-1.53209996	204	252	192
0.367419988	0.313840002	-1.53129995	204	252	192
0.369899988	0.313670009	-1.53050005	204	252	192
0.372689992	0.313699991	-1.53059995	204	252	192
0.375479996	0.313730001	-1.53069997	204	252	192
0.366180003	0.3116	-1.52789998	204	252	192
0.365240008	0.309500009	-1.52540004	204	252	192
0.362769991	0.311190009	-1.52579999	204	252	192
0.360000014	0.311159998	-1.52569997	204	252	192
0.35690999	0.310939997	-1.52460003	204	252	192
0.355049998	0.311479986	-1.5273	204	252	192
0.358770013	0.308880001	-1.5223	204	252	192
0.36153999	0.308910012	-1.52240002	204	252	192
0.360300004	0.306589991	-1.51900005	204	252	192
0.362760007	0.306439996	-1.51820004	204	252	192
0.366149992	0.306840003	-1.52020001	204	252	192
0.368919998	0.306870013	-1.52040005	204	252	192
0.372009993	0.307080001	-1.52139997	204	252	192
0.373840004	0.306540012	-1.51880002	204	252	192
0.375970006	0.306190014	-1.51699996	204	252	192
0.378749996	0.306219995	-1.51719999	204	252	192
0.381839991	0.306430012	-1.51820004	204	252	192
0.384620011	0.306450009	-1.51830006	204	252	192
0.387080014	0.306279987	-1.51750004	204	252	192
0.385450006	0.303770006	-1.51320004	204	252	192
0.382679999	0.303750008	-1.51300001	204	252	192
0.379909992	0.303730011	-1.51289999	204	252	192
0.377139986	0.3037	-1.51279998	204	252	192
0.37470001	0.303869992	-1.51359999	204	252	192
0.372249991	0.304030001	-1.51440001	204	252	192
0.371619999	0.302060008	-1.51289999	204	252	192
0.373739988	0.301719993	-1.51119995	204	252	192
0.376179993	0.301560014	-1.51040006	204	252	192
0.377979994	0.301019996	-1.50769997	204	252	192
0.380409986	0.300859988	-1.50689995	204	252	192
0.383170009	0.300880015	-1.50699997	204	252	192
0.385930002	0.300900012	-1.50709999	204	252	192
0.385280013	0.299080014	-1.50549996	204	252	192
0.388359994	0.299279988	-1.50650001	204	252	192
0.391790003	0.299670011	-1.50849998	204	252	192
0.392120004	0.301310003	-1.50909996	204	252	192
0.389679998	0.301479995	-1.50999999	204	252	192
0.39034	0.303440005	-1.5115	204	252	192
0.387569994	0.303420007	-1.51139998	204	252	192
0.393110007	0.303460002	-1.51160002	204	252	192
0.393559992	0.299140006	-1.50580001	204	252	192
0.395990014	0.298970014	-1.505	204	252	192
0.398750007	0.298979998	-1.505	204	252	192
0.403210014	0.301369995	-1.50940001	204	252	192
0.405640006	0.301200002	-1.5086	204	252	192
0.408760011	0.301400006	-1.50960004	204	252	192
0.417800009	0.303380013	-1.51119995	204	252	192
0.420929998	0.303579986	-1.5122	204	252	192
0.416379988	0.304120004	-1.51489997	204	252	192
0.395740002	0.294420004	-1.49730003	204	252	192
0.398149997	0.294250011	-1.4964	204	252	192
0.400559992	0.294090003	-1.49559999	204	252	192
0.402630001	0.293740004	-1.49380004	204	252	192
0.401950002	0.291759998	-1.49230003	204	252	192
0.399210006	0.291750014	-1.49220002	204	252	192
0.396800011	0.291909993	-1.49310005	204	252	192
0.393720001	0.291720003	-1.4921	204	252	192
0.390980005	0.291700006	-1.49199998	204	252	192
0.388579994	0.291860014	-1.4928	204	252	192
0.386500001	0.293819994	-1.49430001	204	252	192
0.384750009	0.294349998	-1.49689996	204	252	192
0.381999999	0.294330001	-1.49679995	204	252	192
0.378289998	0.293760002	-1.49389994	204	252	192
0.375230014	0.293550014	-1.49290001	204	252	192
0.37281999	0.293709993	-1.49370003	204	252	192
0.372180015	0.29174	-1.49220002	204	252	192
0.36976999	0.291889995	-1.49300003	204	252	192
0.366719991	0.291680008	-1.49189997	204	252	192
0.36432001	0.291839987	-1.49269998	204	252	192
0.362540007	0.292360008	-1.49530005	204	252	192
0.360130012	0.292510003	-1.49609995	204	252	192
0.360760003	0.29449001	-1.49769998	204	252	192
0.358339995	0.294649988	-1.49839997	204	252	192
0.363169998	0.294340014	-1.49689996	204	252	192
0.365590006	0.294180006	-1.49609995	204	252	192
0.368640006	0.294389993	-1.49720001	204	252	192
0.371369988	0.294420004	-1.49730003	204	252	192
