-0.963	-0.653110027	-1.23529994	9	47	172
-0.964139998	-0.652939975	-1.23730004	9	47	172
-0.964139998	-0.651799977	-1.23790002	9	47	172
-0.964699984	-0.651049972	-1.2392	9	47	172
-0.96746999	-0.651859999	-1.23800004	9	47	172
-0.96746999	-0.652999997	-1.23740005	9	47	172
-0.966329992	-0.65316999	-1.23539996	9	47	172
-0.965759993	-0.653900027	-1.23409998	9	47	172
-0.966329992	-0.655390024	-1.2342	9	47	172
-0.964139998	-0.65704	-1.23510003	9	47	172
-0.963	-0.655319989	-1.23409998	9	47	172
-0.960730016	-0.652689993	-1.23179996	9	47	172
-0.960730016	-0.656700015	-1.22969997	9	47	172
-0.962339997	-0.656639993	-1.22710001	9	47	172
-0.962909997	-0.658969998	-1.22669995	9	47	172
-0.964519978	-0.656899989	-1.22520006	9	47	172
-0.965659976	-0.656700015	-1.22720003	9	47	172
-0.966239989	-0.656050026	-1.22839999	9	47	172
-0.964049995	-0.656759977	-1.22979999	9	47	172
-0.967949986	-0.656180024	-1.23119998	9	47	172
-0.971279979	-0.656229973	-1.2313	9	47	172
-0.971849978	-0.657649994	-1.23140001	9	47	172
-0.97070998	-0.658890009	-1.22889996	9	47	172
-0.97070998	-0.659870028	-1.22839999	9	47	172
-0.970130026	-0.65753001	-1.22870004	9	47	172
-0.967379987	-0.659810007	-1.22829998	9	47	172
-0.967379987	-0.660769999	-1.22780001	9	47	172
-0.968990028	-0.659659982	-1.22570002	9	47	172
-0.967840016	-0.659829974	-1.22379994	9	47	172
-0.968420029	-0.661159992	-1.22399998	9	47	172
-0.967840016	-0.661710024	-1.2227	9	47	172
-0.966700017	-0.661800027	-1.22080004	9	47	172
-0.965560019	-0.66188997	-1.21889997	9	47	172
-0.964410007	-0.662020028	-1.21700001	9	47	172
-0.963840008	-0.662530005	-1.21580005	9	47	172
-0.964980006	-0.664099991	-1.21679997	9	47	172
-0.962239981	-0.661830008	-1.21879995	9	47	172
-0.963949978	-0.660319984	-1.22239995	9	47	172
-0.965659976	-0.662429988	-1.22409999	9	47	172
-0.960529983	-0.657050014	-1.21860003	9	47	172
-0.95551002	-0.652949989	-1.21780002	9	47	172
-0.954940021	-0.656350017	-1.21510005	9	47	172
-0.950049996	-0.656449974	-1.21749997	9	47	172
-0.946749985	-0.655420005	-1.21780002	9	47	172
-0.944490016	-0.652909994	-1.21539998	9	47	172
-0.942330003	-0.647759974	-1.21990001	9	47	172
-0.944580019	-0.650240004	-1.22230005	9	47	172
-0.943359971	-0.640940011	-1.21990001	9	47	172
-0.940069973	-0.639750004	-1.22039998	9	47	172
-0.938839972	-0.635649979	-1.21529996	9	47	172
-0.940419972	-0.639949977	-1.21039999	9	47	172
-0.940419972	-0.643050015	-1.20879996	9	47	172
-0.935450017	-0.640869975	-1.2069	9	47	172
-0.939719975	-0.643369973	-1.20229995	9	47	172
-0.935890019	-0.647589982	-1.19879997	9	47	172
-0.936309993	-0.647490025	-1.19439995	9	47	172
-0.938430011	-0.650950015	-1.19089997	9	47	172
-0.942669988	-0.652010024	-1.18690002	9	47	172
-0.946099997	-0.653670013	-1.19159997	9	47	172
-0.948390007	-0.65346998	-1.19550002	9	47	172
-0.946829975	-0.650390029	-1.19980001	9	47	172
-0.948679984	-0.65298003	-1.20659995	9	47	172
-0.95152998	-0.652140021	-1.21169996	9	47	172
-0.95164001	-0.660749972	-1.21249998	9	47	172
-0.95164001	-0.662310004	-1.21169996	9	47	172
-0.948350012	-0.665470004	-1.20969999	9	47	172
-0.947210014	-0.66624999	-1.20739996	9	47	172
-0.947780013	-0.667349994	-1.20780003	9	47	172
-0.948909998	-0.668850005	-1.20879996	9	47	172
-0.948909998	-0.669589996	-1.20840001	9	47	172
-0.949479997	-0.671469986	-1.20829999	9	47	172
-0.950049996	-0.673799992	-1.20799994	9	47	172
-0.952210009	-0.673799992	-1.20630002	9	47	172
-0.952780008	-0.67347002	-1.20739996	9	47	172
-0.952210009	-0.671150029	-1.20770001	9	47	172
-0.952780008	-0.669330001	-1.20969999	9	47	172
-0.95164001	-0.66711998	-1.20899999	9	47	172
-0.951080024	-0.667429984	-1.20790005	9	47	172
-0.954370022	-0.666010022	-1.20889997	9	47	172
-0.956080019	-0.667990029	-1.21060002	9	47	172
-0.95551002	-0.66900003	-1.20910001	9	47	172
-0.95551002	-0.671220005	-1.20790005	9	47	172
-0.957099974	-0.67009002	-1.20580006	9	47	172
-0.957099974	-0.669350028	-1.2062	9	47	172
-0.955389977	-0.670220017	-1.20290005	9	47	172
-0.955389977	-0.670809984	-1.2026	9	47	172
-0.955389977	-0.672819972	-1.20150006	9	47	172
-0.956529975	-0.673049986	-1.20319998	9	47	172
-0.958249986	-0.673539996	-1.20580006	9	47	172
-0.960409999	-0.673510015	-1.20410001	9	47	172
-0.95551002	-0.673870027	-1.20640004	9	47	172
-0.957099974	-0.677519977	-1.20169997	9	47	172
-0.957099974	-0.678009987	-1.20140004	9	47	172
-0.959259987	-0.677269995	-1.20009995	9	47	172
-0.955829978	-0.670889974	-1.19799995	9	47	172
-0.953540027	-0.669860005	-1.19490004	9	47	172
-0.953540027	-0.667999983	-1.19589996	9	47	172
-0.954249978	-0.668820024	-1.20179999	9	47	172
-0.957549989	-0.66948998	-1.20159996	9	47	172
-0.959389985	-0.668760002	-1.21029997	9	47	172
-0.957220018	-0.66948998	-1.21159995	9	47	172
-0.956650019	-0.666809976	-1.21220005	9	47	172
-0.954479992	-0.66753	-1.21350002	9	47	172
-0.951269984	-0.66573	-1.2198	9	47	172
-0.949090004	-0.66644001	-1.22109997	9	47	172
-0.939740002	-0.663969994	-1.22280002	9	47	172
-0.938619971	-0.664099991	-1.22080004	9	47	172
-0.947780013	-0.669529974	-1.20659995	9	47	172
-0.947210014	-0.670599997	-1.20500004	9	47	172
-0.93848002	-0.667500019	-1.20799994	9	47	172
-0.937919974	-0.667800009	-1.2069	9	47	172
-0.937439978	-0.672659993	-1.20869994	9	47	172
-0.933589995	-0.672169983	-1.20780003	9	47	172
-0.931429982	-0.669929981	-1.21080005	9	47	172
-0.928139985	-0.668410003	-1.21140003	9	47	172
-0.92869997	-0.668030024	-1.21249998	9	47	172
-0.92869997	-0.667240024	-1.21300006	9	47	172
-0.927590013	-0.668720007	-1.21019995	9	47	172
-0.927590013	-0.669420004	-1.20990002	9	47	172
-0.927030027	-0.669759989	-1.20869994	9	47	172
-0.924870014	-0.666729987	-1.21200001	9	47	172
-0.925419986	-0.665690005	-1.21360004	9	47	172
-0.923810005	-0.669019997	-1.21430004	9	47	172
-0.91997999	-0.66851002	-1.21340001	9	47	172
-0.919380009	-0.668739974	-1.2069	9	47	172
-0.91772002	-0.668259978	-1.20430005	9	47	172
-0.950389981	-0.660139978	-1.20550001	9	47	172
-0.948239982	-0.659169972	-1.20780003	9	47	172
-0.95253998	-0.661729991	-1.20290005	9	47	172
-0.949679971	-0.663439989	-1.19729996	9	47	172
-0.947399974	-0.661119998	-1.19480002	9	47	172
-0.949540019	-0.661859989	-1.19270003	9	47	172
-0.948960006	-0.664089978	-1.19060004	9	47	172
-0.946399987	-0.658969998	-1.19959998	9	47	172
-0.942990005	-0.655879974	-1.19570005	9	47	172
-0.942680001	-0.653209984	-1.20710003	9	47	172
-0.928240001	-0.635919988	-1.20280004	9	47	172
-0.926549971	-0.632730007	-1.20169997	9	47	172
-0.929799974	-0.637920022	-1.19910002	9	47	172
-0.961769998	-0.65417999	-1.22739995	9	47	172
-0.968519986	-0.65358001	-1.2335	9	47	172
-0.969089985	-0.652849972	-1.23479998	9	47	172
-0.969659984	-0.652289987	-1.23599994	9	47	172
-0.972419977	-0.651960015	-1.23539996	9	47	172
-0.973569989	-0.653670013	-1.23640001	9	47	172
-0.974139988	-0.656270027	-1.23590004	9	47	172
-0.972989976	-0.65644002	-1.23399997	9	47	172
-0.970799983	-0.657159984	-1.23529994	9	47	172
-0.970799983	-0.656210005	-1.23580003	9	47	172
-0.968039989	-0.657490015	-1.23590004	9	47	172
-0.971849978	-0.653630018	-1.23360002	9	47	172
-0.971369982	-0.652289987	-1.23880005	9	47	172
-0.969739974	-0.652260005	-1.24150002	9	47	172
-0.969179988	-0.650749981	-1.24129999	9	47	172
-0.969739974	-0.649990022	-1.24269998	9	47	172
-0.969739974	-0.64884001	-1.24329996	9	47	172
-0.967540026	-0.649540007	-1.24460006	9	47	172
-0.966409981	-0.64993	-1.24259996	9	47	172
-0.96697998	-0.651449978	-1.24269998	9	47	172
-0.964209974	-0.651780009	-1.24329996	9	47	172
-0.963639975	-0.649100006	-1.24380004	9	47	172
-0.96250999	-0.649479985	-1.24170005	9	47	172
-0.959179997	-0.650560021	-1.24100006	9	47	172
-0.957480013	-0.647130013	-1.24000001	9	47	172
-0.965910017	-0.649580002	-1.24720001	9	47	172
-0.965910017	-0.648289979	-1.24790001	9	47	172
-0.969250023	-0.64835	-1.24800003	9	47	172
-0.969250023	-0.649640024	-1.24730003	9	47	172
-0.971449971	-0.647650003	-1.24670005	9	47	172
-0.972590029	-0.647230029	-1.24870002	9	47	172
-0.973730028	-0.646920025	-1.2507	9	47	172
-0.973730028	-0.645579994	-1.25139999	9	47	172
-0.974300027	-0.644739985	-1.25279999	9	47	172
-0.977079988	-0.645630002	-1.25150001	9	47	172
-0.978219986	-0.647719979	-1.25230002	9	47	172
-0.980430007	-0.648079991	-1.25039995	9	47	172
-0.981580019	-0.647769988	-1.25240004	9	47	172
-0.980430007	-0.64568001	-1.25160003	9	47	172
-0.978789985	-0.645539999	-1.25440001	9	47	172
-0.976010025	-0.644789994	-1.25549996	9	47	172
-0.979929984	-0.644020021	-1.25699997	9	47	172
-0.980499983	-0.645590007	-1.25709999	9	47	172
-0.982720017	-0.645959973	-1.25520003	9	47	172
-0.982720017	-0.64368999	-1.25629997	9	47	172
-0.983290017	-0.642759979	-1.25769997	9	47	172
-0.984440029	-0.642180026	-1.25989997	9	47	172
-0.984440029	-0.640959978	-1.26049995	9	47	172
-0.984440029	-0.646009982	-1.2579	9	47	172
-0.979359984	-0.642350018	-1.25689995	9	47	172
-0.976509988	-0.647660017	-1.24960005	9	47	172
-0.979290009	-0.648509979	-1.24829996	9	47	172
-0.978139997	-0.64903003	-1.24619997	9	47	172
-0.979290009	-0.651989996	-1.24650002	9	47	172
-0.979860008	-0.651220024	-1.24779999	9	47	172
-0.976429999	-0.651239991	-1.24230003	9	47	172
-0.975279987	-0.651600003	-1.24020004	9	47	172
-0.974709988	-0.652350008	-1.23889995	9	47	172
-0.97250998	-0.65079999	-1.2414	9	47	172
-0.973079979	-0.650039971	-1.2428	9	47	172
-0.973659992	-0.649269998	-1.24409997	9	47	172
-0.974229991	-0.648609996	-1.24539995	9	47	172
-0.974229991	-0.647329986	-1.24600005	9	47	172
-0.972590029	-0.649689972	-1.24749994	9	47	172
-0.970380008	-0.647930026	-1.25010002	9	47	172
-0.970950007	-0.647239983	-1.25139999	9	47	172
-0.974229991	-0.653079987	-1.24300003	9	47	172
-0.932860017	-0.672100008	-1.19599998	9	47	172
-0.914460003	-0.676789999	-1.19920003	9	47	172
-0.914460003	-0.677330017	-1.19889998	9	47	172
-0.911199987	-0.677209973	-1.19869995	9	47	172
-0.912249982	-0.679040015	-1.19410002	9	47	172
-0.914399981	-0.68265003	-1.1904	9	47	172
-0.914399981	-0.68423003	-1.18949997	9	47	172
-0.913839996	-0.683820009	-1.18879998	9	47	172
-0.913290024	-0.683399975	-1.18809998	9	47	172
-0.913290024	-0.683990002	-1.18770003	9	47	172
-0.912180007	-0.684239984	-1.18570006	9	47	172
-0.914319992	-0.68374002	-1.18429995	9	47	172
-0.914319992	-0.683709979	-1.18429995	9	47	172
-0.914879978	-0.684130013	-1.18499994	9	47	172
-0.914879978	-0.684149981	-1.18499994	9	47	172
-0.914879978	-0.683950007	-1.18519998	9	47	172
-0.914879978	-0.683369994	-1.18550003	9	47	172
-0.914879978	-0.683290005	-1.18550003	9	47	172
-0.91535002	-0.681469977	-1.18210006	9	47	172
-0.91535002	-0.681599975	-1.18200004	9	47	172
-0.91535002	-0.681720018	-1.18190002	9	47	172
-0.91535002	-0.681909978	-1.18180001	9	47	172
-0.91535002	-0.680320024	-1.18270004	9	47	172
-0.914789975	-0.679899991	-1.18200004	9	47	172
-0.914240003	-0.67948997	-1.18130004	9	47	172
-0.914240003	-0.680980027	-1.18040001	9	47	172
-0.916369975	-0.680270016	-1.17920005	9	47	172
-0.916369975	-0.678780019	-1.17999995	9	47	172
-0.919610023	-0.68058002	-1.17929995	9	47	172
-0.920170009	-0.681129992	-1.17990005	9	47	172
-0.909969985	-0.679859996	-1.18429995	9	47	172
-0.912180007	-0.680700004	-1.18770003	9	47	172
-0.907760024	-0.680739999	-1.17999995	9	47	172
-0.918129981	-0.674719989	-1.19070005	9	47	172
-0.918690026	-0.673579991	-1.19229996	9	47	172
-0.921469986	-0.681770027	-1.19239998	9	47	172
-0.904690027	-0.678520024	-1.19739997	9	47	172
-0.901960015	-0.677829981	-1.19299996	9	47	172
-0.901409984	-0.677829981	-1.19200003	9	47	172
-0.901409984	-0.678229988	-1.1918	9	47	172
-0.896019995	-0.674009979	-1.19550002	9	47	172
-0.894389987	-0.666719973	-1.19669998	9	47	172
-0.893299997	-0.678749979	-1.18799996	9	47	172
-0.891160011	-0.681020021	-1.1882	9	47	172
-0.890070021	-0.68046999	-1.18659997	9	47	172
-0.890070021	-0.680989981	-1.18630004	9	47	172
-0.890070021	-0.68204999	-1.18570006	9	47	172
-0.889530003	-0.681630015	-1.18499994	9	47	172
-0.889530003	-0.681379974	-1.18509996	9	47	172
-0.889530003	-0.682210028	-1.18470001	9	47	172
-0.889530003	-0.682569981	-1.18449998	9	47	172
-0.888989985	-0.682370007	-1.18359995	9	47	172
-0.888989985	-0.682709992	-1.18340003	9	47	172
-0.888989985	-0.681850016	-1.1839	9	47	172
-0.888989985	-0.681789994	-1.1839	9	47	172
-0.888989985	-0.681469977	-1.18410003	9	47	172
-0.888989985	-0.681209981	-1.18429995	9	47	172
-0.888440013	-0.680840015	-1.18350005	9	47	172
-0.888440013	-0.680790007	-1.18350005	9	47	172
-0.887899995	-0.680369973	-1.18280005	9	47	172
-0.887899995	-0.68107003	-1.18239999	9	47	172
-0.887899995	-0.681159973	-1.18239999	9	47	172
-0.887359977	-0.680840015	-1.18159997	9	47	172
-0.887359977	-0.680540025	-1.18169999	9	47	172
-0.887359977	-0.679949999	-1.18210006	9	47	172
-0.886810005	-0.679539979	-1.18139994	9	47	172
-0.886810005	-0.680060029	-1.18110001	9	47	172
-0.886269987	-0.679729998	-1.1803	9	47	172
-0.886269987	-0.679700017	-1.1803	9	47	172
-0.886269987	-0.680130005	-1.17999995	9	47	172
-0.886269987	-0.680209994	-1.17999995	9	47	172
-0.886269987	-0.68039	-1.17990005	9	47	172
-0.886269987	-0.680509984	-1.17980003	9	47	172
-0.886269987	-0.680630028	-1.17980003	9	47	172
-0.886810005	-0.681339979	-1.1803	9	47	172
-0.886810005	-0.681379974	-1.1803	9	47	172
-0.887359977	-0.681800008	-1.18099999	9	47	172
-0.887359977	-0.681810021	-1.18099999	9	47	172
-0.887359977	-0.681710005	-1.18110001	9	47	172
-0.887359977	-0.681649983	-1.18110001	9	47	172
-0.887359977	-0.681590021	-1.18110001	9	47	172
-0.887359977	-0.681200027	-1.18139994	9	47	172
-0.887899995	-0.682169974	-1.18180001	9	47	172
-0.887899995	-0.682219982	-1.18169999	9	47	172
-0.888440013	-0.682569981	-1.1825	9	47	172
-0.888440013	-0.682619989	-1.1825	9	47	172
-0.889530003	-0.683499992	-1.1839	9	47	172
-0.890070021	-0.683920026	-1.1846	9	47	172
-0.890619993	-0.684220016	-1.18540001	9	47	172
-0.891160011	-0.683669984	-1.18669999	9	47	172
-0.891160011	-0.682879984	-1.18719995	9	47	172
-0.890619993	-0.682470024	-1.18640006	9	47	172
-0.890619993	-0.682720006	-1.18630004	9	47	172
-0.890619993	-0.682910025	-1.18620002	9	47	172
-0.888469994	-0.683160007	-1.18760002	9	47	172
-0.887929976	-0.683000028	-1.1868	9	47	172
-0.887929976	-0.682990015	-1.1868	9	47	172
-0.887929976	-0.683189988	-1.18669999	9	47	172
-0.887929976	-0.682739973	-1.18690002	9	47	172
-0.887390018	-0.682319999	-1.18620002	9	47	172
-0.887390018	-0.682070017	-1.18630004	9	47	172
-0.887390018	-0.681760013	-1.18649995	9	47	172
-0.886849999	-0.681089997	-1.18589997	9	47	172
-0.886849999	-0.681900024	-1.18550003	9	47	172
-0.886849999	-0.681949973	-1.18540001	9	47	172
-0.886849999	-0.682479978	-1.18509996	9	47	172
-0.886849999	-0.682479978	-1.18509996	9	47	172
-0.886849999	-0.682990015	-1.18480003	9	47	172
-0.886849999	-0.683049977	-1.18480003	9	47	172
-0.886849999	-0.683399975	-1.1846	9	47	172
-0.886849999	-0.683679998	-1.18439996	9	47	172
-0.886849999	-0.683770001	-1.18439996	9	47	172
-0.886309981	-0.683359981	-1.18369997	9	47	172
-0.886309981	-0.683329999	-1.18369997	9	47	172
-0.885770023	-0.682869971	-1.18299997	9	47	172
-0.885770023	-0.682919979	-1.18289995	9	47	172
-0.885770023	-0.682579994	-1.18309999	9	47	172
-0.885770023	-0.68246001	-1.1832	9	47	172
-0.885770023	-0.682299972	-1.18330002	9	47	172
-0.885770023	-0.682079971	-1.18340003	9	47	172
-0.886309981	-0.682420015	-1.18420005	9	47	172
-0.886309981	-0.682060003	-1.18439996	9	47	172
-0.886309981	-0.682009995	-1.18439996	9	47	172
-0.886309981	-0.68147999	-1.18470001	9	47	172
-0.885770023	-0.681060016	-1.18400002	9	47	172
-0.885219991	-0.680639982	-1.18330002	9	47	172
-0.885219991	-0.68125999	-1.18289995	9	47	172
-0.885219991	-0.681429982	-1.18280005	9	47	172
-0.885219991	-0.68226999	-1.18229997	9	47	172
-0.885219991	-0.682340026	-1.18229997	9	47	172
-0.885219991	-0.682399988	-1.18229997	9	47	172
-0.885219991	-0.682439983	-1.18219995	9	47	172
-0.884679973	-0.682060003	-1.18149996	9	47	172
-0.884679973	-0.68204999	-1.18149996	9	47	172
-0.884140015	-0.681640029	-1.18079996	9	47	172
-0.884140015	-0.681389987	-1.18089998	9	47	172
-0.884140015	-0.681200027	-1.18099999	9	47	172
-0.884679973	-0.681100011	-1.18200004	9	47	172
-0.884679973	-0.680790007	-1.18219995	9	47	172
-0.884679973	-0.680220008	-1.1825	9	47	172
-0.884140015	-0.679799974	-1.18180001	9	47	172
-0.886269987	-0.679120004	-1.18060005	9	47	172
-0.885730028	-0.67869997	-1.17990005	9	47	172
-0.885730028	-0.679260015	-1.1796	9	47	172
-0.885730028	-0.68009001	-1.17910004	9	47	172
-0.885730028	-0.68028003	-1.17900002	9	47	172
-0.885730028	-0.680360019	-1.1789	9	47	172
-0.885179996	-0.680130005	-1.17809999	9	47	172
-0.884639978	-0.679700017	-1.17739999	9	47	172
-0.884639978	-0.677860022	-1.17840004	9	47	172
-0.88410002	-0.677439988	-1.17770004	9	47	172
-0.883549988	-0.677020013	-1.17700005	9	47	172
-0.88568002	-0.676339984	-1.17579997	9	47	172
-0.88568002	-0.676919997	-1.17550004	9	47	172
-0.886219978	-0.677389979	-1.17620003	9	47	172
-0.886219978	-0.676760018	-1.17649996	9	47	172
-0.886759996	-0.677169979	-1.17729998	9	47	172
-0.886759996	-0.677950025	-1.17680001	9	47	172
-0.887310028	-0.678170025	-1.17760003	9	47	172
-0.887310028	-0.677590013	-1.17799997	9	47	172
-0.887310028	-0.677349985	-1.17809999	9	47	172
-0.887849987	-0.678009987	-1.17869997	9	47	172
-0.888400018	-0.678430021	-1.17939997	9	47	172
-0.888939977	-0.678849995	-1.18019998	9	47	172
-0.888939977	-0.679430008	-1.17980003	9	47	172
-0.888939977	-0.680000007	-1.17949998	9	47	172
-0.888939977	-0.680670023	-1.17910004	9	47	172
-0.888939977	-0.680689991	-1.17910004	9	47	172
-0.888939977	-0.680719972	-1.17910004	9	47	172
-0.889490008	-0.681100011	-1.17980003	9	47	172
-0.889490008	-0.68096	-1.17990005	9	47	172
-0.889490008	-0.680760026	-1.17999995	9	47	172
-0.889490008	-0.680050015	-1.18040001	9	47	172
-0.889490008	-0.679270029	-1.18089998	9	47	172
-0.890030026	-0.67967999	-1.18159997	9	47	172
-0.890030026	-0.679929972	-1.18149996	9	47	172
-0.890579998	-0.680100024	-1.18229997	9	47	172
-0.890579998	-0.680549979	-1.18210006	9	47	172
-0.890579998	-0.681039989	-1.18180001	9	47	172
-0.890579998	-0.681850016	-1.18130004	9	47	172
-0.891120017	-0.680519998	-1.18309999	9	47	172
-0.886810005	-0.678229988	-1.18210006	9	47	172
-0.886810005	-0.677389979	-1.18260002	9	47	172
-0.887359977	-0.677219987	-1.18369997	9	47	172
-0.886810005	-0.675279975	-1.18379998	9	47	172
-0.885730028	-0.675270021	-1.18190002	9	47	172
-0.885179996	-0.67584002	-1.18060005	9	47	172
-0.885179996	-0.677479982	-1.1796	9	47	172
-0.885179996	-0.677730024	-1.17949998	9	47	172
-0.885179996	-0.678279996	-1.17920005	9	47	172
-0.882510006	-0.678550005	-1.1796	9	47	172
-0.883059978	-0.680800021	-1.17929995	9	47	172
-0.880930007	-0.681469977	-1.18050003	9	47	172
-0.880930007	-0.681490004	-1.18050003	9	47	172
-0.881470025	-0.681460023	-1.18149996	9	47	172
-0.881470025	-0.681079984	-1.18169999	9	47	172
-0.881470025	-0.680589974	-1.18200004	9	47	172
-0.880930007	-0.680230021	-1.18120003	9	47	172
-0.882009983	-0.68137002	-1.1825	9	47	172
-0.882009983	-0.681890011	-1.18219995	9	47	172
-0.882009983	-0.682070017	-1.18210006	9	47	172
-0.882009983	-0.682240009	-1.18200004	9	47	172
-0.882009983	-0.682290018	-1.18200004	9	47	172
-0.882009983	-0.682330012	-1.18190002	9	47	172
-0.882550001	-0.682749987	-1.18270004	9	47	172
-0.882550001	-0.68276	-1.18270004	9	47	172
-0.882550001	-0.682600021	-1.18280005	9	47	172
-0.882550001	-0.682399988	-1.18289995	9	47	172
-0.882550001	-0.682060003	-1.18309999	9	47	172
-0.882550001	-0.681699991	-1.18330002	9	47	172
-0.882550001	-0.681490004	-1.18340003	9	47	172
-0.882550001	-0.681469977	-1.18340003	9	47	172
-0.882550001	-0.680909991	-1.18369997	9	47	172
-0.883090019	-0.681330025	-1.18449998	9	47	172
-0.883090019	-0.681909978	-1.18410003	9	47	172
-0.883629978	-0.682359993	-1.18480003	9	47	172
-0.883629978	-0.682680011	-1.18470001	9	47	172
-0.883629978	-0.683269978	-1.18429995	9	47	172
-0.883629978	-0.683560014	-1.18420005	9	47	172
-0.884169996	-0.68404001	-1.18480003	9	47	172
-0.884169996	-0.68404001	-1.18480003	9	47	172
-0.884169996	-0.683950007	-1.18490005	9	47	172
-0.884169996	-0.683920026	-1.18490005	9	47	172
-0.884710014	-0.684220016	-1.18570006	9	47	172
-0.884710014	-0.683830023	-1.18589997	9	47	172
-0.884710014	-0.683679998	-1.18599999	9	47	172
-0.884710014	-0.683170021	-1.18630004	9	47	172
-0.884710014	-0.682640016	-1.18659997	9	47	172
-0.884710014	-0.682590008	-1.18669999	9	47	172
-0.885249972	-0.683000028	-1.18739998	9	47	172
-0.885249972	-0.683449984	-1.18710005	9	47	172
-0.885249972	-0.683589995	-1.18700004	9	47	172
-0.885249972	-0.684289992	-1.18659997	9	47	172
-0.885249972	-0.684870005	-1.18630004	9	47	172
-0.88578999	-0.685310006	-1.18700004	9	47	172
-0.88578999	-0.684210002	-1.18770003	9	47	172
-0.88578999	-0.683690012	-1.18799996	9	47	172
-0.88578999	-0.683679998	-1.18799996	9	47	172
-0.88578999	-0.683420002	-1.18809998	9	47	172
-0.88578999	-0.683179975	-1.18830001	9	47	172
-0.886330009	-0.683839977	-1.18879998	9	47	172
-0.886330009	-0.684490025	-1.18850005	9	47	172
-0.886870027	-0.684260011	-1.18959999	9	47	172
-0.886870027	-0.683449984	-1.19000006	9	47	172
-0.88578999	-0.682110012	-1.18889999	9	47	172
-0.88578999	-0.68125999	-1.18939996	9	47	172
-0.88578999	-0.680329978	-1.18990004	9	47	172
-0.88578999	-0.679560006	-1.19029999	9	47	172
-0.88578999	-0.678740025	-1.19079995	9	47	172
-0.885249972	-0.679549992	-1.18939996	9	47	172
-0.884710014	-0.680130005	-1.18809998	9	47	172
-0.884169996	-0.680299997	-1.18700004	9	47	172
-0.884710014	-0.681529999	-1.18729997	9	47	172
-0.885249972	-0.682449996	-1.18770003	9	47	172
-0.885249972	-0.681429982	-1.18830001	9	47	172
-0.884169996	-0.682169974	-1.18589997	9	47	172
-0.884169996	-0.682869971	-1.18550003	9	47	172
-0.883629978	-0.68175	-1.18519998	9	47	172
-0.883090019	-0.683000028	-1.18350005	9	47	172
-0.883090019	-0.683170021	-1.18340003	9	47	172
-0.880949974	-0.683759987	-1.1846	9	47	172
-0.880410016	-0.683449984	-1.1839	9	47	172
-0.880410016	-0.683430016	-1.1839	9	47	172
-0.880410016	-0.683399975	-1.1839	9	47	172
-0.880410016	-0.683470011	-1.18379998	9	47	172
-0.880410016	-0.683260024	-1.18400002	9	47	172
-0.880410016	-0.682739973	-1.18429995	9	47	172
-0.880410016	-0.682470024	-1.18439996	9	47	172
-0.880410016	-0.682169974	-1.1846	9	47	172
-0.880410016	-0.681590021	-1.18490005	9	47	172
-0.879869998	-0.681169987	-1.18420005	9	47	172
-0.879329979	-0.680750012	-1.18350005	9	47	172
-0.879329979	-0.681280017	-1.1832	9	47	172
-0.879329979	-0.681330025	-1.18309999	9	47	172
-0.879329979	-0.682139993	-1.18270004	9	47	172
-0.879329979	-0.682550013	-1.18239999	9	47	172
-0.879329979	-0.682590008	-1.18239999	9	47	172
-0.879869998	-0.683009982	-1.18309999	9	47	172
-0.879869998	-0.682929993	-1.1832	9	47	172
-0.879869998	-0.682190001	-1.18359995	9	47	172
-0.880949974	-0.682789981	-1.18519998	9	47	172
-0.880949974	-0.682630002	-1.18529999	9	47	172
-0.880949974	-0.682009995	-1.18570006	9	47	172
-0.881489992	-0.682430029	-1.18640006	9	47	172
-0.881489992	-0.681879997	-1.18669999	9	47	172
-0.881489992	-0.681379974	-1.18700004	9	47	172
-0.881489992	-0.681119978	-1.18710005	9	47	172
-0.88203001	-0.682039976	-1.18760002	9	47	172
-0.88203001	-0.682850003	-1.18710005	9	47	172
-0.88203001	-0.682900012	-1.18710005	9	47	172
-0.88203001	-0.683109999	-1.18700004	9	47	172
-0.88203001	-0.68355	-1.18669999	9	47	172
-0.88203001	-0.683790028	-1.18659997	9	47	172
-0.88203001	-0.683939993	-1.18649995	9	47	172
-0.88203001	-0.684130013	-1.18640006	9	47	172
-0.88203001	-0.68463999	-1.18610001	9	47	172
-0.88203001	-0.684729993	-1.18599999	9	47	172
-0.881489992	-0.684289992	-1.18529999	9	47	172
-0.881489992	-0.684130013	-1.18540001	9	47	172
-0.881489992	-0.684019983	-1.18550003	9	47	172
-0.881489992	-0.683950007	-1.18550003	9	47	172
-0.881489992	-0.68392998	-1.18550003	9	47	172
-0.881489992	-0.683830023	-1.18560004	9	47	172
-0.881489992	-0.683679998	-1.18570006	9	47	172
-0.881489992	-0.683220029	-1.18589997	9	47	172
-0.881489992	-0.683070004	-1.18599999	9	47	172
-0.881489992	-0.683009982	-1.18599999	9	47	172
-0.881489992	-0.683000028	-1.18610001	9	47	172
-0.882570028	-0.683719993	-1.18760002	9	47	172
-0.882570028	-0.683269978	-1.18780005	9	47	172
-0.882570028	-0.683019996	-1.18799996	9	47	172
-0.883099973	-0.683690012	-1.18859994	9	47	172
-0.883099973	-0.683939993	-1.18840003	9	47	172
-0.883639991	-0.684109986	-1.18929994	9	47	172
-0.884180009	-0.68453002	-1.19000006	9	47	172
-0.883099973	-0.685329974	-1.18760002	9	47	172
-0.882570028	-0.685150027	-1.1868	9	47	172
-0.879880011	-0.685169995	-1.18739998	9	47	172
-0.879350007	-0.684809983	-1.18659997	9	47	172
-0.879350007	-0.684520006	-1.1868	9	47	172
-0.879350007	-0.684390008	-1.1868	9	47	172
-0.879350007	-0.683679998	-1.18719995	9	47	172
-0.879350007	-0.683359981	-1.18739998	9	47	172
-0.879350007	-0.683160007	-1.1875	9	47	172
-0.879350007	-0.683109999	-1.18760002	9	47	172
-0.879880011	-0.683529973	-1.18830001	9	47	172
-0.879880011	-0.683979988	-1.18799996	9	47	172
-0.880420029	-0.684539974	-1.18869996	9	47	172
-0.880420029	-0.684750021	-1.18859994	9	47	172
-0.880420029	-0.683709979	-1.18920004	9	47	172
-0.880959988	-0.684369981	-1.18980002	9	47	172
-0.87826997	-0.684629977	-1.19019997	9	47	172
-0.877740026	-0.684210002	-1.18949997	9	47	172
-0.877200007	-0.683790028	-1.18879998	9	47	172
-0.876670003	-0.683369994	-1.18799996	9	47	172
-0.876670003	-0.683619976	-1.18789995	9	47	172
-0.876670003	-0.683960021	-1.18770003	9	47	172
-0.876670003	-0.684260011	-1.1875	9	47	172
-0.876129985	-0.68374002	-1.1868	9	47	172
-0.876129985	-0.683570027	-1.18690002	9	47	172
-0.876129985	-0.683399975	-1.18700004	9	47	172
-0.876129985	-0.68295002	-1.18729997	9	47	172
-0.875590026	-0.682529986	-1.18659997	9	47	172
-0.875590026	-0.682579994	-1.18649995	9	47	172
-0.875590026	-0.683099985	-1.18620002	9	47	172
-0.875060022	-0.682749987	-1.18550003	9	47	172
-0.875060022	-0.682690024	-1.18550003	9	47	172
-0.875060022	-0.682630002	-1.18550003	9	47	172
-0.875060022	-0.682110012	-1.18579996	9	47	172
-0.874520004	-0.681689978	-1.18509996	9	47	172
-0.874520004	-0.681949973	-1.18490005	9	47	172
-0.874520004	-0.682619989	-1.1846	9	47	172
-0.875060022	-0.683260024	-1.18519998	9	47	172
-0.875060022	-0.683889985	-1.18480003	9	47	172
-0.875590026	-0.684119999	-1.18560004	9	47	172
-0.875590026	-0.684170008	-1.18560004	9	47	172
-0.875590026	-0.684199989	-1.18560004	9	47	172
-0.875590026	-0.684390008	-1.18550003	9	47	172
-0.876129985	-0.684710026	-1.18630004	9	47	172
-0.876129985	-0.68423003	-1.18659997	9	47	172
-0.876670003	-0.685249984	-1.18690002	9	47	172
-0.877200007	-0.685199976	-1.18789995	9	47	172
-0.878809988	-0.684560001	-1.18579996	9	47	172
-0.878809988	-0.684480011	-1.18579996	9	47	172
-0.878809988	-0.684449971	-1.18579996	9	47	172
-0.878809988	-0.684279978	-1.18589997	9	47	172
-0.878809988	-0.683570027	-1.18630004	9	47	172
-0.87826997	-0.68305999	-1.18570006	9	47	172
-0.87826997	-0.682889998	-1.18579996	9	47	172
-0.87826997	-0.682850003	-1.18579996	9	47	172
-0.87826997	-0.68226999	-1.18610001	9	47	172
-0.877730012	-0.681850016	-1.18540001	9	47	172
-0.877730012	-0.682110012	-1.18519998	9	47	172
-0.877730012	-0.682789981	-1.18480003	9	47	172
-0.877730012	-0.683009982	-1.18470001	9	47	172
-0.877730012	-0.683099985	-1.18470001	9	47	172
-0.877730012	-0.683369994	-1.18449998	9	47	172
-0.877730012	-0.683520019	-1.18439996	9	47	172
-0.877200007	-0.683300018	-1.18359995	9	47	172
-0.877200007	-0.683290005	-1.18359995	9	47	172
-0.877200007	-0.683279991	-1.18359995	9	47	172
-0.877200007	-0.683269978	-1.18359995	9	47	172
-0.877200007	-0.683189988	-1.18359995	9	47	172
-0.877200007	-0.682820022	-1.18379998	9	47	172
-0.877200007	-0.682129979	-1.18420005	9	47	172
-0.877200007	-0.682070017	-1.18429995	9	47	172
-0.877200007	-0.682009995	-1.18429995	9	47	172
-0.877200007	-0.681959987	-1.18429995	9	47	172
-0.877200007	-0.681429982	-1.1846	9	47	172
-0.876659989	-0.681010008	-1.1839	9	47	172
-0.876659989	-0.681590021	-1.18359995	9	47	172
-0.876659989	-0.682020009	-1.18330002	9	47	172
-0.876659989	-0.682099998	-1.18330002	9	47	172
-0.876119971	-0.681169987	-1.18280005	9	47	172
-0.876119971	-0.682430029	-1.18210006	9	47	172
-0.875590026	-0.681990027	-1.18139994	9	47	172
-0.875590026	-0.681980014	-1.18139994	9	47	172
-0.875590026	-0.68197	-1.18139994	9	47	172
-0.873449981	-0.682720006	-1.1825	9	47	172
-0.873449981	-0.682690024	-1.18260002	9	47	172
-0.873449981	-0.682690024	-1.18260002	9	47	172
-0.873449981	-0.682669997	-1.18260002	9	47	172
-0.873449981	-0.682539999	-1.18270004	9	47	172
-0.873449981	-0.682089984	-1.18289995	9	47	172
-0.873449981	-0.68186003	-1.18299997	9	47	172
-0.873989999	-0.682359993	-1.18369997	9	47	172
-0.873989999	-0.682060003	-1.1839	9	47	172
-0.873989999	-0.68197	-1.18400002	9	47	172
-0.873989999	-0.681850016	-1.18400002	9	47	172
-0.873989999	-0.681850016	-1.18400002	9	47	172
-0.873989999	-0.681270003	-1.18439996	9	47	172
-0.873449981	-0.680599988	-1.18379998	9	47	172
-0.873449981	-0.680840015	-1.18359995	9	47	172
-0.872919977	-0.680419981	-1.18289995	9	47	172
-0.872919977	-0.681010008	-1.18260002	9	47	172
-0.872380018	-0.681389987	-1.18139994	9	47	172
-0.872919977	-0.682219982	-1.18190002	9	47	172
-0.873989999	-0.683019996	-1.18330002	9	47	172
-0.873989999	-0.683080018	-1.18330002	9	47	172
-0.873989999	-0.682780027	-1.18350005	9	47	172
-0.873989999	-0.68276	-1.18350005	9	47	172
-0.874520004	-0.683529973	-1.18400002	9	47	172
-0.874520004	-0.683539987	-1.18400002	9	47	172
-0.874520004	-0.683560014	-1.18400002	9	47	172
-0.872380018	-0.684180021	-1.18519998	9	47	172
-0.872380018	-0.684210002	-1.18519998	9	47	172
-0.872380018	-0.683770001	-1.18550003	9	47	172
-0.872380018	-0.683000028	-1.18589997	9	47	172
-0.872380018	-0.68295002	-1.18589997	9	47	172
-0.872380018	-0.682810009	-1.18599999	9	47	172
-0.872380018	-0.682410002	-1.18620002	9	47	172
-0.872380018	-0.682359993	-1.18630004	9	47	172
-0.872919977	-0.682780027	-1.18700004	9	47	172
-0.872919977	-0.683350027	-1.18669999	9	47	172
-0.872919977	-0.684069991	-1.18630004	9	47	172
-0.872919977	-0.684650004	-1.18589997	9	47	172
-0.873449981	-0.683990002	-1.18729997	9	47	172
-0.873449981	-0.683820009	-1.18739998	9	47	172
-0.873449981	-0.683790028	-1.18739998	9	47	172
-0.873449981	-0.683200002	-1.18770003	9	47	172
-0.873449981	-0.68265003	-1.18809998	9	47	172
-0.872919977	-0.681980014	-1.1875	9	47	172
-0.872380018	-0.681309998	-1.18690002	9	47	172
-0.872380018	-0.680790007	-1.18719995	9	47	172
-0.873449981	-0.681339979	-1.18879998	9	47	172
-0.873989999	-0.68362999	-1.18850005	9	47	172
-0.873989999	-0.683879972	-1.18830001	9	47	172
-0.874520004	-0.684050024	-1.18920004	9	47	172
-0.87184	-0.684300005	-1.18959999	9	47	172
-0.871309996	-0.683879972	-1.18889999	9	47	172
-0.871309996	-0.684130013	-1.18879998	9	47	172
-0.871309996	-0.684469998	-1.18859994	9	47	172
-0.870769978	-0.683459997	-1.1882	9	47	172
-0.870239973	-0.683089972	-1.18739998	9	47	172
-0.870239973	-0.683040023	-1.18739998	9	47	172
-0.870239973	-0.683619976	-1.18710005	9	47	172
-0.869710028	-0.683399975	-1.18630004	9	47	172
-0.869710028	-0.68325001	-1.18630004	9	47	172
-0.869710028	-0.682609975	-1.18669999	9	47	172
-0.869180024	-0.682190001	-1.18599999	9	47	172
-0.869180024	-0.682640016	-1.18570006	9	47	172
-0.869180024	-0.68276	-1.18560004	9	47	172
-0.869180024	-0.682780027	-1.18560004	9	47	172
-0.869180024	-0.682810009	-1.18560004	9	47	172
-0.869180024	-0.683080018	-1.18550003	9	47	172
-0.869180024	-0.68344003	-1.18529999	9	47	172
-0.869180024	-0.683470011	-1.18519998	9	47	172
-0.869180024	-0.683600008	-1.18519998	9	47	172
-0.869180024	-0.683889985	-1.18499994	9	47	172
-0.869180024	-0.683950007	-1.18499994	9	47	172
-0.869180024	-0.684010029	-1.18490005	9	47	172
-0.869180024	-0.68404001	-1.18490005	9	47	172
-0.868640006	-0.683650017	-1.18420005	9	47	172
-0.868640006	-0.683640003	-1.18420005	9	47	172
-0.868640006	-0.683619976	-1.18420005	9	47	172
-0.868640006	-0.683570027	-1.18420005	9	47	172
-0.868640006	-0.68355	-1.18420005	9	47	172
-0.868640006	-0.68344003	-1.18429995	9	47	172
-0.868640006	-0.683170021	-1.18439996	9	47	172
-0.868640006	-0.682929993	-1.1846	9	47	172
-0.868640006	-0.682789981	-1.18470001	9	47	172
-0.868640006	-0.68234998	-1.18490005	9	47	172
-0.868640006	-0.68234998	-1.18490005	9	47	172
-0.868640006	-0.682030022	-1.18509996	9	47	172
-0.868640006	-0.681770027	-1.18519998	9	47	172
-0.868110001	-0.681349993	-1.18449998	9	47	172
-0.867579997	-0.680930018	-1.18379998	9	47	172
-0.867579997	-0.681630015	-1.18340003	9	47	172
-0.867039979	-0.681289971	-1.18260002	9	47	172
-0.867039979	-0.681439996	-1.1825	9	47	172
-0.867039979	-0.681029975	-1.18270004	9	47	172
-0.867039979	-0.680499971	-1.18299997	9	47	172
-0.866509974	-0.680079997	-1.18229997	9	47	172
-0.866509974	-0.681169987	-1.18169999	9	47	172
-0.867579997	-0.682770014	-1.18270004	9	47	172
-0.868110001	-0.683200002	-1.18340003	9	47	172
-0.868110001	-0.683179975	-1.18350005	9	47	172
-0.868110001	-0.683099985	-1.18350005	9	47	172
-0.868110001	-0.682850003	-1.18359995	9	47	172
-0.870249987	-0.682519972	-1.18229997	9	47	172
-0.870779991	-0.682900012	-1.18299997	9	47	172
-0.870779991	-0.682940006	-1.18299997	9	47	172
-0.870779991	-0.68295002	-1.18299997	9	47	172
-0.870779991	-0.682730019	-1.18309999	9	47	172
-0.870779991	-0.682590008	-1.1832	9	47	172
-0.870779991	-0.682190001	-1.18340003	9	47	172
-0.870779991	-0.682110012	-1.18350005	9	47	172
-0.870779991	-0.681890011	-1.18359995	9	47	172
-0.870779991	-0.681100011	-1.18410003	9	47	172
-0.871309996	-0.681519985	-1.18480003	9	47	172
-0.871309996	-0.681270003	-1.18490005	9	47	172
-0.871309996	-0.682099998	-1.18449998	9	47	172
-0.871309996	-0.682219982	-1.18439996	9	47	172
-0.871309996	-0.682399988	-1.18429995	9	47	172
-0.871309996	-0.682669997	-1.18410003	9	47	172
-0.871309996	-0.683220029	-1.18379998	9	47	172
-0.871309996	-0.683300018	-1.18379998	9	47	172
-0.871309996	-0.683350027	-1.18369997	9	47	172
-0.871309996	-0.683390021	-1.18369997	9	47	172
-0.871309996	-0.683390021	-1.18369997	9	47	172
-0.871850014	-0.683690012	-1.18449998	9	47	172
-0.871850014	-0.683700025	-1.18449998	9	47	172
-0.871850014	-0.683790028	-1.18449998	9	47	172
-0.871850014	-0.683820009	-1.18449998	9	47	172
-0.871850014	-0.683610022	-1.1846	9	47	172
-0.871850014	-0.683529973	-1.1846	9	47	172
-0.871850014	-0.683459997	-1.18470001	9	47	172
-0.871850014	-0.683189988	-1.18480003	9	47	172
-0.871850014	-0.682470024	-1.18519998	9	47	172
-0.871850014	-0.682200015	-1.18540001	9	47	172
-0.871850014	-0.681940019	-1.18550003	9	47	172
-0.871309996	-0.680209994	-1.18560004	9	47	172
-0.870249987	-0.680679977	-1.18330002	9	47	172
-0.869710028	-0.680249989	-1.18260002	9	47	172
-0.869180024	-0.679830015	-1.18190002	9	47	172
-0.869710028	-0.681649983	-1.18180001	9	47	172
-0.870249987	-0.681609988	-1.18280005	9	47	172
-0.87184	-0.679579973	-1.18139994	9	47	172
-0.873989999	-0.680209994	-1.18499994	9	47	172
-0.875060022	-0.680790007	-1.18659997	9	47	172
-0.875590026	-0.681720018	-1.18700004	9	47	172
-0.875590026	-0.68197	-1.18690002	9	47	172
-0.876129985	-0.68137002	-1.1882	9	47	172
-0.876129985	-0.681079984	-1.18840003	9	47	172
-0.876670003	-0.681209981	-1.18929994	9	47	172
-0.877200007	-0.681039989	-1.19029999	9	47	172
-0.877200007	-0.680339992	-1.19070005	9	47	172
-0.877740026	-0.681110024	-1.19130003	9	47	172
-0.877740026	-0.68175	-1.19089997	9	47	172
-0.880420029	-0.681500018	-1.1904	9	47	172
-0.879350007	-0.680949986	-1.18879998	9	47	172
-0.879350007	-0.681529999	-1.18850005	9	47	172
-0.878809988	-0.681879997	-1.18729997	9	47	172
-0.878809988	-0.682690024	-1.1868	9	47	172
-0.87826997	-0.681219995	-1.18669999	9	47	172
-0.87826997	-0.68096	-1.18690002	9	47	172
-0.877730012	-0.679989994	-1.18640006	9	47	172
-0.877730012	-0.681299984	-1.18570006	9	47	172
-0.87826997	-0.683770001	-1.18519998	9	47	172
-0.87826997	-0.684119999	-1.18499994	9	47	172
-0.87826997	-0.684149981	-1.18499994	9	47	172
-0.87826997	-0.684149981	-1.18499994	9	47	172
-0.878790021	-0.680909991	-1.18239999	9	47	172
-0.878260016	-0.68175	-1.18089998	9	47	172
-0.877719998	-0.681309998	-1.18019998	9	47	172
-0.879869998	-0.679310024	-1.18529999	9	47	172
-0.880410016	-0.680019975	-1.18579996	9	47	172
-0.880949974	-0.679270029	-1.18719995	9	47	172
-0.880949974	-0.678149998	-1.18789995	9	47	172
-0.88203001	-0.679400027	-1.18910003	9	47	172
-0.88203001	-0.678569973	-1.18959999	9	47	172
-0.882570028	-0.67859	-1.19050002	9	47	172
-0.882570028	-0.68017	-1.18959999	9	47	172
-0.882570028	-0.681110024	-1.18910003	9	47	172
-0.88203001	-0.680400014	-1.18850005	9	47	172
-0.879350007	-0.680010021	-1.18929994	9	47	172
-0.878809988	-0.679939985	-1.18840003	9	47	172
-0.878809988	-0.679239988	-1.18879998	9	47	172
-0.87826997	-0.678409994	-1.18830001	9	47	172
-0.877730012	-0.677579999	-1.18780005	9	47	172
-0.876129985	-0.679090023	-1.18949997	9	47	172
-0.879350007	-0.678430021	-1.19029999	9	47	172
-0.880959988	-0.679279983	-1.19270003	9	47	172
-0.881500006	-0.679289997	-1.19360006	9	47	172
-0.882570028	-0.679719985	-1.19529998	9	47	172
-0.884720027	-0.679449975	-1.19389999	9	47	172
-0.885259986	-0.679459989	-1.19490004	9	47	172
-0.884720027	-0.677739978	-1.19490004	9	47	172
-0.885259986	-0.677670002	-1.19589996	9	47	172
-0.883639991	-0.67592001	-1.19400001	9	47	172
-0.883099973	-0.676959991	-1.19239998	9	47	172
-0.883099973	-0.677380025	-1.19219995	9	47	172
-0.883639991	-0.679019988	-1.19219995	9	47	172
-0.886870027	-0.679170012	-1.1925	9	47	172
-0.887409985	-0.679180026	-1.19340003	9	47	172
-0.887409985	-0.678780019	-1.19369996	9	47	172
-0.890070021	-0.678189993	-1.18789995	9	47	172
-0.886309981	-0.679030001	-1.18610001	9	47	172
-0.883090019	-0.67859	-1.18599999	9	47	172
-0.883629978	-0.677470028	-1.18760002	9	47	172
-0.885730028	-0.673650026	-1.18280005	9	47	172
-0.886269987	-0.671959996	-1.18470001	9	47	172
-0.884639978	-0.669229984	-1.18340003	9	47	172
-0.886759996	-0.665939987	-1.18359995	9	47	172
-0.88568002	-0.665709972	-1.18180001	9	47	172
-0.88568002	-0.663919985	-1.18289995	9	47	172
-0.883549988	-0.664590001	-1.18410003	9	47	172
-0.882470012	-0.665560007	-1.18159997	9	47	172
-0.881380022	-0.669929981	-1.17719996	9	47	172
-0.883549988	-0.673950016	-1.17869997	9	47	172
-0.885129988	-0.673200011	-1.17659998	9	47	172
-0.885129988	-0.673489988	-1.17649996	9	47	172
-0.88568002	-0.674780011	-1.1767	9	47	172
-0.885129988	-0.67592001	-1.17509997	9	47	172
-0.88459003	-0.675499976	-1.17429996	9	47	172
-0.884039998	-0.675080001	-1.17359996	9	47	172
-0.88349998	-0.674669981	-1.17289996	9	47	172
-0.884039998	-0.676469982	-1.17279994	9	47	172
-0.886150002	-0.674399972	-1.1724	9	47	172
-0.885609984	-0.673979998	-1.1717	9	47	172
-0.885060012	-0.673560023	-1.171	9	47	172
-0.884519994	-0.673150003	-1.17019999	9	47	172
-0.883970022	-0.672730029	-1.16949999	9	47	172
-0.882879972	-0.67189002	-1.1681	9	47	172
-0.882879972	-0.67276001	-1.16760004	9	47	172
-0.881789982	-0.672320008	-1.16589999	9	47	172
-0.881789982	-0.671060026	-1.16659999	9	47	172
-0.88124001	-0.670639992	-1.16589999	9	47	172
-0.880689979	-0.670220017	-1.1652	9	47	172
-0.88015002	-0.669799984	-1.16439998	9	47	172
-0.879599988	-0.669390023	-1.16369998	9	47	172
-0.87905997	-0.669019997	-1.16299999	9	47	172
-0.87905997	-0.668969989	-1.16299999	9	47	172
-0.87905997	-0.669229984	-1.16279995	9	47	172
-0.878509998	-0.668550014	-1.16229999	9	47	172
-0.877960026	-0.668129981	-1.16149998	9	47	172
-0.877420008	-0.668269992	-1.16050005	9	47	172
-0.877420008	-0.668940008	-1.16009998	9	47	172
-0.877960026	-0.669690013	-1.16059995	9	47	172
-0.87905997	-0.670799971	-1.16190004	9	47	172
-0.88015002	-0.671649992	-1.16340005	9	47	172
-0.88015002	-0.671299994	-1.16359997	9	47	172
-0.878589988	-0.672659993	-1.16530001	9	47	172
-0.878589988	-0.670899987	-1.16630006	9	47	172
-0.878050029	-0.670480013	-1.16559994	9	47	172
-0.877510011	-0.670069993	-1.16489995	9	47	172
-0.87695998	-0.669650018	-1.16419995	9	47	172
-0.876420021	-0.669229984	-1.16340005	9	47	172
-0.875869989	-0.66881001	-1.16270006	9	47	172
-0.875869989	-0.66802001	-1.16320002	9	47	172
-0.875329971	-0.668389976	-1.16199994	9	47	172
-0.875329971	-0.668950021	-1.16170001	9	47	172
-0.874779999	-0.667980015	-1.16129994	9	47	172
-0.874239981	-0.667559981	-1.16050005	9	47	172
-0.873149991	-0.666719973	-1.15910006	9	47	172
-0.872060001	-0.665880024	-1.15760005	9	47	172
-0.870970011	-0.66505003	-1.15620005	9	47	172
-0.870970011	-0.663230002	-1.15719998	9	47	172
-0.869880021	-0.661199987	-1.15639997	9	47	172
-0.867259979	-0.659910023	-1.15779996	9	47	172
-0.867699981	-0.657609999	-1.15460002	9	47	172
-0.868250012	-0.653999984	-1.15760005	9	47	172
-0.866169989	-0.654659986	-1.15880001	9	47	172
-0.863460004	-0.650560021	-1.15629995	9	47	172
-0.869970024	-0.658569992	-1.16330004	9	47	172
-0.872600019	-0.656780005	-1.1638	9	47	172
-0.873149991	-0.660570025	-1.16260004	9	47	172
-0.873049974	-0.662559986	-1.15600002	9	47	172
-0.873049974	-0.66437	-1.15499997	9	47	172
-0.872500002	-0.66395998	-1.15429997	9	47	172
-0.871959984	-0.663540006	-1.15349996	9	47	172
-0.871959984	-0.665269971	-1.15250003	9	47	172
-0.871959984	-0.665300012	-1.15250003	9	47	172
-0.870859981	-0.664059997	-1.15129995	9	47	172
-0.870320022	-0.663649976	-1.15059996	9	47	172
-0.870320022	-0.663200021	-1.15079999	9	47	172
-0.870320022	-0.664110005	-1.15030003	9	47	172
-0.869220018	-0.663200021	-1.14890003	9	47	172
-0.86868	-0.661599994	-1.14890003	9	47	172
-0.86868	-0.661029994	-1.14919996	9	47	172
-0.869220018	-0.661450028	-1.14989996	9	47	172
-0.86976999	-0.661870003	-1.15059996	9	47	172
-0.870320022	-0.662289977	-1.15139997	9	47	172
-0.868250012	-0.662959993	-1.15250003	9	47	172
-0.867699981	-0.662540019	-1.15180004	9	47	172
-0.867160022	-0.662119985	-1.15110004	9	47	172
-0.866609991	-0.66170001	-1.15040004	9	47	172
-0.866069973	-0.661279976	-1.14960003	9	47	172
-0.866069973	-0.66000998	-1.15040004	9	47	172
-0.86552	-0.658779979	-1.15009999	9	47	172
-0.864979982	-0.660449982	-1.14820004	9	47	172
-0.86443001	-0.660080016	-1.14740002	9	47	172
-0.86443001	-0.660030007	-1.14740002	9	47	172
-0.863889992	-0.659609973	-1.14670002	9	47	172
-0.865949988	-0.658940017	-1.14559996	9	47	172
-0.865400016	-0.658529997	-1.14479995	9	47	172
-0.864859998	-0.658110023	-1.14409995	9	47	172
-0.864310026	-0.657689989	-1.14339995	9	47	172
-0.864310026	-0.658119977	-1.14310002	9	47	172
-0.863759995	-0.657270014	-1.14269996	9	47	172
-0.863219976	-0.656859994	-1.14189994	9	47	172
-0.863219976	-0.65741998	-1.14160001	9	47	172
-0.862670004	-0.65741998	-1.14059997	9	47	172
-0.862670004	-0.657549977	-1.14059997	9	47	172
-0.862670004	-0.65820998	-1.14020002	9	47	172
-0.862129986	-0.656610012	-1.1401	9	47	172
-0.862129986	-0.656019986	-1.14049995	9	47	172
-0.861029983	-0.655179977	-1.13900006	9	47	172
-0.860490024	-0.654770017	-1.13829994	9	47	172
-0.858439982	-0.655430019	-1.13940001	9	47	172
-0.857349992	-0.654590011	-1.13800001	9	47	172
-0.856809974	-0.65417999	-1.13730001	9	47	172
-0.855719984	-0.653339982	-1.1358	9	47	172
-0.855170012	-0.652920008	-1.13510001	9	47	172
-0.854080021	-0.652090013	-1.1336	9	47	172
-0.853540003	-0.651669979	-1.1329	9	47	172
-0.852999985	-0.651250005	-1.1322	9	47	172
-0.852999985	-0.651920021	-1.13180006	9	47	172
-0.852450013	-0.650829971	-1.13150001	9	47	172
-0.851360023	-0.649990022	-1.13	9	47	172
-0.850820005	-0.649580002	-1.1293	9	47	172
-0.850269973	-0.649160028	-1.12849998	9	47	172
-0.848640025	-0.647899985	-1.12639999	9	47	172
-0.848640025	-0.648940027	-1.12580001	9	47	172
-0.851199985	-0.648699999	-1.12539995	9	47	172
-0.846459985	-0.646780014	-1.12310004	9	47	172
-0.84574002	-0.645229995	-1.11769998	9	47	172
-0.847739995	-0.644580007	-1.11660004	9	47	172
-0.845009983	-0.642159998	-1.11310005	9	47	172
-0.843909979	-0.64151001	-1.11160004	9	47	172
-0.841920018	-0.642159998	-1.11269999	9	47	172
-0.843010008	-0.642809987	-1.1142	9	47	172
-0.841560006	-0.643429995	-1.1164	9	47	172
-0.842100024	-0.642889977	-1.11759996	9	47	172
-0.839190006	-0.640190005	-1.10899997	9	47	172
-0.841170013	-0.639540017	-1.10790002	9	47	172
-0.835020006	-0.638029993	-1.10790002	9	47	172
-0.854480028	-0.650730014	-1.13	9	47	172
-0.854480028	-0.649940014	-1.13039994	9	47	172
-0.855570018	-0.65151	-1.13150001	9	47	172
-0.85503	-0.652260005	-1.13010001	9	47	172
-0.857050002	-0.651600003	-1.12890005	9	47	172
-0.85720998	-0.654060006	-1.1329	9	47	172
-0.857760012	-0.654449999	-1.1336	9	47	172
-0.858299971	-0.653100014	-1.13540006	9	47	172
-0.859790027	-0.653779984	-1.13250005	9	47	172
-0.859529972	-0.656270027	-1.14090002	9	47	172
-0.861710012	-0.65793997	-1.14380002	9	47	172
-0.86224997	-0.658360004	-1.14450002	9	47	172
-0.86224997	-0.65970999	-1.14380002	9	47	172
-0.864310026	-0.659300029	-1.14240003	9	47	172
-0.864859998	-0.659690022	-1.14320004	9	47	172
-0.864979982	-0.662240028	-1.14709997	9	47	172
-0.864979982	-0.661660016	-1.14750004	9	47	172
-0.866069973	-0.662760019	-1.14880002	9	47	172
-0.866069973	-0.663089991	-1.14859998	9	47	172
-0.866609991	-0.663510025	-1.14929998	9	47	172
-0.867160022	-0.663940012	-1.14999998	9	47	172
-0.867699981	-0.664330006	-1.15079999	9	47	172
-0.868789971	-0.665000021	-1.1523	9	47	172
-0.869340003	-0.664049983	-1.15380001	9	47	172
-0.869880021	-0.665809989	-1.15380001	9	47	172
-0.870419979	-0.666400015	-1.15439999	9	47	172
-0.871510029	-0.667299986	-1.15579998	9	47	172
-0.873589993	-0.665480018	-1.15530002	9	47	172
-0.874140024	-0.665210009	-1.15639997	9	47	172
-0.874689996	-0.665629983	-1.15719998	9	47	172
-0.875230014	-0.666040003	-1.15789998	9	47	172
-0.875779986	-0.666459978	-1.15859997	9	47	172
-0.876869977	-0.667299986	-1.16009998	9	47	172
-0.881150007	-0.668799996	-1.16149998	9	47	172
-0.883340001	-0.670729995	-1.16429996	9	47	172
-0.88015002	-0.667689979	-1.16569996	9	47	172
-0.877510011	-0.665470004	-1.16750002	9	47	172
-0.877040029	-0.666209996	-1.17159998	9	47	172
-0.879679978	-0.671190023	-1.1681	9	47	172
-0.879140019	-0.671320021	-1.16709995	9	47	172
-0.88023001	-0.672160029	-1.16849995	9	47	172
-0.880770028	-0.672580004	-1.16929996	9	47	172
-0.880770028	-0.673449993	-1.1688	9	47	172
-0.88132	-0.674730003	-1.16900003	9	47	172
-0.88132	-0.674769998	-1.16900003	9	47	172
-0.881860018	-0.674979985	-1.16980004	9	47	172
-0.88240999	-0.674350023	-1.17110002	9	47	172
-0.88240999	-0.673829973	-1.17139995	9	47	172
-0.881860018	-0.673409998	-1.17069995	9	47	172
-0.879209995	-0.673669994	-1.17120004	9	47	172
-0.877040029	-0.671999991	-1.16830003	9	47	172
-0.877510011	-0.671320021	-1.16419995	9	47	172
-0.886699975	-0.674820006	-1.17309999	9	47	172
-0.887250006	-0.677060008	-1.17279994	9	47	172
-0.888809979	-0.675960004	-1.17089999	9	47	172
-0.88827002	-0.673709989	-1.17120004	9	47	172
-0.887170017	-0.674730003	-1.16869998	9	47	172
-0.888890028	-0.675440013	-1.1767	9	47	172
-0.888890028	-0.67377001	-1.17760003	9	47	172
-0.886759996	-0.676129997	-1.17789996	9	47	172
-0.888400018	-0.674179971	-1.18190002	9	47	172
-0.89161998	-0.673520029	-1.18260002	9	47	172
-0.886759996	-0.671339989	-1.18060005	9	47	172
-0.884679973	-0.668940008	-1.18900001	9	47	172
-0.886309981	-0.669570029	-1.19149995	9	47	172
-0.893739998	-0.679660022	-1.17750001	9	47	172
-0.892650008	-0.678879976	-1.176	9	47	172
-0.895990014	-0.683679998	-1.18449998	9	47	172
-0.891700029	-0.685180008	-1.1868	9	47	172
-0.889020026	-0.684360027	-1.18789995	9	47	172
-0.889020026	-0.683579981	-1.18840003	9	47	172
-0.887929976	-0.684019983	-1.18620002	9	47	172
-0.887929976	-0.684409976	-1.18599999	9	47	172
-0.887929976	-0.684599996	-1.18579996	9	47	172
-0.887929976	-0.684620023	-1.18579996	9	47	172
-0.887390018	-0.684069991	-1.18519998	9	47	172
-0.887390018	-0.683019996	-1.18579996	9	47	172
-0.887390018	-0.682959974	-1.18579996	9	47	172
-0.887390018	-0.682900012	-1.18589997	9	47	172
-0.878669977	-0.660300016	-1.17780006	9	47	172
-0.87292999	-0.663380027	-1.15009999	9	47	172
-0.872389972	-0.663429976	-1.14909995	9	47	172
-0.871290028	-0.661339998	-1.14839995	9	47	172
-0.868130028	-0.661180019	-1.14810002	9	47	172
-0.868130028	-0.661379993	-1.148	9	47	172
-0.868130028	-0.66061002	-1.14849997	9	47	172
-0.868130028	-0.662410021	-1.14740002	9	47	172
-0.860620022	-0.65338999	-1.14450002	9	47	172
-0.862670004	-0.652729988	-1.14330006	9	47	172
-0.856389999	-0.646709979	-1.14590001	9	47	172
-0.870970011	-0.651130021	-1.16410005	9	47	172
-0.868889987	-0.651790023	-1.1652	9	47	172
-0.869710028	-0.684140027	-1.18579996	9	47	172
