-0.258659989	-0.582509995	-1.37950003	3	131	136
-0.258780003	-0.581459999	-1.38100004	3	131	136
-0.253820002	-0.580900013	-1.37969995	3	131	136
-0.253699988	-0.581950009	-1.37820005	3	131	136
-0.253589988	-0.582809985	-1.37679994	3	131	136
-0.253699988	-0.584469974	-1.37709999	3	131	136
-0.256060004	-0.584360003	-1.37689996	3	131	136
-0.25582999	-0.582319975	-1.37559998	3	131	136
-0.251340002	-0.583310008	-1.3779	3	131	136
-0.251340002	-0.584569991	-1.37740004	3	131	136
-0.248970002	-0.584680021	-1.37759995	3	131	136
-0.248970002	-0.583410025	-1.37820005	3	131	136
-0.248750001	-0.581390023	-1.37689996	3	131	136
-0.248750001	-0.579949975	-1.37750006	3	131	136
-0.24639	-0.580060005	-1.37769997	3	131	136
-0.24628	-0.581099987	-1.37619996	3	131	136
-0.2465	-0.583130002	-1.37750006	3	131	136
-0.244139999	-0.581969976	-1.37829995	3	131	136
-0.244240001	-0.580929995	-1.37979996	3	131	136
-0.24188	-0.582459986	-1.37940001	3	131	136
-0.24188	-0.583710015	-1.37890005	3	131	136
-0.23951	-0.582560003	-1.37960005	3	131	136
-0.23962	-0.581510007	-1.38119996	3	131	136
-0.242090002	-0.581799984	-1.38189995	3	131	136
-0.242200002	-0.580669999	-1.38339996	3	131	136
-0.244570002	-0.580569983	-1.38320005	3	131	136
-0.246940002	-0.580470026	-1.3829	3	131	136
-0.246720001	-0.578270018	-1.38170004	3	131	136
-0.246720001	-0.576860011	-1.38230002	3	131	136
-0.244460002	-0.577340007	-1.38339996	3	131	136
-0.244680002	-0.576839983	-1.3858	3	131	136
-0.242410004	-0.57731998	-1.38699996	3	131	136
-0.240040004	-0.577419996	-1.3872	3	131	136
-0.240040004	-0.578679979	-1.38670003	3	131	136
-0.237460002	-0.578010023	-1.38510001	3	131	136
-0.23725	-0.578660011	-1.38259995	3	131	136
-0.237350002	-0.58047998	-1.38300002	3	131	136
-0.237149999	-0.581219971	-1.38049996	3	131	136
-0.239409998	-0.579230011	-1.38	3	131	136
-0.239409998	-0.577799976	-1.38059998	3	131	136
-0.24188	-0.578090012	-1.38129997	3	131	136
-0.24199	-0.577049971	-1.38279998	3	131	136
-0.244240001	-0.577989995	-1.38100004	3	131	136
-0.248970002	-0.579209983	-1.37989998	3	131	136
-0.251219988	-0.578719974	-1.37880003	3	131	136
-0.251109987	-0.579850018	-1.37720001	3	131	136
-0.251340002	-0.582050025	-1.37849998	3	131	136
-0.253699988	-0.578999996	-1.37940001	3	131	136
-0.249200001	-0.578549981	-1.38240004	3	131	136
-0.249420002	-0.577899992	-1.38479996	3	131	136
-0.249530002	-0.577019989	-1.38619995	3	131	136
-0.249420002	-0.575399995	-1.3858	3	131	136
-0.251789987	-0.573920012	-1.38619995	3	131	136
-0.249870002	-0.575540006	-1.3901	3	131	136
-0.249980003	-0.574469984	-1.39160001	3	131	136
-0.249980003	-0.57306999	-1.39219999	3	131	136
-0.247600004	-0.573170006	-1.39240003	3	131	136
-0.247600004	-0.571780026	-1.39300001	3	131	136
-0.247490004	-0.569999993	-1.39269996	3	131	136
-0.245220006	-0.570469975	-1.39380002	3	131	136
-0.245220006	-0.569060028	-1.3944	3	131	136
-0.245220006	-0.573270023	-1.39269996	3	131	136
-0.245000005	-0.573920012	-1.39020002	3	131	136
-0.247380003	-0.573819995	-1.38999999	3	131	136
-0.247270003	-0.576259971	-1.38789999	3	131	136
-0.247270003	-0.577509999	-1.38740003	3	131	136
-0.245110005	-0.577120006	-1.38999999	3	131	136
-0.242840007	-0.577600002	-1.39119995	3	131	136
-0.240459993	-0.577700019	-1.39139998	3	131	136
-0.240250006	-0.57555002	-1.3901	3	131	136
-0.240349993	-0.574490011	-1.39160001	3	131	136
-0.240459993	-0.573469996	-1.39310002	3	131	136
-0.242730007	-0.57299	-1.39199996	3	131	136
-0.242620006	-0.574010015	-1.39049995	3	131	136
-0.242410004	-0.574699998	-1.38810003	3	131	136
-0.244790003	-0.574599981	-1.38779998	3	131	136
-0.246940002	-0.573740005	-1.38569999	3	131	136
-0.252469987	-0.574750006	-1.39230001	3	131	136
-0.252469987	-0.573350012	-1.39279997	3	131	136
-0.252579987	-0.572329998	-1.39429998	3	131	136
-0.252700001	-0.57130003	-1.39579999	3	131	136
-0.255199999	-0.571569979	-1.39649999	3	131	136
-0.255199999	-0.572979987	-1.39590001	3	131	136
-0.254970014	-0.573620021	-1.39349997	3	131	136
-0.25474	-0.57427001	-1.39110005	3	131	136
-0.250200003	-0.572430015	-1.39460003	3	131	136
-0.249980003	-0.570270002	-1.39330006	3	131	136
-0.245649993	-0.573390007	-1.39690006	3	131	136
-0.248370007	-0.570129991	-1.40120006	3	131	136
-0.248480007	-0.569029987	-1.40269995	3	131	136
-0.248370007	-0.567260027	-1.40240002	3	131	136
-0.250869989	-0.567529976	-1.403	3	131	136
-0.25097999	-0.569299996	-1.40339994	3	131	136
-0.253259987	-0.568830013	-1.40219998	3	131	136
-0.253259987	-0.567430019	-1.40279996	3	131	136
-0.253259987	-0.566049993	-1.40330005	3	131	136
-0.25108999	-0.566890001	-1.40540004	3	131	136
-0.248699993	-0.566990018	-1.40569997	3	131	136
-0.251430005	-0.566649973	-1.40869999	3	131	136
-0.251430005	-0.565289974	-1.40929997	3	131	136
-0.253829986	-0.565190017	-1.40900004	3	131	136
-0.253600001	-0.565800011	-1.4066	3	131	136
-0.256000012	-0.564339995	-1.40690005	3	131	136
-0.243900001	-0.564469993	-1.4073	3	131	136
-0.241809994	-0.568400025	-1.40919995	3	131	136
-0.241500005	-0.568669975	-1.40579998	3	131	136
-0.238790005	-0.56904	-1.40269995	3	131	136
-0.238690004	-0.567269981	-1.40240002	3	131	136
-0.238690004	-0.570140004	-1.40120006	3	131	136
-0.238480002	-0.570850015	-1.39880002	3	131	136
-0.238279998	-0.571510017	-1.39639997	3	131	136
-0.238279998	-0.572920024	-1.39579999	3	131	136
-0.238279998	-0.574320018	-1.39520001	3	131	136
-0.238069996	-0.574959993	-1.39279997	3	131	136
-0.237869993	-0.575649977	-1.39040005	3	131	136
-0.237969995	-0.577419996	-1.39069998	3	131	136
-0.237869993	-0.578279972	-1.38929999	3	131	136
-0.235389993	-0.57674998	-1.38909996	3	131	136
-0.235389993	-0.57536	-1.38970006	3	131	136
-0.235589996	-0.574679971	-1.39209998	3	131	136
-0.235789999	-0.574029982	-1.39450002	3	131	136
-0.235890001	-0.573019981	-1.39600003	3	131	136
-0.235990003	-0.57198	-1.39750004	3	131	136
-0.235890001	-0.570190012	-1.39719999	3	131	136
-0.233510002	-0.570280015	-1.39740002	3	131	136
-0.233510002	-0.571699977	-1.39680004	3	131	136
-0.233410001	-0.572730005	-1.39530003	3	131	136
-0.233410001	-0.574119985	-1.39470005	3	131	136
-0.230930001	-0.573830009	-1.39400005	3	131	136
-0.230829999	-0.572059989	-1.3937	3	131	136
-0.230829999	-0.570649981	-1.39429998	3	131	136
-0.231220007	-0.570749998	-1.39849997	3	131	136
-0.231319994	-0.569660008	-1.39999998	3	131	136
-0.233710006	-0.569570005	-1.39979994	3	131	136
-0.233710006	-0.568099976	-1.40040004	3	131	136
-0.233710006	-0.566709995	-1.40100002	3	131	136
-0.233710006	-0.565330029	-1.40149999	3	131	136
-0.231319994	-0.565410018	-1.40180004	3	131	136
-0.231509998	-0.56753999	-1.403	3	131	136
-0.231120005	-0.567439973	-1.39880002	3	131	136
-0.228640005	-0.567149997	-1.39810002	3	131	136
-0.228729993	-0.569000006	-1.39839995	3	131	136
-0.228929996	-0.571210027	-1.39970005	3	131	136
-0.226439998	-0.570919991	-1.39890003	3	131	136
-0.22157	-0.572130024	-1.39789999	3	131	136
-0.221479997	-0.570339978	-1.39750004	3	131	136
-0.22157	-0.569249988	-1.39900005	3	131	136
-0.219180003	-0.569329977	-1.39919996	3	131	136
-0.21909	-0.570420027	-1.39769995	3	131	136
-0.21909	-0.571829975	-1.39709997	3	131	136
-0.219009995	-0.572860003	-1.39559996	3	131	136
-0.219009995	-0.574259996	-1.3951	3	131	136
-0.218920007	-0.575280011	-1.39359999	3	131	136
-0.218740001	-0.575969994	-1.39110005	3	131	136
-0.218649998	-0.576969981	-1.38960004	3	131	136
-0.221389994	-0.574180007	-1.39489996	3	131	136
-0.221300006	-0.572399974	-1.39450002	3	131	136
-0.224140003	-0.56704998	-1.40180004	3	131	136
-0.221929997	-0.567879975	-1.40390003	3	131	136
-0.221929997	-0.566500008	-1.40439999	3	131	136
-0.219449997	-0.566209972	-1.40369999	3	131	136
-0.219630003	-0.565590024	-1.40610003	3	131	136
-0.217230007	-0.565670013	-1.40629995	3	131	136
-0.217230007	-0.567030013	-1.40579998	3	131	136
-0.21706	-0.567669988	-1.40339994	3	131	136
-0.214660004	-0.567749977	-1.40359998	3	131	136
-0.214750007	-0.566739976	-1.40499997	3	131	136
-0.214829996	-0.565750003	-1.40649998	3	131	136
-0.214750007	-0.564019978	-1.40610003	3	131	136
-0.214750007	-0.562619984	-1.40670002	3	131	136
-0.214919999	-0.561959982	-1.40910006	3	131	136
-0.217230007	-0.562919974	-1.40740001	3	131	136
-0.217230007	-0.564310014	-1.40690005	3	131	136
-0.219720006	-0.563210011	-1.40810001	3	131	136
-0.219809994	-0.56497997	-1.40849996	3	131	136
-0.222210005	-0.563499987	-1.40890002	3	131	136
-0.222389996	-0.565639973	-1.4102	3	131	136
-0.222479999	-0.567369998	-1.41050005	3	131	136
-0.224610001	-0.566169977	-1.40760005	3	131	136
-0.224610001	-0.564809978	-1.40810001	3	131	136
-0.224700004	-0.563790023	-1.40960002	3	131	136
-0.227190003	-0.564069986	-1.41030002	3	131	136
-0.226909995	-0.564360023	-1.40699995	3	131	136
-0.227009997	-0.566089988	-1.40740001	3	131	136
-0.226909995	-0.567080021	-1.4059	3	131	136
-0.224419996	-0.566789985	-1.4052	3	131	136
-0.224419996	-0.569570005	-1.40400004	3	131	136
-0.22202	-0.569649994	-1.40419996	3	131	136
-0.219630003	-0.569729984	-1.40439999	3	131	136
-0.219630003	-0.568340003	-1.40499997	3	131	136
-0.217230007	-0.569809973	-1.40460002	3	131	136
-0.214829996	-0.569890022	-1.40480006	3	131	136
-0.222570002	-0.563560009	-1.4131	3	131	136
-0.222479999	-0.561779976	-1.41279995	3	131	136
-0.224979997	-0.56348002	-1.41289997	3	131	136
-0.227479994	-0.563769996	-1.41359997	3	131	136
-0.229980007	-0.56121999	-1.41550004	3	131	136
-0.227569997	-0.559889972	-1.41630006	3	131	136
-0.227479994	-0.558109999	-1.41589999	3	131	136
-0.230079994	-0.558759987	-1.41750002	3	131	136
-0.230269998	-0.560909986	-1.4188	3	131	136
-0.232590005	-0.560450017	-1.41770005	3	131	136
-0.232679993	-0.559400022	-1.41919994	3	131	136
-0.234999999	-0.558950007	-1.41799998	3	131	136
-0.237509996	-0.559220016	-1.41869998	3	131	136
-0.237310007	-0.559909999	-1.41630006	3	131	136
-0.237310007	-0.56133002	-1.41569996	3	131	136
-0.237210006	-0.562370002	-1.41429996	3	131	136
-0.237210006	-0.563790023	-1.41369998	3	131	136
-0.239720002	-0.564059973	-1.41439998	3	131	136
-0.239720002	-0.562650025	-1.41489995	3	131	136
-0.239720002	-0.561240017	-1.41550004	3	131	136
-0.23962	-0.559449971	-1.41509998	3	131	136
-0.239820004	-0.558770001	-1.41760004	3	131	136
-0.242129996	-0.559729993	-1.41579998	3	131	136
-0.242229998	-0.561510026	-1.41620004	3	131	136
-0.242229998	-0.562919974	-1.41559994	3	131	136
-0.24244	-0.559409976	-1.41919994	3	131	136
-0.245169997	-0.557690024	-1.42279994	3	131	136
-0.245169997	-0.556230009	-1.42330003	3	131	136
-0.247590005	-0.556140006	-1.42309999	3	131	136
-0.247490004	-0.557229996	-1.42159998	3	131	136
-0.250010014	-0.557489991	-1.42229998	3	131	136
-0.249899998	-0.558480024	-1.42079997	3	131	136
-0.252319992	-0.558390021	-1.42060006	3	131	136
-0.252429992	-0.557399988	-1.42200005	3	131	136
-0.252429992	-0.555939972	-1.42260003	3	131	136
-0.25485	-0.555840015	-1.4224	3	131	136
-0.25485	-0.557299972	-1.42180002	3	131	136
-0.250120014	-0.556400001	-1.42379999	3	131	136
-0.248239994	-0.552579999	-1.43089998	3	131	136
-0.245920002	-0.553030014	-1.43210006	3	131	136
-0.246030003	-0.551859975	-1.43359995	3	131	136
-0.243699998	-0.55230999	-1.43470001	3	131	136
-0.243489996	-0.553120017	-1.43229997	3	131	136
-0.241060004	-0.55321002	-1.4325	3	131	136
-0.241160005	-0.552039981	-1.43410003	3	131	136
-0.238419995	-0.552590013	-1.43089998	3	131	136
-0.24075	-0.549099982	-1.43089998	3	131	136
-0.243169993	-0.549009979	-1.43069994	3	131	136
-0.248569995	-0.549099982	-1.43540001	3	131	136
-0.248779997	-0.54847002	-1.43780005	3	131	136
-0.248569995	-0.546450019	-1.43640006	3	131	136
-0.248889998	-0.546019971	-1.43980002	3	131	136
-0.253659993	-0.545480013	-1.43830001	3	131	136
-0.253549993	-0.546609998	-1.43690002	3	131	136
-0.253769994	-0.548640013	-1.4382	3	131	136
-0.256089985	-0.55102998	-1.43589997	3	131	136
-0.256089985	-0.552540004	-1.43540001	3	131	136
-0.253210008	-0.551209986	-1.43190002	3	131	136
-0.253769994	-0.54430002	-1.43990004	3	131	136
-0.261779994	-0.546109974	-1.44459999	3	131	136
-0.262019992	-0.545400023	-1.44700003	3	131	136
-0.262129992	-0.544350028	-1.44850004	3	131	136
-0.264580011	-0.544250011	-1.44819999	3	131	136
-0.264580011	-0.542859972	-1.44869995	3	131	136
-0.264580011	-0.541469991	-1.44930005	3	131	136
-0.264699996	-0.540329993	-1.45070004	3	131	136
-0.267159998	-0.540229976	-1.45050001	3	131	136
-0.267280012	-0.542060018	-1.45079994	3	131	136
-0.267280012	-0.543449998	-1.45029998	3	131	136
-0.267040014	-0.544149995	-1.44790006	3	131	136
-0.267159998	-0.545889974	-1.4483	3	131	136
-0.264699996	-0.546000004	-1.44860005	3	131	136
-0.264349997	-0.546360016	-1.44529998	3	131	136
-0.266799986	-0.546249986	-1.44500005	3	131	136
-0.26936999	-0.54509002	-1.44620001	3	131	136
-0.269239992	-0.543340027	-1.44579995	3	131	136
-0.271439999	-0.542540014	-1.44369996	3	131	136
-0.271319985	-0.543579996	-1.44219995	3	131	136
-0.271200001	-0.544640005	-1.44079995	3	131	136
-0.271200001	-0.546169996	-1.44019997	3	131	136
-0.268759996	-0.546280026	-1.44050002	3	131	136
-0.26888001	-0.548120022	-1.44079995	3	131	136
-0.268640012	-0.548730016	-1.43850005	3	131	136
-0.271200001	-0.548979998	-1.43910003	3	131	136
-0.271439999	-0.548370004	-1.44149995	3	131	136
-0.273889989	-0.548259974	-1.44120002	3	131	136
-0.273889989	-0.549579978	-1.44070005	3	131	136
-0.276329994	-0.549470007	-1.4404	3	131	136
-0.276329994	-0.548150003	-1.44089997	3	131	136
-0.276329994	-0.546660006	-1.44149995	3	131	136
-0.276459992	-0.545469999	-1.44299996	3	131	136
-0.278899997	-0.545360029	-1.44270003	3	131	136
-0.278899997	-0.543950021	-1.44319999	3	131	136
-0.278899997	-0.542559981	-1.44369996	3	131	136
-0.276329994	-0.542320013	-1.44309998	3	131	136
-0.273889989	-0.542429984	-1.44340003	3	131	136
-0.273640007	-0.543120027	-1.44099998	3	131	136
-0.273640007	-0.544529974	-1.44050002	3	131	136
-0.273759991	-0.546410024	-1.44079995	3	131	136
-0.275950015	-0.542659998	-1.43980002	3	131	136
-0.281089991	-0.543139994	-1.44099998	3	131	136
-0.281219989	-0.544889987	-1.44140005	3	131	136
-0.281610012	-0.547479987	-1.44360006	3	131	136
-0.284049988	-0.547370017	-1.44330001	3	131	136
-0.284049988	-0.545830011	-1.44389999	3	131	136
-0.284049988	-0.544420004	-1.44449997	3	131	136
-0.284049988	-0.543030024	-1.44500005	3	131	136
-0.281610012	-0.543139994	-1.44529998	3	131	136
-0.279549986	-0.54290998	-1.44889998	3	131	136
-0.277090013	-0.54302001	-1.44920003	3	131	136
-0.277090013	-0.54163003	-1.4497	3	131	136
-0.274769992	-0.542089999	-1.45089996	3	131	136
-0.27452001	-0.542779982	-1.44850004	3	131	136
-0.272060007	-0.542890012	-1.44879997	3	131	136
-0.272060007	-0.541499972	-1.44939995	3	131	136
-0.269609988	-0.541599989	-1.44959998	3	131	136
-0.269609988	-0.542999983	-1.44910002	3	131	136
-0.269730002	-0.540470004	-1.45109999	3	131	136
-0.269980013	-0.539650023	-1.45350003	3	131	136
-0.270220011	-0.538860023	-1.45599997	3	131	136
-0.270339996	-0.537729979	-1.45739996	3	131	136
-0.270339996	-0.536279976	-1.45799994	3	131	136
-0.267760009	-0.536050022	-1.45729995	3	131	136
-0.267760009	-0.534609973	-1.45780003	3	131	136
-0.267879993	-0.533420026	-1.45930004	3	131	136
-0.26552999	-0.533860028	-1.4605	3	131	136
-0.263069987	-0.533959985	-1.46080005	3	131	136
-0.262950003	-0.535149992	-1.45930004	3	131	136
-0.262950003	-0.53658998	-1.45879996	3	131	136
-0.263069987	-0.538380027	-1.45920002	3	131	136
-0.26552999	-0.53828001	-1.45889997	3	131	136
-0.265300006	-0.536149979	-1.4576	3	131	136
-0.265300006	-0.53470999	-1.45809996	3	131	136
-0.267879993	-0.537829995	-1.45770001	3	131	136
-0.267760009	-0.538969994	-1.4562	3	131	136
-0.267639995	-0.540099978	-1.45480001	3	131	136
-0.265060008	-0.53986001	-1.45410001	3	131	136
-0.262600005	-0.539960027	-1.45439994	3	131	136
-0.262829989	-0.539170027	-1.45679998	3	131	136
-0.265300006	-0.53907001	-1.45650005	3	131	136
-0.260250002	-0.538919985	-1.45609999	3	131	136
-0.260479987	-0.538139999	-1.45850003	3	131	136
-0.260479987	-0.536689997	-1.45910001	3	131	136
-0.260369986	-0.534910023	-1.45869994	3	131	136
-0.258020014	-0.535350025	-1.45990002	3	131	136
-0.258130014	-0.537129998	-1.46029997	3	131	136
-0.255659997	-0.537230015	-1.4605	3	131	136
-0.255659997	-0.535790026	-1.46109998	3	131	136
-0.255780011	-0.534590006	-1.46259999	3	131	136
-0.253309995	-0.534690022	-1.46280003	3	131	136
-0.253199995	-0.535880029	-1.46130002	3	131	136
-0.253089994	-0.536979973	-1.45990002	3	131	136
-0.250510007	-0.536729991	-1.45920002	3	131	136
-0.250510007	-0.535290003	-1.45969999	3	131	136
-0.250620008	-0.534099996	-1.4612	3	131	136
-0.248150006	-0.535719991	-1.46089995	3	131	136
-0.248040006	-0.536819994	-1.45940006	3	131	136
-0.245790005	-0.537599981	-1.46150005	3	131	136
-0.243210003	-0.537339985	-1.46080005	3	131	136
-0.24075	-0.537429988	-1.46109998	3	131	136
-0.240850002	-0.536329985	-1.46249998	3	131	136
-0.240950003	-0.535139978	-1.46399999	3	131	136
-0.23838	-0.534879982	-1.46329999	3	131	136
-0.23838	-0.536419988	-1.46280003	3	131	136
-0.238279998	-0.537519991	-1.46130002	3	131	136
-0.235809997	-0.537599981	-1.46150005	3	131	136
-0.235709995	-0.535820007	-1.46109998	3	131	136
-0.2359	-0.534959972	-1.46360004	3	131	136
-0.233429998	-0.535049975	-1.46379995	3	131	136
-0.233339995	-0.536239982	-1.46229994	3	131	136
-0.233239993	-0.537339985	-1.46080005	3	131	136
-0.230680004	-0.538529992	-1.45959997	3	131	136
-0.228300005	-0.538950026	-1.46070004	3	131	136
-0.228300005	-0.537500024	-1.46130002	3	131	136
-0.228210002	-0.535719991	-1.46089995	3	131	136
-0.230680004	-0.535640001	-1.46060002	3	131	136
-0.230959997	-0.538110018	-1.46290004	3	131	136
-0.23105	-0.535470009	-1.46500003	3	131	136
-0.228489995	-0.535210013	-1.46420002	3	131	136
-0.226099998	-0.535629988	-1.46539998	3	131	136
-0.223719999	-0.536050022	-1.46650004	3	131	136
-0.223539993	-0.536899984	-1.4641	3	131	136
-0.220980003	-0.536629975	-1.46340001	3	131	136
-0.218590006	-0.535510004	-1.46510005	3	131	136
-0.215949997	-0.53490001	-1.46340001	3	131	136
-0.215780005	-0.535749972	-1.46099997	3	131	136
-0.215700001	-0.536849976	-1.45949996	3	131	136
-0.215619996	-0.537949979	-1.45799994	3	131	136
-0.218079999	-0.537880003	-1.45780003	3	131	136
-0.217989996	-0.536090016	-1.45739996	3	131	136
-0.220540002	-0.537800014	-1.4576	3	131	136
-0.220630005	-0.53670001	-1.45910001	3	131	136
-0.223179996	-0.536970019	-1.4598	3	131	136
-0.223100007	-0.538070023	-1.45840001	3	131	136
-0.223010004	-0.539200008	-1.4569	3	131	136
-0.220459998	-0.538929999	-1.45609999	3	131	136
-0.217989996	-0.539009988	-1.45630002	3	131	136
-0.215450004	-0.538730025	-1.45560002	3	131	136
-0.212899998	-0.538460016	-1.45490003	3	131	136
-0.212990001	-0.537329972	-1.45630002	3	131	136
-0.210529998	-0.537400007	-1.45650005	3	131	136
-0.210439995	-0.538529992	-1.45510006	3	131	136
-0.210280001	-0.539309978	-1.4526	3	131	136
-0.207829997	-0.539380014	-1.45280004	3	131	136
-0.205449998	-0.539799988	-1.45389998	3	131	136
-0.205520004	-0.541649997	-1.45430005	3	131	136
-0.205369994	-0.542439997	-1.45190001	3	131	136
-0.207910001	-0.542729974	-1.4526	3	131	136
-0.210360005	-0.542659998	-1.45249999	3	131	136
-0.210280001	-0.54369998	-1.45099998	3	131	136
-0.212819993	-0.542590022	-1.45229995	3	131	136
-0.212819993	-0.541100025	-1.45280004	3	131	136
-0.21266	-0.538900018	-1.45150006	3	131	136
-0.21503	-0.538479984	-1.45039999	3	131	136
-0.215200007	-0.540679991	-1.45169997	3	131	136
-0.215110004	-0.54181999	-1.45019996	3	131	136
-0.215200007	-0.543560028	-1.45060003	3	131	136
-0.217570007	-0.543139994	-1.44949996	3	131	136
-0.217570007	-0.544529974	-1.449	3	131	136
-0.217480004	-0.545580029	-1.44749999	3	131	136
-0.219929993	-0.54549998	-1.44729996	3	131	136
-0.219929993	-0.54411	-1.44780004	3	131	136
-0.220019996	-0.543060005	-1.44930005	3	131	136
-0.220019996	-0.541670024	-1.44980001	3	131	136
-0.220109999	-0.540530026	-1.45130002	3	131	136
-0.220109999	-0.539030015	-1.45190001	3	131	136
-0.217739999	-0.53944999	-1.45299995	3	131	136
-0.217649996	-0.540610015	-1.45150006	3	131	136
-0.217570007	-0.54174	-1.45000005	3	131	136
-0.214860007	-0.543550014	-1.44640005	3	131	136
-0.214949995	-0.545300007	-1.44679999	3	131	136
-0.212329999	-0.544669986	-1.44509995	3	131	136
-0.212329999	-0.543269992	-1.44560003	3	131	136
-0.212410003	-0.54223001	-1.44710004	3	131	136
-0.209879994	-0.543340027	-1.44579995	3	131	136
-0.209800005	-0.544390023	-1.44439995	3	131	136
-0.209720001	-0.545440018	-1.44289994	3	131	136
-0.209720001	-0.546980023	-1.44229996	3	131	136
-0.207279995	-0.547049999	-1.4425	3	131	136
-0.207359999	-0.545859993	-1.44400001	3	131	136
-0.207440004	-0.544809997	-1.44550002	3	131	136
-0.207509995	-0.543760002	-1.44690001	3	131	136
-0.207509995	-0.542370021	-1.44739997	3	131	136
-0.20499	-0.542089999	-1.44669998	3	131	136
-0.204909995	-0.543129981	-1.44519997	3	131	136
-0.20499	-0.544870019	-1.44560003	3	131	136
-0.20499	-0.546280026	-1.44509995	3	131	136
-0.202460006	-0.546000004	-1.44439995	3	131	136
-0.202539995	-0.544939995	-1.44579995	3	131	136
-0.202460006	-0.543190002	-1.4454	3	131	136
-0.202539995	-0.542150021	-1.44690001	3	131	136
-0.199939996	-0.54290998	-1.44459999	3	131	136
-0.200090006	-0.545000017	-1.44599998	3	131	136
-0.199939996	-0.545710027	-1.44360006	3	131	136
-0.1998	-0.546540022	-1.4411	3	131	136
-0.199719995	-0.54768002	-1.43959999	3	131	136
-0.199650005	-0.548640013	-1.4382	3	131	136
-0.202010006	-0.548219979	-1.43710005	3	131	136
-0.202160001	-0.547609985	-1.43949997	3	131	136
-0.202160001	-0.546119988	-1.44000006	3	131	136
-0.204679996	-0.547900021	-1.44019997	3	131	136
-0.20476	-0.546760023	-1.44169998	3	131	136
-0.207039997	-0.547479987	-1.43910003	3	131	136
-0.206959993	-0.54843998	-1.43770003	3	131	136
-0.206959993	-0.549769998	-1.43719995	3	131	136
-0.209399998	-0.549700022	-1.43700004	3	131	136
-0.209480003	-0.548730016	-1.43840003	3	131	136
-0.209560007	-0.54776001	-1.43990004	3	131	136
-0.212080002	-0.548049986	-1.44060004	3	131	136
-0.212080002	-0.549359977	-1.44009995	3	131	136
-0.214530006	-0.549290001	-1.43990004	3	131	136
-0.214440003	-0.547619998	-1.43949997	3	131	136
-0.214609995	-0.546840012	-1.44190001	3	131	136
-0.214609995	-0.545300007	-1.4425	3	131	136
-0.212170005	-0.545369983	-1.44270003	3	131	136
-0.212170005	-0.546909988	-1.44210005	3	131	136
-0.217050001	-0.546760023	-1.44169998	3	131	136
-0.217050001	-0.548259974	-1.44120002	3	131	136
-0.217219993	-0.550279975	-1.4425	3	131	136
-0.217050001	-0.550909996	-1.44019997	3	131	136
-0.214359999	-0.549920022	-1.43760002	3	131	136
-0.211919993	-0.549989998	-1.43770003	3	131	136
-0.211590007	-0.550069988	-1.43340003	3	131	136
-0.214019999	-0.550000012	-1.43330002	3	131	136
-0.216370001	-0.549570024	-1.43210006	3	131	136
-0.216279998	-0.550719976	-1.43060005	3	131	136
-0.216199994	-0.551890016	-1.42910004	3	131	136
-0.216199994	-0.553359985	-1.42850006	3	131	136
-0.218630001	-0.553290009	-1.42830002	3	131	136
-0.218630001	-0.551810026	-1.4289	3	131	136
-0.218799993	-0.551010013	-1.43139994	3	131	136
-0.218710005	-0.549139977	-1.43099999	3	131	136
-0.221139997	-0.549059987	-1.43079996	3	131	136
-0.221410006	-0.551639974	-1.43299997	3	131	136
-0.221670002	-0.549690008	-1.43700004	3	131	136
-0.221670002	-0.54835999	-1.4375	3	131	136
-0.219239995	-0.548430026	-1.43770003	3	131	136
-0.219239995	-0.549769998	-1.43719995	3	131	136
-0.219410002	-0.547829986	-1.44000006	3	131	136
-0.219500005	-0.546689987	-1.44149995	3	131	136
-0.219669998	-0.545859993	-1.44400001	3	131	136
-0.222210005	-0.546130002	-1.4447	3	131	136
-0.222210005	-0.547670007	-1.44410002	3	131	136
-0.224649996	-0.547590017	-1.44389999	3	131	136
-0.224649996	-0.546050012	-1.44449997	3	131	136
-0.224739999	-0.545000017	-1.44599998	3	131	136
-0.224559993	-0.542900026	-1.44459999	3	131	136
-0.2271	-0.543169975	-1.4454	3	131	136
-0.227009997	-0.544210017	-1.44389999	3	131	136
-0.226820007	-0.544920027	-1.44149995	3	131	136
-0.227009997	-0.547160029	-1.44280005	3	131	136
-0.227009997	-0.548650026	-1.44219995	3	131	136
-0.229450002	-0.54707998	-1.44260001	3	131	136
-0.229640007	-0.549279988	-1.44389999	3	131	136
-0.231989995	-0.548839986	-1.44270003	3	131	136
-0.234439999	-0.548759997	-1.4425	3	131	136
-0.234239995	-0.546559989	-1.44120002	3	131	136
-0.231800005	-0.546639979	-1.44140005	3	131	136
-0.231710002	-0.544749975	-1.4411	3	131	136
-0.229169995	-0.544480026	-1.4404	3	131	136
-0.229550004	-0.544480026	-1.44459999	3	131	136
-0.229739994	-0.543789983	-1.44700003	3	131	136
-0.232089996	-0.543359995	-1.44589996	3	131	136
-0.232189998	-0.545099974	-1.44630003	3	131	136
-0.234730005	-0.545369983	-1.44700003	3	131	136
-0.234640002	-0.543630004	-1.44659996	3	131	136
-0.234640002	-0.54223001	-1.44710004	3	131	136
-0.234730005	-0.541190028	-1.44850004	3	131	136
-0.234929994	-0.540409982	-1.45099998	3	131	136
-0.235029995	-0.539240003	-1.45239997	3	131	136
-0.235119998	-0.538110018	-1.45389998	3	131	136
-0.23522	-0.536979973	-1.45539999	3	131	136
-0.237680003	-0.536899984	-1.45519996	3	131	136
-0.237780005	-0.538720012	-1.45560002	3	131	136
-0.237780005	-0.540199995	-1.45500004	3	131	136
-0.240239993	-0.540109992	-1.45480001	3	131	136
-0.240239993	-0.538630009	-1.45529997	3	131	136
-0.240239993	-0.537159979	-1.45589995	3	131	136
-0.242799997	-0.537410021	-1.45659995	3	131	136
-0.242799997	-0.538890004	-1.45599997	3	131	136
-0.242699996	-0.540019989	-1.45449996	3	131	136
-0.245059997	-0.539590001	-1.45340002	3	131	136
-0.245159999	-0.538460016	-1.45490003	3	131	136
-0.24526	-0.537329972	-1.45630002	3	131	136
-0.247730002	-0.537240028	-1.45609999	3	131	136
-0.25018999	-0.537140012	-1.45580006	3	131	136
-0.250079989	-0.538269997	-1.45439994	3	131	136
-0.249860004	-0.539059997	-1.45200002	3	131	136
-0.249860004	-0.540570021	-1.45140004	3	131	136
-0.249970004	-0.542400002	-1.45179999	3	131	136
-0.247510001	-0.541010022	-1.4526	3	131	136
-0.247409999	-0.53915	-1.45220006	3	131	136
-0.247510001	-0.538020015	-1.45369995	3	131	136
-0.252429992	-0.537829995	-1.45319998	3	131	136
-0.252539992	-0.539659977	-1.45360005	3	131	136
-0.255109996	-0.539910018	-1.45420003	3	131	136
-0.255109996	-0.538429976	-1.45480001	3	131	136
-0.257679999	-0.538680017	-1.45550001	3	131	136
-0.257569999	-0.539810002	-1.454	3	131	136
-0.260019988	-0.539709985	-1.45369995	3	131	136
-0.259909987	-0.540880024	-1.45220006	3	131	136
-0.26236999	-0.540780008	-1.45200002	3	131	136
-0.262019992	-0.541220009	-1.44860005	3	131	136
-0.261900008	-0.542259991	-1.44719994	3	131	136
-0.25711	-0.53994	-1.4497	3	131	136
-0.25455001	-0.539690018	-1.449	3	131	136
-0.252209991	-0.540130019	-1.45019996	3	131	136
-0.252649993	-0.537050009	-1.45560002	3	131	136
-0.255439997	-0.537989974	-1.45809996	3	131	136
-0.257910013	-0.537890017	-1.45790005	3	131	136
-0.258359998	-0.534839988	-1.46319997	3	131	136
-0.260829985	-0.534739971	-1.46300006	3	131	136
-0.248469993	-0.535210013	-1.46420002	3	131	136
-0.246000007	-0.535300016	-1.46449995	3	131	136
-0.246099994	-0.537180007	-1.46490002	3	131	136
-0.243630007	-0.53727001	-1.46510005	3	131	136
-0.243630007	-0.535730004	-1.46570003	3	131	136
-0.26888001	-0.54509002	-1.44200003	3	131	136
-0.266200006	-0.546029985	-1.43980002	3	131	136
-0.26631999	-0.54786998	-1.44019997	3	131	136
-0.26631999	-0.549189985	-1.43970001	3	131	136
-0.270700008	-0.548900008	-1.43490005	3	131	136
-0.273259997	-0.549139977	-1.43550003	3	131	136
-0.275819987	-0.549380004	-1.43620002	3	131	136
-0.27838999	-0.549629986	-1.4368	3	131	136
-0.278640002	-0.549000025	-1.43920004	3	131	136
-0.278640002	-0.54768002	-1.43970001	3	131	136
-0.279159993	-0.547599971	-1.44389999	3	131	136
-0.282260001	-0.543489993	-1.45039999	3	131	136
-0.282389998	-0.542450011	-1.45190001	3	131	136
-0.284850001	-0.542330027	-1.45159996	3	131	136
-0.284979999	-0.544070005	-1.45200002	3	131	136
-0.287299991	-0.543609977	-1.45079994	3	131	136
-0.287169993	-0.541869998	-1.45029998	3	131	136
-0.287039995	-0.540040016	-1.45000005	3	131	136
-0.286900014	-0.538190007	-1.44959998	3	131	136
-0.284579992	-0.538649976	-1.45079994	3	131	136
-0.284720004	-0.540499985	-1.45120001	3	131	136
-0.282130003	-0.540269971	-1.45060003	3	131	136
-0.282130003	-0.538760006	-1.45109999	3	131	136
-0.279799998	-0.537739992	-1.45290005	3	131	136
-0.280059993	-0.539910018	-1.45420003	3	131	136
-0.280059993	-0.541419983	-1.45369995	3	131	136
-0.27759999	-0.541530013	-1.454	3	131	136
-0.27759999	-0.540019989	-1.45449996	3	131	136
-0.277480006	-0.538200021	-1.45420003	3	131	136
-0.275139987	-0.538649976	-1.45539999	3	131	136
-0.272680014	-0.538760006	-1.45570004	3	131	136
-0.27256	-0.539889991	-1.45420003	3	131	136
-0.272430003	-0.541050017	-1.45270002	3	131	136
-0.275020003	-0.541289985	-1.4533	3	131	136
-0.274769992	-0.539089978	-1.45200002	3	131	136
-0.279799998	-0.542209983	-1.45130002	3	131	136
-0.278239995	-0.538779974	-1.46029997	3	131	136
-0.275889993	-0.539240003	-1.46150005	3	131	136
-0.273299992	-0.538999975	-1.46089995	3	131	136
-0.270709991	-0.535870016	-1.46130002	3	131	136
-0.27094999	-0.535019994	-1.46370006	3	131	136
-0.293969989	-0.54430002	-1.44410002	3	131	136
-0.296420008	-0.542779982	-1.44430006	3	131	136
-0.296559989	-0.54174	-1.44579995	3	131	136
-0.29914999	-0.541970015	-1.44640005	3	131	136
-0.299010009	-0.543009996	-1.44490004	3	131	136
-0.296979994	-0.541390002	-1.44910002	3	131	136
-0.293139994	-0.549269974	-1.43589997	3	131	136
-0.295569986	-0.54914999	-1.43560004	3	131	136
-0.295569986	-0.550660014	-1.43499994	3	131	136
-0.295289993	-0.551460028	-1.4325	3	131	136
-0.29271999	-0.551230013	-1.43190002	3	131	136
-0.292860001	-0.550080001	-1.43350005	3	131	136
-0.297859997	-0.550180018	-1.43369997	3	131	136
-0.300300002	-0.550059974	-1.43340003	3	131	136
-0.300300002	-0.54855001	-1.43400002	3	131	136
-0.300300002	-0.547219992	-1.43449998	3	131	136
-0.302729994	-0.547089994	-1.43420005	3	131	136
-0.302729994	-0.548420012	-1.43359995	3	131	136
-0.302870005	-0.550279975	-1.43400002	3	131	136
-0.305310011	-0.550149977	-1.43369997	3	131	136
-0.305449992	-0.552020013	-1.43400002	3	131	136
-0.305159986	-0.548290014	-1.43330002	3	131	136
-0.302579999	-0.551079988	-1.43159997	3	131	136
-0.300150007	-0.551209986	-1.43190002	3	131	136
-0.299860001	-0.552020013	-1.42949998	3	131	136
-0.302289993	-0.551900029	-1.42910004	3	131	136
-0.302289993	-0.553369999	-1.42859995	3	131	136
-0.304720014	-0.553240001	-1.42820001	3	131	136
-0.304720014	-0.551769972	-1.42879999	3	131	136
-0.307139993	-0.551639974	-1.42850006	3	131	136
-0.306989998	-0.552749991	-1.42700005	3	131	136
-0.307139993	-0.554470003	-1.42739999	3	131	136
-0.307139993	-0.555850029	-1.42680001	3	131	136
-0.309410006	-0.555360019	-1.42560005	3	131	136
-0.309260011	-0.556500018	-1.42400002	3	131	136
-0.306690007	-0.556280017	-1.42349994	3	131	136
-0.309109986	-0.553260028	-1.42420006	3	131	136
-0.309260011	-0.552259982	-1.42569995	3	131	136
-0.311679989	-0.552129984	-1.4253	3	131	136
-0.311679989	-0.553480029	-1.42480004	3	131	136
-0.314099997	-0.553349972	-1.42449999	3	131	136
-0.314260006	-0.552349985	-1.42589998	3	131	136
-0.314410001	-0.555450022	-1.42579997	3	131	136
-0.314260006	-0.556590021	-1.42429996	3	131	136
-0.311989993	-0.557089984	-1.42550004	3	131	136
-0.311989993	-0.555589974	-1.42610002	3	131	136
-0.311529994	-0.55746001	-1.42219996	3	131	136
-0.313789994	-0.556959987	-1.42089999	3	131	136
-0.316359997	-0.557190001	-1.42149997	3	131	136
-0.318780005	-0.557039976	-1.42110002	3	131	136
-0.318780005	-0.558399975	-1.42060006	3	131	136
-0.318459988	-0.55904001	-1.41820002	3	131	136
-0.318459988	-0.560459971	-1.41770005	3	131	136
-0.318150014	-0.561140001	-1.41530001	3	131	136
-0.315890014	-0.560230017	-1.41709995	3	131	136
-0.315739989	-0.558459997	-1.41680002	3	131	136
-0.316049993	-0.557820022	-1.41910005	3	131	136
-0.323769987	-0.555670023	-1.42190003	3	131	136
-0.323929995	-0.557479978	-1.42229998	3	131	136
-0.326189995	-0.55697	-1.421	3	131	136
-0.326350003	-0.55588001	-1.42250001	3	131	136
-0.326189995	-0.554019988	-1.42209995	3	131	136
-0.328770012	-0.555729985	-1.42209995	3	131	136
-0.328599989	-0.556829989	-1.42060006	3	131	136
-0.328269988	-0.55746001	-1.41820002	3	131	136
-0.327939987	-0.558099985	-1.41589999	3	131	136
-0.327780008	-0.559149981	-1.41439998	3	131	136
-0.330190003	-0.559000015	-1.41400003	3	131	136
-0.332590014	-0.55884999	-1.41359997	3	131	136
-0.332590014	-0.560259998	-1.4131	3	131	136
-0.332590014	-0.561680019	-1.41250002	3	131	136
-0.332590014	-0.563090026	-1.41190004	3	131	136
-0.332419991	-0.564130008	-1.41050005	3	131	136
-0.33208999	-0.564800024	-1.40810001	3	131	136
-0.334309995	-0.564279974	-1.40680003	3	131	136
-0.33397001	-0.564899981	-1.40439999	3	131	136
-0.333799988	-0.565890014	-1.40289998	3	131	136
-0.333799988	-0.567269981	-1.40240002	3	131	136
-0.331580013	-0.567799985	-1.40369999	3	131	136
-0.331580013	-0.566410005	-1.40419996	3	131	136
-0.331580013	-0.565050006	-1.40480006	3	131	136
-0.329019994	-0.566190004	-1.40369999	3	131	136
-0.329180002	-0.56795001	-1.40400004	3	131	136
-0.329019994	-0.568970025	-1.40260005	3	131	136
-0.328680009	-0.569700003	-1.40009999	3	131	136
-0.326290011	-0.568379998	-1.40110004	3	131	136
-0.326460004	-0.567359984	-1.40260005	3	131	136
-0.326620013	-0.566340029	-1.40409994	3	131	136
-0.326790005	-0.565349996	-1.40550005	3	131	136
-0.326950014	-0.564369977	-1.40699995	3	131	136
-0.326790005	-0.562600017	-1.4066	3	131	136
-0.324880004	-0.562439978	-1.41030002	3	131	136
-0.324880004	-0.561029971	-1.4109	3	131	136
-0.327450007	-0.561249971	-1.41139996	3	131	136
-0.327450007	-0.562659979	-1.4109	3	131	136
-0.329849988	-0.561100006	-1.41100001	3	131	136
-0.329679996	-0.559319973	-1.41069996	3	131	136
-0.327280015	-0.559469998	-1.41110003	3	131	136
-0.330190003	-0.563239992	-1.41229999	3	131	136
-0.329849988	-0.563920021	-1.40989995	3	131	136
-0.329849988	-0.565320015	-1.40939999	3	131	136
-0.329519987	-0.565940022	-1.40699995	3	131	136
-0.335339993	-0.565079987	-1.41279995	3	131	136
-0.335339993	-0.563660026	-1.41340005	3	131	136
-0.335000008	-0.56151998	-1.41209996	3	131	136
-0.335000008	-0.560109973	-1.41270006	3	131	136
-0.335170001	-0.559059978	-1.41419995	3	131	136
-0.335339993	-0.558009982	-1.41559994	3	131	136
-0.332929999	-0.558160007	-1.41600001	3	131	136
-0.33326	-0.557519972	-1.41840005	3	131	136
-0.333600014	-0.556890011	-1.42069995	3	131	136
-0.336019993	-0.556739986	-1.42040002	3	131	136
-0.33585	-0.557730019	-1.41890001	3	131	136
-0.338429987	-0.557940006	-1.41939998	3	131	136
-0.34066999	-0.558780015	-1.41760004	3	131	136
-0.340499997	-0.559840024	-1.41610003	3	131	136
-0.340149999	-0.560530007	-1.41369998	3	131	136
-0.340149999	-0.561940014	-1.41320002	3	131	136
-0.340149999	-0.563350022	-1.41260004	3	131	136
-0.342559993	-0.563189983	-1.41219997	3	131	136
-0.342559993	-0.561779976	-1.41279995	3	131	136
-0.342909992	-0.561100006	-1.4152	3	131	136
-0.345319986	-0.560940027	-1.41480005	3	131	136
-0.34514001	-0.561990023	-1.41330004	3	131	136
-0.344960004	-0.563040018	-1.41180003	3	131	136
-0.347369999	-0.562870026	-1.41139996	3	131	136
-0.347369999	-0.561460018	-1.41199994	3	131	136
-0.349949986	-0.561659992	-1.41250002	3	131	136
-0.350129992	-0.560609996	-1.41390002	3	131	136
-0.347900003	-0.561140001	-1.41530001	3	131	136
-0.348259985	-0.560450017	-1.41770005	3	131	136
-0.348439991	-0.559390008	-1.41910005	3	131	136
-0.348619998	-0.558390021	-1.42060006	3	131	136
-0.348800004	-0.557389975	-1.42200005	3	131	136
-0.34898001	-0.556299984	-1.42349994	3	131	136
-0.348800004	-0.554440022	-1.42320001	3	131	136
-0.351209998	-0.554279983	-1.42279994	3	131	136
-0.351029992	-0.552540004	-1.4224	3	131	136
-0.348439991	-0.552349985	-1.42190003	3	131	136
-0.346199989	-0.552860022	-1.42320001	3	131	136
-0.346199989	-0.554239988	-1.42270005	3	131	136
-0.346379995	-0.556100011	-1.42299998	3	131	136
-0.346199989	-0.557190001	-1.42149997	3	131	136
-0.346379995	-0.558910012	-1.42190003	3	131	136
-0.343959987	-0.559069991	-1.42229998	3	131	136
-0.343780011	-0.55734998	-1.42190003	3	131	136
-0.343959987	-0.55625999	-1.42340004	3	131	136
-0.343959987	-0.554759979	-1.42400002	3	131	136
-0.344130009	-0.553730011	-1.42550004	3	131	136
-0.344309986	-0.552730024	-1.42690003	3	131	136
-0.346729994	-0.552569985	-1.42649996	3	131	136
-0.349150002	-0.552410007	-1.42610002	3	131	136
-0.354180008	-0.553799987	-1.42560005	3	131	136
-0.354180008	-0.555190027	-1.42509997	3	131	136
-0.354180008	-0.556689978	-1.42449999	3	131	136
-0.353989989	-0.557789981	-1.42299998	3	131	136
-0.35157001	-0.55795002	-1.42349994	3	131	136
-0.351390004	-0.556140006	-1.42309999	3	131	136
-0.351029992	-0.558229983	-1.42019999	3	131	136
-0.350849986	-0.55923003	-1.41869998	3	131	136
-0.35067001	-0.560289979	-1.41719997	3	131	136
-0.353080004	-0.560119987	-1.41680002	3	131	136
-0.352899998	-0.561179996	-1.41540003	3	131	136
-0.355129987	-0.560649991	-1.41400003	3	131	136
-0.355129987	-0.562059999	-1.41349995	3	131	136
-0.357719988	-0.562259972	-1.41400003	3	131	136
-0.357719988	-0.560840011	-1.4145	3	131	136
-0.357719988	-0.559430003	-1.41509998	3	131	136
-0.355309993	-0.559599996	-1.41550004	3	131	136
-0.355859995	-0.559260011	-1.4188	3	131	136
-0.355859995	-0.557900012	-1.41929996	3	131	136
-0.358280003	-0.557730019	-1.41890001	3	131	136
-0.360689998	-0.557560027	-1.41849995	3	131	136
-0.360879987	-0.559289992	-1.41890001	3	131	136
-0.363290012	-0.559119999	-1.41840005	3	131	136
-0.363290012	-0.557749987	-1.41900003	3	131	136
-0.365889996	-0.557940006	-1.41949999	3	131	136
-0.365700006	-0.558950007	-1.41799998	3	131	136
-0.368110001	-0.558770001	-1.41760004	3	131	136
-0.368110001	-0.557410002	-1.4181	3	131	136
-0.368499994	-0.556779981	-1.42050004	3	131	136
-0.370909989	-0.556599975	-1.41999996	3	131	136
-0.370719999	-0.557600021	-1.41859996	3	131	136
-0.370719999	-0.558960021	-1.41799998	3	131	136
-0.370719999	-0.560379982	-1.41750002	3	131	136
-0.373329997	-0.561980009	-1.4174	3	131	136
-0.373519987	-0.56092	-1.41890001	3	131	136
-0.37391001	-0.560220003	-1.42120004	3	131	136
-0.375939995	-0.559329987	-1.41900003	3	131	136
-0.375939995	-0.560739994	-1.41840005	3	131	136
-0.375939995	-0.562160015	-1.41779995	3	131	136
-0.378149986	-0.561619997	-1.41649997	3	131	136
-0.377750009	-0.559480011	-1.4152	3	131	136
-0.378149986	-0.558790028	-1.41760004	3	131	136
-0.378149986	-0.557420015	-1.4181	3	131	136
-0.375739992	-0.557600021	-1.41859996	3	131	136
-0.373129994	-0.557420015	-1.4181	3	131	136
-0.373329997	-0.556429982	-1.41960001	3	131	136
-0.373519987	-0.555329978	-1.42110002	3	131	136
-0.376130015	-0.555509984	-1.42149997	3	131	136
-0.375739992	-0.553309977	-1.42030001	3	131	136
-0.378149986	-0.553129971	-1.41980004	3	131	136
-0.378149986	-0.554620028	-1.41919994	3	131	136
-0.378549993	-0.556789994	-1.42050004	3	131	136
-0.380760014	-0.556249976	-1.41910005	3	131	136
-0.380760014	-0.557600021	-1.41859996	3	131	136
-0.380560011	-0.558610022	-1.41709995	3	131	136
-0.382970005	-0.558420002	-1.41670001	3	131	136
-0.382970005	-0.557060003	-1.41719997	3	131	136
-0.385589987	-0.557240009	-1.41770005	3	131	136
-0.38538	-0.558239996	-1.41620004	3	131	136
-0.38538	-0.559660017	-1.41569996	3	131	136
-0.384970009	-0.560350001	-1.41330004	3	131	136
-0.384970009	-0.561760008	-1.41270006	3	131	136
-0.385179996	-0.563530028	-1.4131	3	131	136
-0.382569999	-0.561950028	-1.41320002	3	131	136
-0.382569999	-0.560530007	-1.41369998	3	131	136
-0.382360011	-0.558759987	-1.41340005	3	131	136
-0.379759997	-0.558579981	-1.41289997	3	131	136
-0.380160004	-0.560720026	-1.41419995	3	131	136
-0.379759997	-0.561399996	-1.41180003	3	131	136
-0.377350003	-0.561590016	-1.41229999	3	131	136
-0.374949992	-0.561770022	-1.41270006	3	131	136
-0.372539997	-0.561950028	-1.41320002	3	131	136
-0.369940013	-0.560350001	-1.41330004	3	131	136
-0.369749993	-0.561399996	-1.41180003	3	131	136
-0.36954999	-0.562439978	-1.41030002	3	131	136
-0.367150009	-0.562619984	-1.41079998	3	131	136
-0.367150009	-0.561209977	-1.41129994	3	131	136
-0.364749998	-0.561380029	-1.41180003	3	131	136
-0.364749998	-0.559970021	-1.41229999	3	131	136
-0.362529993	-0.56050998	-1.41369998	3	131	136
-0.362340003	-0.561550021	-1.41219997	3	131	136
-0.360130012	-0.56208998	-1.41349995	3	131	136
-0.360130012	-0.560679972	-1.41410005	3	131	136
-0.359939992	-0.558899999	-1.41369998	3	131	136
-0.362910002	-0.559809983	-1.41610003	3	131	136
-0.365319997	-0.55963999	-1.41559994	3	131	136
-0.367729992	-0.559469998	-1.4152	3	131	136
-0.366769999	-0.559080005	-1.41009998	3	131	136
-0.364749998	-0.562789977	-1.41120005	3	131	136
-0.364749998	-0.564199984	-1.41059995	3	131	136
-0.366959989	-0.565060019	-1.40869999	3	131	136
-0.366769999	-0.563300014	-1.40840006	3	131	136
-0.36936	-0.564890027	-1.40830004	3	131	136
-0.371560007	-0.564339995	-1.40690005	3	131	136
-0.371369988	-0.562579989	-1.4066	3	131	136
-0.371760011	-0.56190002	-1.40900004	3	131	136
-0.374359995	-0.56208998	-1.40939999	3	131	136
-0.374359995	-0.563499987	-1.40890002	3	131	136
-0.376760006	-0.563319981	-1.40840006	3	131	136
-0.376359999	-0.561179996	-1.40719998	3	131	136
-0.378749996	-0.56099999	-1.40670002	3	131	136
-0.37935999	-0.563499987	-1.40890002	3	131	136
-0.381960005	-0.562269986	-1.40989995	3	131	136
-0.387580007	-0.560519993	-1.41369998	3	131	136
-0.387580007	-0.559109986	-1.41429996	3	131	136
-0.388000011	-0.558409989	-1.41670001	3	131	136
-0.388000011	-0.55704999	-1.41719997	3	131	136
-0.390610009	-0.557219982	-1.41760004	3	131	136
-0.390610009	-0.558589995	-1.41709995	3	131	136
-0.390199989	-0.559279978	-1.41470003	3	131	136
-0.393229991	-0.558749974	-1.41750002	3	131	136
-0.393440008	-0.557749987	-1.41900003	3	131	136
-0.393860012	-0.557110012	-1.42130005	3	131	136
-0.393860012	-0.555660009	-1.42190003	3	131	136
-0.394069999	-0.554520011	-1.42340004	3	131	136
-0.394279987	-0.553489983	-1.42480004	3	131	136
-0.396699995	-0.553300023	-1.42429996	3	131	136
-0.396279991	-0.553969979	-1.42200005	3	131	136
-0.396070004	-0.555109978	-1.42050004	3	131	136
-0.396070004	-0.556569993	-1.41989994	3	131	136
-0.395859987	-0.557560027	-1.41849995	3	131	136
-0.395639986	-0.558560014	-1.41700006	3	131	136
-0.398909986	-0.557089984	-1.42130005	3	131	136
-0.398909986	-0.555630028	-1.42180002	3	131	136
-0.399120003	-0.55448997	-1.42330003	3	131	136
-0.401540011	-0.55430001	-1.42279994	3	131	136
-0.40132001	-0.555440009	-1.42130005	3	131	136
-0.399549991	-0.553820014	-1.42569995	3	131	136
-0.397119999	-0.552649975	-1.4267	3	131	136
-0.394910008	-0.553189993	-1.42809999	3	131	136
-0.392280012	-0.55302	-1.42770004	3	131	136
-0.390060008	-0.553560019	-1.42910004	3	131	136
-0.390060008	-0.554920018	-1.42850006	3	131	136
-0.387629986	-0.553749979	-1.42949998	3	131	136
-0.388040006	-0.552980006	-1.43190002	3	131	136
-0.387840003	-0.551100016	-1.43159997	3	131	136
-0.390269995	-0.55092001	-1.43110001	3	131	136
-0.390060008	-0.549049973	-1.43079996	3	131	136
-0.390469998	-0.54825002	-1.4332	3	131	136
-0.388040006	-0.548430026	-1.43369997	3	131	136
-0.385410011	-0.548259974	-1.4332	3	131	136
-0.385610014	-0.550119996	-1.43359995	3	131	136
-0.385410011	-0.551280022	-1.43210006	3	131	136
-0.38499999	-0.552100003	-1.42970002	3	131	136
-0.384799987	-0.553219974	-1.42820001	3	131	136
-0.384600013	-0.554229975	-1.4267	3	131	136
-0.384189993	-0.554899991	-1.42439997	3	131	136
-0.383780003	-0.555689991	-1.42200005	3	131	136
-0.383579999	-0.556779981	-1.42050004	3	131	136
-0.380760014	-0.554799974	-1.41970003	3	131	136
-0.381170005	-0.554019988	-1.42209995	3	131	136
-0.381570011	-0.553340018	-1.42449999	3	131	136
-0.379350007	-0.553879976	-1.42579997	3	131	136
-0.379750013	-0.553229988	-1.42820001	3	131	136
-0.37955001	-0.551400006	-1.42780006	3	131	136
-0.376929998	-0.55122	-1.42739999	3	131	136
-0.377119988	-0.553049982	-1.42770004	3	131	136
-0.377119988	-0.554409981	-1.42719996	3	131	136
-0.374500006	-0.552869976	-1.42729998	3	131	136
-0.374500006	-0.551400006	-1.42780006	3	131	136
-0.371879995	-0.55122	-1.42739999	3	131	136
-0.371690005	-0.552339971	-1.42589998	3	131	136
-0.371690005	-0.553690016	-1.42540002	3	131	136
-0.371690005	-0.555079997	-1.42480004	3	131	136
-0.371499985	-0.556219995	-1.42330003	3	131	136
-0.369080007	-0.556400001	-1.42379999	3	131	136
-0.369269997	-0.555249989	-1.4253	3	131	136
-0.369269997	-0.553870022	-1.42579997	3	131	136
-0.366849989	-0.554040015	-1.42630005	3	131	136
-0.367040008	-0.553040028	-1.42770004	3	131	136
-0.367229998	-0.551919997	-1.42920005	3	131	136
-0.36985001	-0.552100003	-1.42970002	3	131	136
-0.369650006	-0.553219974	-1.42820001	3	131	136
-0.366659999	-0.555069983	-1.42480004	3	131	136
-0.366659999	-0.556569993	-1.42420006	3	131	136
-0.366270006	-0.557309985	-1.42180002	3	131	136
-0.363860011	-0.557479978	-1.42229998	3	131	136
-0.363860011	-0.556020021	-1.42279994	3	131	136
-0.361440003	-0.556190014	-1.42330003	3	131	136
-0.361440003	-0.554690003	-1.42379999	3	131	136
-0.361440003	-0.553309977	-1.42439997	3	131	136
-0.361250013	-0.551599979	-1.42400002	3	131	136
-0.359200001	-0.552470028	-1.42620003	3	131	136
-0.359200001	-0.553830028	-1.42569995	3	131	136
-0.359200001	-0.555220008	-1.42519999	3	131	136
-0.359019995	-0.556360006	-1.42369998	3	131	136
-0.358649999	-0.557099998	-1.42130005	3	131	136
-0.361250013	-0.557290018	-1.42180002	3	131	136
-0.358649999	-0.559819996	-1.42019999	3	131	136
-0.356599987	-0.557980001	-1.42349994	3	131	136
-0.356779993	-0.556879997	-1.42499995	3	131	136
-0.356599987	-0.555029988	-1.42470002	3	131	136
-0.356599987	-0.553640008	-1.42519999	3	131	136
-0.356970012	-0.552990019	-1.42760003	3	131	136
-0.364230007	-0.55250001	-1.42630005	3	131	136
-0.364419997	-0.554210007	-1.4267	3	131	136
-0.364230007	-0.555239975	-1.42519999	3	131	136
-0.374110013	-0.554910004	-1.42439997	3	131	136
-0.374309987	-0.553879976	-1.42579997	3	131	136
-0.376529992	-0.557680011	-1.42279994	3	131	136
-0.382169992	-0.553049982	-1.42770004	3	131	136
-0.382169992	-0.551580012	-1.42830002	3	131	136
-0.377519995	-0.550759971	-1.43069994	3	131	136
-0.375090003	-0.550930023	-1.43120003	3	131	136
-0.372660011	-0.551110029	-1.43159997	3	131	136
-0.373239994	-0.550650001	-1.43499994	3	131	136
-0.373050004	-0.548789978	-1.4346	3	131	136
-0.372860014	-0.547110021	-1.43420005	3	131	136
-0.37489	-0.546239972	-1.43190002	3	131	136
-0.377519995	-0.546410024	-1.43239999	3	131	136
-0.378309995	-0.549139977	-1.43550003	3	131	136
-0.378109992	-0.550300002	-1.43400002	3	131	136
-0.37568	-0.550480008	-1.43449998	3	131	136
-0.375869989	-0.549319983	-1.43599999	3	131	136
-0.376459986	-0.546230018	-1.44029999	3	131	136
-0.376850009	-0.545379996	-1.44270003	3	131	136
-0.377050012	-0.544319987	-1.44420004	3	131	136
-0.377440006	-0.54361999	-1.44649994	3	131	136
-0.377249986	-0.541880012	-1.4461	3	131	136
-0.377440006	-0.54084003	-1.44760001	3	131	136
-0.377829999	-0.540040016	-1.45000005	3	131	136
-0.380290002	-0.539870024	-1.44949996	3	131	136
-0.379689991	-0.541710019	-1.44570005	3	131	136
-0.379500002	-0.539979994	-1.44529998	3	131	136
-0.379299998	-0.542410016	-1.44330001	3	131	136
-0.379500002	-0.544149995	-1.44369996	3	131	136
-0.379299998	-0.545210004	-1.44229996	3	131	136
-0.379299998	-0.546750009	-1.44169998	3	131	136
-0.381940007	-0.546920002	-1.44210005	3	131	136
-0.381740004	-0.545040011	-1.4418	3	131	136
-0.384180009	-0.544860005	-1.44130003	3	131	136
-0.384380013	-0.546739995	-1.44169998	3	131	136
-0.386830002	-0.546559989	-1.44120002	3	131	136
-0.386619985	-0.544679999	-1.44089997	3	131	136
-0.388859987	-0.54569	-1.43889999	3	131	136
-0.383780003	-0.547190011	-1.43840003	3	131	136
-0.381339997	-0.547370017	-1.43879998	3	131	136
-0.387230009	-0.544309974	-1.44420004	3	131	136
-0.38578999	-0.539040029	-1.45190001	3	131	136
-0.385589987	-0.537220001	-1.45150006	3	131	136
-0.385989994	-0.536430001	-1.45389998	3	131	136
-0.383540004	-0.536599994	-1.45439994	3	131	136
-0.386799991	-0.536339998	-1.45809996	3	131	136
-0.387199998	-0.535579979	-1.4605	3	131	136
-0.387199998	-0.534039974	-1.46099997	3	131	136
-0.389869988	-0.534200013	-1.46150005	3	131	136
-0.389670014	-0.535399973	-1.46000004	3	131	136
-0.389459997	-0.536499977	-1.45860004	3	131	136
-0.391930014	-0.536329985	-1.45809996	3	131	136
-0.391519994	-0.537100017	-1.45570004	3	131	136
-0.388850003	-0.536930025	-1.45529997	3	131	136
-0.392540008	-0.535899997	-1.46140003	3	131	136
