0.760060012	0.0821560025	-1.57210004	184	104	208
0.757040024	0.0837519988	-1.57260001	184	104	208
0.757560015	0.0853699967	-1.57340002	184	104	208
0.75602001	0.0820999965	-1.57099998	184	104	208
0.758000016	0.0789079964	-1.56879997	184	104	208
0.761520028	0.0789190009	-1.56900001	184	104	208
0.764020026	0.0803629979	-1.56739998	184	104	208
0.764100015	0.0806600004	-1.57319999	184	104	208
0.76564002	0.0823469982	-1.57570004	184	104	208
0.768149972	0.0822679996	-1.57420003	184	104	208
0.772210002	0.0823229998	-1.57519996	184	104	208
0.772210002	0.0807679966	-1.57529998	184	104	208
0.772719979	0.0792839974	-1.57630002	184	104	208
0.769699991	0.0793170035	-1.57690001	184	104	208
0.77471	0.0806899965	-1.57379997	184	104	208
0.774190009	0.0821989998	-1.57290006	184	104	208
0.77929002	0.0823419988	-1.57560003	184	104	208
0.77929002	0.080787003	-1.57570004	184	104	208
0.779820025	0.079301998	-1.57659996	184	104	208
0.783370018	0.0793109983	-1.57679999	184	104	208
0.786920011	0.0793190002	-1.57700002	184	104	208
0.790480018	0.0793270022	-1.57710004	184	104	208
0.793630004	0.0811180025	-1.58210003	184	104	208
0.797200024	0.0811249986	-1.58229995	184	104	208
0.798780024	0.0797189996	-1.58490002	184	104	208
0.800769985	0.0811320022	-1.58239996	184	104	208
0.802890003	0.079768002	-1.58589995	184	104	208
0.804470003	0.0830039978	-1.58829999	184	104	208
0.807529986	0.0829659998	-1.58749998	184	104	208
0.80805999	0.0814419985	-1.58850002	184	104	208
0.80805999	0.0799020007	-1.58860004	184	104	208
0.810580015	0.0829280019	-1.58679998	184	104	208
0.812709987	0.0815349966	-1.59029996	184	104	208
0.816309988	0.0831099972	-1.59029996	184	104	208
0.814300001	0.0848189965	-1.5927	184	104	208
0.814300001	0.0864109993	-1.59259999	184	104	208
0.817900002	0.0864159986	-1.5927	184	104	208
0.81844002	0.0817129984	-1.59379995	184	104	208
0.817900002	0.0801260024	-1.59300005	184	104	208
0.815370023	0.0802059993	-1.59459996	184	104	208
0.819899976	0.0800030008	-1.59060001	184	104	208
0.822430015	0.0799219981	-1.58899999	184	104	208
0.821359992	0.0813760012	-1.58720005	184	104	208
0.82190001	0.082987003	-1.58800006	184	104	208
0.817770004	0.0829380006	-1.58700001	184	104	208
0.816699982	0.0812849998	-1.58539999	184	104	208
0.810180008	0.0847679973	-1.59169996	184	104	208
0.810180008	0.0863590017	-1.59159994	184	104	208
0.807640016	0.0864449963	-1.59319997	184	104	208
0.808700025	0.0849429965	-1.59500003	184	104	208
0.807210028	0.0851169974	-1.59819996	184	104	208
0.808790028	0.0884419978	-1.6006	184	104	208
0.809319973	0.0900690034	-1.60140002	184	104	208
0.806770027	0.0901570022	-1.60300004	184	104	208
0.804210007	0.0902459994	-1.60450006	184	104	208
0.801649988	0.0903339982	-1.60609996	184	104	208
0.802699983	0.0920159966	-1.60769999	184	104	208
0.801649988	0.0935029984	-1.60590005	184	104	208
0.800610006	0.0949970037	-1.60409999	184	104	208
0.798569977	0.0951400027	-1.60650003	184	104	208
0.799610019	0.0936430022	-1.60829997	184	104	208
0.796530008	0.0968910009	-1.60889995	184	104	208
0.794449985	0.0950810015	-1.60549998	184	104	208
0.790340006	0.0966250002	-1.60440004	184	104	208
0.789300025	0.0949200019	-1.60280001	184	104	208
0.786230028	0.0949599966	-1.60350001	184	104	208
0.786740005	0.0966150016	-1.60430002	184	104	208
0.783159971	0.0950009972	-1.60420001	184	104	208
0.781620026	0.0984280035	-1.60720003	184	104	208
0.780600011	0.10165	-1.60529995	184	104	208
0.779569983	0.10362	-1.60930002	184	104	208
0.77700001	0.105250001	-1.61070001	184	104	208
0.774940014	0.105410002	-1.61310005	184	104	208
0.778540015	0.103890002	-1.61339998	184	104	208
0.78008002	0.100280002	-1.61039996	184	104	208
0.776489973	0.100270003	-1.61020005	184	104	208
0.774959981	0.101790003	-1.60749996	184	104	208
0.772400022	0.103600003	-1.60889995	184	104	208
0.77086997	0.101719998	-1.60640001	184	104	208
0.771380007	0.100089997	-1.60739994	184	104	208
0.768329978	0.0981289968	-1.60239995	184	104	208
0.770879984	0.098036997	-1.60080004	184	104	208
0.774959981	0.0948769972	-1.60210001	184	104	208
0.777520001	0.0947870016	-1.6006	184	104	208
0.776489973	0.0930970013	-1.59899998	184	104	208
0.779039979	0.0930090025	-1.59739995	184	104	208
0.78105998	0.092869997	-1.59500003	184	104	208
0.783079982	0.0911599994	-1.59280002	184	104	208
0.783079982	0.0880170017	-1.59290004	184	104	208
0.783079982	0.0864349976	-1.59300005	184	104	208
0.783079982	0.0848430023	-1.59309995	184	104	208
0.785619974	0.0863519982	-1.59150004	184	104	208
0.786140025	0.0879789963	-1.59220004	184	104	208
0.789189994	0.0879409984	-1.59159994	184	104	208
0.789709985	0.0895590037	-1.59230006	184	104	208
0.789709985	0.0911300033	-1.59220004	184	104	208
0.791729987	0.0878560022	-1.59000003	184	104	208
0.79016	0.0861380026	-1.58749998	184	104	208
0.79321003	0.0860999972	-1.58679998	184	104	208
0.792159975	0.0844239965	-1.58519995	184	104	208
0.792680025	0.0813279971	-1.5862	184	104	208
0.789640009	0.0829299986	-1.5869	184	104	208
0.788070023	0.0812330022	-1.58440006	184	104	208
0.787549973	0.0843250006	-1.58340001	184	104	208
0.785030007	0.0844070017	-1.58490002	184	104	208
0.78658998	0.0861290023	-1.58739996	184	104	208
0.784060001	0.0846249983	-1.58899999	184	104	208
0.784060001	0.0893580019	-1.58870006	184	104	208
0.784060001	0.0909250006	-1.58870006	184	104	208
0.781530023	0.0894439965	-1.59029996	184	104	208
0.779510021	0.0895780027	-1.5927	184	104	208
0.780030012	0.0880540013	-1.59360003	184	104	208
0.778999984	0.0910999998	-1.59169996	184	104	208
0.776459992	0.0896160007	-1.59329998	184	104	208
0.774919987	0.0910409987	-1.59070003	184	104	208
0.772379994	0.0911279991	-1.59220004	184	104	208
0.76831001	0.089497	-1.59119999	184	104	208
0.766770005	0.0877849981	-1.58870006	184	104	208
0.768790007	0.0876550004	-1.58640003	184	104	208
0.770789981	0.0859510005	-1.58410001	184	104	208
0.768729985	0.0841849968	-1.58080006	184	104	208
0.764680028	0.0857070014	-1.57959998	184	104	208
0.76365	0.0840369985	-1.57799995	184	104	208
0.763140023	0.0808679983	-1.57729995	184	104	208
0.761139989	0.0809890032	-1.57959998	184	104	208
0.760670006	0.0890989974	-1.58410001	184	104	208
0.761179984	0.0907109976	-1.58490002	184	104	208
0.765749991	0.0908219963	-1.58679998	184	104	208
0.765770018	0.0927240029	-1.59249997	184	104	208
0.765770018	0.0958980024	-1.59239995	184	104	208
0.770359993	0.0960140005	-1.59430003	184	104	208
0.773410022	0.0959749967	-1.59360003	184	104	208
0.768329978	0.0945599973	-1.59669995	184	104	208
0.767820001	0.0882000029	-1.59630001	184	104	208
0.774950027	0.0897980034	-1.59660006	184	104	208
0.777960002	0.0862860009	-1.59029996	184	104	208
0.773890018	0.0878079981	-1.5891	184	104	208
0.781579971	0.0850149989	-1.59630001	184	104	208
0.786710024	0.0930790007	-1.59860003	184	104	208
0.79132998	0.0931880027	-1.60049999	184	104	208
0.780070007	0.0962949991	-1.59899998	184	104	208
0.777010024	0.0983109996	-1.60529995	184	104	208
0.775990009	0.101530001	-1.60339999	184	104	208
0.777010024	0.0934849977	-1.6056	184	104	208
0.785220027	0.101769999	-1.60720003	184	104	208
0.786249995	0.103589997	-1.60880005	184	104	208
0.790880024	0.103710003	-1.61070001	184	104	208
0.792940021	0.10221	-1.6142	184	104	208
0.79448998	0.100680001	-1.61689997	184	104	208
0.796549976	0.100529999	-1.61450005	184	104	208
0.796549976	0.102219999	-1.61440003	184	104	208
0.796029985	0.0988250002	-1.61370003	184	104	208
0.79964	0.0988340005	-1.61389995	184	104	208
0.79964	0.100489996	-1.61380005	184	104	208
0.802219987	0.0971049964	-1.61240005	184	104	208
0.80479002	0.0970109999	-1.61080003	184	104	208
0.806829989	0.0936589986	-1.60860002	184	104	208
0.805779994	0.0951559991	-1.60679996	184	104	208
0.809390008	0.0951630026	-1.60689998	184	104	208
0.809920013	0.0920300037	-1.60800004	184	104	208
0.810970008	0.0937149972	-1.60959995	184	104	208
0.814059973	0.0936729982	-1.60880005	184	104	208
0.814059973	0.0952700004	-1.60870004	184	104	208
0.813530028	0.0968279988	-1.60780001	184	104	208
0.811500013	0.0969749987	-1.61020005	184	104	208
0.811020017	0.0972749963	-1.61520004	184	104	208
0.812590003	0.0990670025	-1.61769998	184	104	208
0.814170003	0.100879997	-1.62010002	184	104	208
0.817279994	0.100840002	-1.61940002	184	104	208
0.81832999	0.0992809981	-1.62119997	184	104	208
0.816789985	0.102849998	-1.6243	184	104	208
0.81625998	0.104520001	-1.62329996	184	104	208
0.818849981	0.104419999	-1.62170005	184	104	208
0.820429981	0.102849998	-1.62440002	184	104	208
0.823549986	0.102810003	-1.62360001	184	104	208
0.823549986	0.104539998	-1.62349999	184	104	208
0.824069977	0.101159997	-1.62460005	184	104	208
0.823019981	0.0993909985	-1.62300003	184	104	208
0.824549973	0.100850001	-1.61960006	184	104	208
0.827660024	0.1008	-1.61880004	184	104	208
0.828719974	0.0992460027	-1.62059999	184	104	208
0.831309974	0.0991479978	-1.61899996	184	104	208
0.831309974	0.100809999	-1.61889994	184	104	208
0.830839992	0.102820002	-1.62380004	184	104	208
0.827719986	0.102870002	-1.62450004	184	104	208
0.827719986	0.104599997	-1.62440002	184	104	208
0.825649977	0.106299996	-1.62679994	184	104	208
0.824109972	0.106519997	-1.63010001	184	104	208
0.825160027	0.108050004	-1.63170004	184	104	208
0.827759981	0.107950002	-1.63010001	184	104	208
0.82881999	0.109630004	-1.63170004	184	104	208
0.831420004	0.109520003	-1.63010001	184	104	208
0.831950009	0.106579997	-1.63110006	184	104	208
0.834020019	0.104869999	-1.62870002	184	104	208
0.833490014	0.107790001	-1.62769997	184	104	208
0.834550023	0.109470002	-1.6293	184	104	208
0.83822	0.109470002	-1.62940001	184	104	208
0.839810014	0.108070001	-1.63199997	184	104	208
0.839280009	0.106590003	-1.63119996	184	104	208
0.839280009	0.105039999	-1.63129997	184	104	208
0.841880023	0.104939997	-1.62969995	184	104	208
0.843410015	0.102990001	-1.62650001	184	104	208
0.846549988	0.102940001	-1.6257	184	104	208
0.844940007	0.099417001	-1.62339997	184	104	208
0.843330026	0.100919999	-1.62080002	184	104	208
0.841279984	0.10108	-1.62320006	184	104	208
0.839219987	0.0995659977	-1.62580001	184	104	208
0.83762002	0.10108	-1.62320006	184	104	208
0.838150024	0.10283	-1.62390006	184	104	208
0.834500015	0.102820002	-1.62390006	184	104	208
0.835489988	0.0975629985	-1.62	184	104	208
0.838069975	0.097465001	-1.61839998	184	104	208
0.840650022	0.0973670036	-1.61670005	184	104	208
0.840650022	0.0957499966	-1.61679995	184	104	208
0.839579999	0.0940459967	-1.61520004	184	104	208
0.836470008	0.0940919966	-1.61600006	184	104	208
0.836470008	0.0956970006	-1.61590004	184	104	208
0.84108001	0.0938529968	-1.61189997	184	104	208
0.843230009	0.0956529975	-1.61520004	184	104	208
0.844299972	0.0973699987	-1.61679995	184	104	208
0.846880019	0.0956560001	-1.61520004	184	104	208
0.845799983	0.0939529985	-1.61370003	184	104	208
0.848919988	0.0955080017	-1.6128	184	104	208
0.850539982	0.0924590006	-1.61549997	184	104	208
0.851620018	0.0941509977	-1.6171	184	104	208
0.854189992	0.0956590027	-1.61530006	184	104	208
0.85582	0.0942009985	-1.61790001	184	104	208
0.855279982	0.0909620002	-1.61730003	184	104	208
0.857990026	0.0927970037	-1.6214	184	104	208
0.861660004	0.0927980021	-1.6214	184	104	208
0.859480023	0.0958089978	-1.6178	184	104	208
0.861109972	0.0992190018	-1.62020004	184	104	208
0.859070003	0.0993719995	-1.62269998	184	104	208
0.858529985	0.0976779982	-1.62189996	184	104	208
0.85431999	0.097626999	-1.62109995	184	104	208
0.852699995	0.0991140008	-1.61839998	184	104	208
0.849039972	0.0991119966	-1.61839998	184	104	208
0.848500013	0.0974230021	-1.61769998	184	104	208
0.846449971	0.0992129967	-1.62010002	184	104	208
0.846449971	0.100869998	-1.62	184	104	208
0.843410015	0.0996209979	-1.62670004	184	104	208
0.851289988	0.103050001	-1.62740004	184	104	208
0.852810025	0.10114	-1.62419999	184	104	208
0.856480002	0.10114	-1.62419999	184	104	208
0.86014998	0.10114	-1.62419999	184	104	208
0.86273998	0.102729999	-1.62249994	184	104	208
0.864790022	0.102569997	-1.61989999	184	104	208
0.867370009	0.102470003	-1.61829996	184	104	208
0.866419971	0.0993729979	-1.62269998	184	104	208
0.866419971	0.0961069986	-1.62290001	184	104	208
0.866970003	0.0945440009	-1.62380004	184	104	208
0.864369988	0.094641	-1.62549996	184	104	208
0.865999997	0.0980319977	-1.62779999	184	104	208
0.868049979	0.0978809968	-1.62530005	184	104	208
0.871190012	0.0978299975	-1.62440002	184	104	208
0.872290015	0.0963039994	-1.62619996	184	104	208
0.872290015	0.0995770022	-1.62600005	184	104	208
0.868600011	0.10125	-1.62590003	184	104	208
0.867510021	0.104570001	-1.62399995	184	104	208
0.865999997	0.104790002	-1.62740004	184	104	208
0.867089987	0.10644	-1.62899995	184	104	208
0.866110027	0.108139999	-1.63310003	184	104	208
0.862959981	0.108199999	-1.63390005	184	104	208
0.865119994	0.106990002	-1.63730001	184	104	208
0.867739975	0.106880002	-1.63569999	184	104	208
0.869899988	0.10554	-1.63909996	184	104	208
0.867280006	0.10565	-1.6408	184	104	208
0.86303997	0.107150003	-1.63989997	184	104	208
0.863579988	0.11022	-1.64049995	184	104	208
0.866739988	0.111960001	-1.63950002	184	104	208
0.866739988	0.113679998	-1.63940001	184	104	208
0.861429989	0.111780003	-1.63699996	184	104	208
0.860350013	0.113389999	-1.63520002	184	104	208
0.857739985	0.113499999	-1.63689995	184	104	208
0.85611999	0.111610003	-1.63450003	184	104	208
0.853510022	0.111720003	-1.63610005	184	104	208
0.854049981	0.113499999	-1.63689995	184	104	208
0.853030026	0.113789998	-1.64100003	184	104	208
0.850409985	0.113909997	-1.64269996	184	104	208
0.847249985	0.113959998	-1.64349997	184	104	208
0.84671998	0.117179997	-1.64240003	184	104	208
0.84355998	0.117239997	-1.64320004	184	104	208
0.84355998	0.113959998	-1.64339995	184	104	208
0.840910017	0.115330003	-1.63909996	184	104	208
0.837759972	0.11372	-1.63999999	184	104	208
0.836179972	0.115199998	-1.63730001	184	104	208
0.836700022	0.116870001	-1.63810003	184	104	208
0.834079981	0.11699	-1.63970006	184	104	208
0.83355999	0.115319997	-1.63900006	184	104	208
0.830940008	0.115429997	-1.64059997	184	104	208
0.831459999	0.11383	-1.6415	184	104	208
0.830410004	0.111979999	-1.63999999	184	104	208
0.827790022	0.112089999	-1.64160001	184	104	208
0.828310013	0.113880001	-1.64230001	184	104	208
0.825689971	0.113990001	-1.64390004	184	104	208
0.824639976	0.112149999	-1.64230001	184	104	208
0.82148999	0.113930002	-1.64300001	184	104	208
0.820969999	0.115529999	-1.64199996	184	104	208
0.817830026	0.11558	-1.64269996	184	104	208
0.817309976	0.118699998	-1.64170003	184	104	208
0.816269994	0.117009997	-1.6401	184	104	208
0.819410026	0.116959997	-1.63929999	184	104	208
0.820450008	0.118649997	-1.64090002	184	104	208
0.820969999	0.120290004	-1.64170003	184	104	208
0.823599994	0.117030002	-1.64030004	184	104	208
0.829360008	0.117279999	-1.64380002	184	104	208
0.827780008	0.115900002	-1.64719999	184	104	208
0.831459999	0.115900002	-1.6473	184	104	208
0.832499981	0.120810002	-1.64859998	184	104	208
0.83513999	0.120690003	-1.64699996	184	104	208
0.837249994	0.120509997	-1.64450002	184	104	208
0.84145999	0.118979998	-1.64559996	184	104	208
0.843569994	0.120820001	-1.64880002	184	104	208
0.846740007	0.120760001	-1.64810002	184	104	208
0.846210003	0.119110003	-1.6473	184	104	208
0.849370003	0.119050004	-1.64649999	184	104	208
0.85096997	0.120829999	-1.64890003	184	104	208
0.853609979	0.12071	-1.6473	184	104	208
0.854139984	0.119180001	-1.64830005	184	104	208
0.856239974	0.120580003	-1.64559996	184	104	208
0.855170012	0.11569	-1.64429998	184	104	208
0.856239974	0.109030001	-1.64639997	184	104	208
0.855650008	0.108580001	-1.63970006	184	104	208
0.855650008	0.110160001	-1.63960004	184	104	208
0.852500021	0.110210001	-1.64040005	184	104	208
0.854579985	0.107040003	-1.63810003	184	104	208
0.856660008	0.106880002	-1.63559997	184	104	208
0.857739985	0.109990001	-1.63709998	184	104	208
0.860889971	0.105379999	-1.63660002	184	104	208
0.860800028	0.103260003	-1.63080001	184	104	208
0.863399982	0.103160001	-1.62919998	184	104	208
0.857659996	0.108029999	-1.63139999	184	104	208
0.853439987	0.107969999	-1.63049996	184	104	208
0.854510009	0.105109997	-1.63240004	184	104	208
0.852980018	0.105319999	-1.63569999	184	104	208
0.849290013	0.105319999	-1.63569999	184	104	208
0.848219991	0.106760003	-1.63390005	184	104	208
0.844009995	0.106710002	-1.63300002	184	104	208
0.844009995	0.109700002	-1.63279998	184	104	208
0.840870023	0.111539997	-1.63349998	184	104	208
0.838259995	0.111649998	-1.63510001	184	104	208
0.835650027	0.111759998	-1.63670003	184	104	208
0.833029985	0.111869998	-1.63829994	184	104	208
0.828310013	0.109959997	-1.63670003	184	104	208
0.825689971	0.110069998	-1.63829994	184	104	208
0.82306999	0.108220004	-1.63419998	184	104	208
0.818369985	0.10966	-1.6322	184	104	208
0.815240026	0.10971	-1.63300002	184	104	208
0.812110007	0.111550003	-1.6336	184	104	208
0.810549974	0.109590001	-1.63119996	184	104	208
0.806909978	0.109580003	-1.63100004	184	104	208
0.806389987	0.107960001	-1.63030005	184	104	208
0.803789973	0.108060002	-1.63189995	184	104	208
0.80430001	0.109690003	-1.63259995	184	104	208
0.803789973	0.113130003	-1.63150001	184	104	208
0.801699996	0.114950001	-1.63380003	184	104	208
0.798569977	0.115000002	-1.63450003	184	104	208
0.797540009	0.118040003	-1.63259995	184	104	208
0.796519995	0.11637	-1.63100004	184	104	208
0.793910027	0.11648	-1.63250005	184	104	208
0.794420004	0.114929996	-1.63349998	184	104	208
0.794929981	0.118160002	-1.63409996	184	104	208
0.796469986	0.11992	-1.63660002	184	104	208
0.796980023	0.121600002	-1.63730001	184	104	208
0.797490001	0.123319998	-1.63810003	184	104	208
0.794870019	0.123439997	-1.63960004	184	104	208
0.794359982	0.121720001	-1.63890004	184	104	208
0.794359982	0.120099999	-1.63900006	184	104	208
0.794870019	0.118579999	-1.63999999	184	104	208
0.792760015	0.120339997	-1.64230001	184	104	208
0.79174	0.121830001	-1.64040005	184	104	208
0.790719986	0.123360001	-1.63859999	184	104	208
0.791230023	0.11857	-1.63979995	184	104	208
0.792320013	0.11671	-1.6358	184	104	208
0.796519995	0.113109998	-1.63119996	184	104	208
0.799120009	0.112999998	-1.62969995	184	104	208
0.798089981	0.111170001	-1.62810004	184	104	208
0.800689995	0.111060001	-1.62650001	184	104	208
0.798089981	0.107830003	-1.62829995	184	104	208
0.79497999	0.109439999	-1.62890005	184	104	208
0.79497999	0.111220002	-1.62880003	184	104	208
0.794459999	0.107819997	-1.62810004	184	104	208
0.791350007	0.111210003	-1.6286	184	104	208
0.791350007	0.112920001	-1.62849998	184	104	208
0.788240016	0.111259997	-1.6293	184	104	208
0.787729979	0.112910002	-1.62829995	184	104	208
0.787729979	0.114560001	-1.62820005	184	104	208
0.785629988	0.116329998	-1.63049996	184	104	208
0.782010019	0.116319999	-1.63030005	184	104	208
0.780920029	0.118170001	-1.63429999	184	104	208
0.784550011	0.118179999	-1.63450003	184	104	208
0.783450007	0.120059997	-1.63849998	184	104	208
0.782440007	0.123209998	-1.6365	184	104	208
0.786490023	0.122060001	-1.64349997	184	104	208
0.790639997	0.122139998	-1.64460003	184	104	208
0.790639997	0.120509997	-1.64470005	184	104	208
0.790639997	0.123800002	-1.6444	184	104	208
0.795300007	0.12568	-1.64619994	184	104	208
0.796909988	0.125430003	-1.64289999	184	104	208
0.80260998	0.125699997	-1.64649999	184	104	208
0.805249989	0.123850003	-1.6451	184	104	208
0.804220021	0.122060001	-1.64349997	184	104	208
0.808390021	0.123800002	-1.64429998	184	104	208
0.812049985	0.123810001	-1.64450002	184	104	208
0.81467998	0.123690002	-1.64289999	184	104	208
0.814159989	0.118749999	-1.64240003	184	104	208
0.81208998	0.116939999	-1.63909996	184	104	208
0.80844003	0.118500002	-1.63890004	184	104	208
0.807399988	0.116810001	-1.63730001	184	104	208
0.801649988	0.120119996	-1.63929999	184	104	208
0.800149977	0.117930003	-1.63100004	184	104	208
0.79964	0.116319999	-1.63030005	184	104	208
0.800149977	0.109619997	-1.63160002	184	104	208
0.80588001	0.111249998	-1.62919998	184	104	208
0.806400001	0.10757	-1.62440002	184	104	208
0.804840028	0.10599	-1.62199998	184	104	208
0.803799987	0.104340002	-1.62039995	184	104	208
0.803279996	0.10255	-1.61960006	184	104	208
0.807430029	0.102619998	-1.62059999	184	104	208
0.807430029	0.100919999	-1.6207	184	104	208
0.810530007	0.100879997	-1.62	184	104	208
0.810530007	0.102569997	-1.61989999	184	104	208
0.807919979	0.098954998	-1.61580002	184	104	208
0.805339992	0.0990509987	-1.61740005	184	104	208
0.809449971	0.0923150033	-1.61290002	184	104	208
0.813530028	0.0920369998	-1.60810006	184	104	208
0.815569997	0.0918970034	-1.6056	184	104	208
0.817149997	0.0936290026	-1.60810006	184	104	208
0.816619992	0.0951759964	-1.60720003	184	104	208
0.81971997	0.093535997	-1.60650003	184	104	208
0.819190025	0.0919030011	-1.60570002	184	104	208
0.821210027	0.0917629972	-1.60329998	184	104	208
0.818130016	0.0949819982	-1.60389996	184	104	208
0.814509988	0.0965790004	-1.60370004	184	104	208
0.816009998	0.0900330022	-1.60080004	184	104	208
0.818560004	0.0883660018	-1.59920001	184	104	208
0.817489982	0.0898490027	-1.59749997	184	104	208
0.813359976	0.0882200003	-1.59660006	184	104	208
0.810280025	0.0882610008	-1.59730005	184	104	208
0.811339974	0.0899320021	-1.59899998	184	104	208
0.802559972	0.0882000029	-1.59630001	184	104	208
0.798969984	0.0881929994	-1.59609997	184	104	208
0.79993999	0.0832120031	-1.59230006	184	104	208
0.79835999	0.0846579969	-1.58959997	184	104	208
0.800360024	0.086116001	-1.58710003	184	104	208
0.796259999	0.0860619992	-1.58609998	184	104	208
0.794780016	0.0830710009	-1.58959997	184	104	208
0.803520024	0.0832189992	-1.59239995	184	104	208
0.822170019	0.0851840004	-1.59949994	184	104	208
0.823230028	0.0884649977	-1.60099995	184	104	208
0.824710011	0.0882830024	-1.5977	184	104	208
0.823639989	0.0866039991	-1.59609997	184	104	208
0.826189995	0.0865169987	-1.59449995	184	104	208
0.827260017	0.0881939977	-1.59609997	184	104	208
0.830330014	0.0865669996	-1.59539998	184	104	208
0.831799984	0.0832149982	-1.59230006	184	104	208
0.830179989	0.0846619979	-1.58969998	184	104	208
0.827109993	0.0847029984	-1.5905	184	104	208
0.826569974	0.0830790028	-1.58969998	184	104	208
0.824580014	0.0847890005	-1.59210002	184	104	208
0.826849997	0.0852790028	-1.6013	184	104	208
0.826430023	0.0903289989	-1.60599995	184	104	208
0.830060005	0.0903329998	-1.60609996	184	104	208
0.83059001	0.0919660032	-1.60679996	184	104	208
0.833150029	0.0918729976	-1.60520005	184	104	208
0.832610011	0.0902419984	-1.60450006	184	104	208
0.835709989	0.0901980028	-1.60370004	184	104	208
0.834630013	0.0916839987	-1.60189998	184	104	208
0.837180018	0.0915910006	-1.60029995	184	104	208
0.834100008	0.0884770006	-1.6013	184	104	208
0.837180018	0.0868439972	-1.6006	184	104	208
0.839730024	0.0867559984	-1.59889996	184	104	208
0.842279971	0.0866670012	-1.59730005	184	104	208
0.844280005	0.0865330026	-1.5948	184	104	208
0.847360015	0.0864889994	-1.59399998	184	104	208
0.845179975	0.0831369981	-1.59080005	184	104	208
0.845730007	0.0816100016	-1.59169996	184	104	208
0.841560006	0.0815650001	-1.59089994	184	104	208
0.841019988	0.0830909982	-1.59000003	184	104	208
0.839030027	0.081648998	-1.59249997	184	104	208
0.839569986	0.0832640007	-1.59329998	184	104	208
0.836489975	0.0833059996	-1.5941	184	104	208
0.834869981	0.0847550035	-1.59140003	184	104	208
0.837400019	0.084668003	-1.5898	184	104	208
0.837759972	0.0844030008	-1.5848	184	104	208
0.840279996	0.0843160003	-1.58319998	184	104	208
0.835780025	0.0798519999	-1.58749998	184	104	208
0.834490001	0.0803110003	-1.59669995	184	104	208
0.831950009	0.0803930014	-1.59829998	184	104	208
0.834100008	0.082115002	-1.60160005	184	104	208
0.837180018	0.0820749998	-1.60080004	184	104	208
0.840269983	0.0820339993	-1.60000002	184	104	208
0.83811003	0.0803140029	-1.59669995	184	104	208
0.848990023	0.0803200006	-1.59689999	184	104	208
0.851530015	0.0802370012	-1.59519994	184	104	208
0.850440025	0.0816970021	-1.5934	184	104	208
0.852980018	0.0816119984	-1.59179997	184	104	208
0.854070008	0.0801530033	-1.59350002	184	104	208
0.85661	0.0800699964	-1.59189999	184	104	208
0.857159972	0.0816560015	-1.59259999	184	104	208
0.861339986	0.0801540017	-1.59360003	184	104	208
0.862990022	0.0818269998	-1.59599996	184	104	208
0.864979982	0.0801530033	-1.59350002	184	104	208
0.868619978	0.0801530033	-1.59350002	184	104	208
0.871710002	0.0801099986	-1.5927	184	104	208
0.868849993	0.0819969997	-1.59930003	184	104	208
0.868849993	0.0867620036	-1.59899998	184	104	208
0.870840013	0.0866260007	-1.59650004	184	104	208
0.874710023	0.0853400007	-1.60239995	184	104	208
0.872160017	0.0854300037	-1.60409999	184	104	208
0.87270999	0.0838799998	-1.60500002	184	104	208
0.87015003	0.0839679986	-1.60669994	184	104	208
0.86759001	0.085653998	-1.60829997	184	104	208
0.868139982	0.0873069987	-1.60909998	184	104	208
0.871800005	0.0873060003	-1.60909998	184	104	208
0.872349977	0.0857419968	-1.61000001	184	104	208
0.871980011	0.0892269984	-1.61479998	184	104	208
0.869400024	0.0893210024	-1.61650002	184	104	208
0.871590018	0.0911030024	-1.61979997	184	104	208
0.87213999	0.0943470001	-1.62039995	184	104	208
0.875270009	0.0942979977	-1.61960006	184	104	208
0.878409982	0.0942469984	-1.61870003	184	104	208
0.879509985	0.092745997	-1.62049997	184	104	208
0.878960013	0.0910999998	-1.61969995	184	104	208
0.882089972	0.0910509974	-1.61889994	184	104	208
0.882640004	0.0926960036	-1.61960006	184	104	208
0.883189976	0.0943420008	-1.62030005	184	104	208
0.883189976	0.0959509984	-1.62020004	184	104	208
0.884850025	0.0977220014	-1.62259996	184	104	208
0.884299994	0.0993139967	-1.62170005	184	104	208
0.885399997	0.10108	-1.62329996	184	104	208
0.882260025	0.099469997	-1.6243	184	104	208
0.88391	0.0963490009	-1.62689996	184	104	208
0.885010004	0.0980760008	-1.62849998	184	104	208
0.88240999	0.0981789976	-1.63020003	184	104	208
0.883509994	0.0966470018	-1.63199997	184	104	208
0.884060025	0.0999829993	-1.63259995	184	104	208
0.882960021	0.101549998	-1.63090003	184	104	208
0.881860018	0.103150003	-1.62909997	184	104	208
0.878709972	0.101499997	-1.63010001	184	104	208
0.876110017	0.101609997	-1.63180006	184	104	208
0.87816	0.0981300026	-1.62940001	184	104	208
0.881449997	0.100089997	-1.63429999	184	104	208
0.882000029	0.0968469977	-1.63540006	184	104	208
0.880349994	0.105109997	-1.63230002	184	104	208
0.873380005	0.104790002	-1.62740004	184	104	208
0.872690022	0.102629997	-1.62080002	184	104	208
0.870100021	0.0944940001	-1.62300003	184	104	208
0.873629987	0.0925569981	-1.61720002	184	104	208
0.875649989	0.089226	-1.61479998	184	104	208
0.877680004	0.0890860036	-1.61230004	184	104	208
0.882459998	0.090768002	-1.61380005	184	104	208
0.887250006	0.0908590034	-1.61539996	184	104	208
0.887799978	0.0893110037	-1.6164	184	104	208
0.889270008	0.0891240016	-1.61300004	184	104	208
0.88981998	0.0859550014	-1.61399996	184	104	208
0.890380025	0.0843949988	-1.61489999	184	104	208
0.892949998	0.0827130005	-1.61329997	184	104	208
0.894070029	0.0843909979	-1.61479998	184	104	208
0.893509984	0.0859510005	-1.61389995	184	104	208
0.894070029	0.0892129987	-1.61459994	184	104	208
0.897199988	0.0907550007	-1.61360002	184	104	208
0.898320019	0.0892539993	-1.61530006	184	104	208
0.902010024	0.0876460001	-1.61530006	184	104	208
0.902570009	0.0908899978	-1.61600006	184	104	208
0.90425998	0.0894320011	-1.61849999	184	104	208
0.904820025	0.0926730037	-1.61919999	184	104	208
0.907400012	0.092573002	-1.61740005	184	104	208
0.909979999	0.0924730003	-1.61570001	184	104	208
0.912549973	0.0923720002	-1.61389995	184	104	208
0.909979999	0.0972869992	-1.61539996	184	104	208
0.905709982	0.0972430035	-1.61469996	184	104	208
0.905149996	0.0955789983	-1.61399996	184	104	208
0.903129995	0.0957309976	-1.61650002	184	104	208
0.903129995	0.0973479971	-1.6164	184	104	208
0.901109993	0.0958840027	-1.61909997	184	104	208
0.902230024	0.0976020023	-1.6207	184	104	208
0.899089992	0.0960350037	-1.62170005	184	104	208
0.897409976	0.097507	-1.61909997	184	104	208
0.895389974	0.0976620018	-1.62160003	184	104	208
0.894829988	0.0959910005	-1.62090003	184	104	208
0.893719971	0.0926870033	-1.61940002	184	104	208
0.896860003	0.0926349983	-1.61849999	184	104	208
0.899999976	0.0925830007	-1.61759996	184	104	208
0.905709982	0.0876410007	-1.61520004	184	104	208
0.908850014	0.085977003	-1.61440003	184	104	208
0.908290029	0.08433	-1.61370003	184	104	208
0.908290029	0.0827379972	-1.61370003	184	104	208
0.911419988	0.0826900005	-1.6128	184	104	208
0.910290003	0.0841960013	-1.61109996	184	104	208
0.913420022	0.0841469988	-1.61010003	184	104	208
0.912289977	0.0824730024	-1.60860002	184	104	208
0.913720012	0.0822980031	-1.60520005	184	104	208
0.913720012	0.0807420015	-1.60529995	184	104	208
0.916840017	0.0806950033	-1.60430002	184	104	208
0.915130019	0.0821240023	-1.60179996	184	104	208
0.913429976	0.0835760012	-1.59920001	184	104	208
0.912010014	0.083754003	-1.60259998	184	104	208
0.909460008	0.0807069987	-1.60450006	184	104	208
0.904079974	0.0805869997	-1.60220003	184	104	208
0.898140013	0.0804260001	-1.59899998	184	104	208
0.891919971	0.0805170015	-1.60080004	184	104	208
0.88993001	0.0806450024	-1.60329998	184	104	208
0.891049981	0.0838679969	-1.60479999	184	104	208
0.889609993	0.0808980018	-1.60839999	184	104	208
0.894959986	0.0825819969	-1.61070001	184	104	208
0.894959986	0.0857710019	-1.61049998	184	104	208
0.896080017	0.0874710009	-1.61210001	184	104	208
0.899770021	0.0858549997	-1.61210001	184	104	208
0.901220024	0.0856740028	-1.60870004	184	104	208
0.901220024	0.0824880004	-1.60889995	184	104	208
0.897530019	0.0840810016	-1.60889995	184	104	208
0.898400009	0.0838610008	-1.60469997	184	104	208
0.891839981	0.0874290019	-1.61129999	184	104	208
0.890160024	0.0904790014	-1.60870004	184	104	208
0.885370016	0.0872080028	-1.60730004	184	104	208
0.883920014	0.0857810006	-1.61070001	184	104	208
0.885580003	0.084311001	-1.61329997	184	104	208
0.880240023	0.084183	-1.61080003	184	104	208
0.880590022	0.0823350027	-1.60590005	184	104	208
0.883149981	0.0822480023	-1.60420001	184	104	208
0.880370021	0.0804840028	-1.60010004	184	104	208
0.875819981	0.0822520033	-1.60430002	184	104	208
0.879480004	0.087030001	-1.60399997	184	104	208
0.883149981	0.0902020037	-1.60380006	184	104	208
0.886879981	0.0895439982	-1.62059999	184	104	208
0.887989998	0.092836	-1.62199998	184	104	208
0.886879981	0.0943389982	-1.62030005	184	104	208
0.886879981	0.0959490016	-1.62020004	184	104	208
0.887989998	0.0976689979	-1.62179995	184	104	208
0.887440026	0.0992600024	-1.62080002	184	104	208
0.890579998	0.0992060006	-1.61989999	184	104	208
0.890579998	0.100869998	-1.61979997	184	104	208
0.889469981	0.097465001	-1.61839998	184	104	208
0.889469981	0.0958470032	-1.61849999	184	104	208
0.889469981	0.0942389965	-1.61860001	184	104	208
0.889469981	0.0926430002	-1.61870003	184	104	208
0.890209973	0.101180002	-1.62489998	184	104	208
0.890209973	0.102880001	-1.62479997	184	104	208
0.892799973	0.102770001	-1.62310004	184	104	208
0.896679997	0.106420003	-1.62870002	184	104	208
0.894630015	0.106590003	-1.63119996	184	104	208
0.894630015	0.108010001	-1.63110006	184	104	208
0.90000999	0.108170003	-1.63349998	184	104	208
0.90316999	0.103399999	-1.6329	184	104	208
0.902620018	0.101640001	-1.6322	184	104	208
0.905219972	0.101530001	-1.63049996	184	104	208
0.905219972	0.10323	-1.63039994	184	104	208
0.904659986	0.0998070017	-1.62969995	184	104	208
0.900950015	0.099812001	-1.62979996	184	104	208
0.899839997	0.0948150009	-1.62849998	184	104	208
0.906340003	0.0950519964	-1.63250005	184	104	208
0.908379972	0.0949020013	-1.62989998	184	104	208
0.914139986	0.0947450027	-1.62730002	184	104	208
0.91674	0.0946429968	-1.62549996	184	104	208
0.919330001	0.09454	-1.62370002	184	104	208
0.921920002	0.0944359973	-1.62199998	184	104	208
0.924510002	0.0943330005	-1.62020004	184	104	208
0.924510002	0.092735	-1.62030005	184	104	208
0.927089989	0.0942289978	-1.61839998	184	104	208
0.929669976	0.0941250026	-1.61660004	184	104	208
0.929099977	0.0972979963	-1.61559999	184	104	208
0.925379992	0.0973069966	-1.61570001	184	104	208
0.925379992	0.0989430025	-1.61559999	184	104	208
0.925379992	0.0924919993	-1.61600006	184	104	208
0.925379992	0.0908970013	-1.61609995	184	104	208
0.925379992	0.0893030018	-1.61619997	184	104	208
0.925949991	0.0877429992	-1.6171	184	104	208
0.927959979	0.0892039984	-1.61440003	184	104	208
0.926240027	0.090659	-1.61189997	184	104	208
0.926240027	0.0922489986	-1.61179996	184	104	208
0.925100029	0.0857689977	-1.61049998	184	104	208
0.92197001	0.0858199969	-1.61150002	184	104	208
0.920530021	0.0892200023	-1.61469996	184	104	208
0.92167002	0.0877050012	-1.6164	184	104	208
0.919089973	0.0861840025	-1.61829996	184	104	208
0.916509986	0.0878980011	-1.62	184	104	208
0.918200016	0.0912429988	-1.62230003	184	104	208
0.919650018	0.0926479995	-1.61880004	184	104	208
0.921350002	0.0879800022	-1.62150002	184	104	208
0.913919985	0.0912029967	-1.62160003	184	104	208
0.911329985	0.091302	-1.62329996	184	104	208
0.914139986	0.0899289995	-1.62750006	184	104	208
0.911670029	0.0878140032	-1.61839998	184	104	208
0.911989987	0.0859270021	-1.6135	184	104	208
0.91711998	0.08574	-1.6099	184	104	208
0.921109974	0.0807299986	-1.60500002	184	104	208
0.919399977	0.0821589977	-1.60249996	184	104	208
0.919399977	0.0837410018	-1.60239995	184	104	208
0.91279	0.0959149972	-1.61960006	184	104	208
0.914139986	0.101300001	-1.62689996	184	104	208
0.914139986	0.103009999	-1.62679994	184	104	208
0.911539972	0.101410002	-1.6286	184	104	208
0.910420001	0.103009999	-1.62689996	184	104	208
0.908379972	0.101470001	-1.62960005	184	104	208
0.905589998	0.102909997	-1.62530005	184	104	208
0.899839997	0.106360003	-1.62779999	184	104	208
0.921350002	0.100919999	-1.6207	184	104	208
0.903129995	0.0829169974	-1.61720002	184	104	208
0.89477998	0.103670001	-1.63730001	184	104	208
0.891070008	0.10368	-1.63740003	184	104	208
0.891070008	0.101970002	-1.63750005	184	104	208
0.891070008	0.105420001	-1.63730001	184	104	208
0.888450027	0.105530001	-1.63900006	184	104	208
0.888999999	0.108580001	-1.63960004	184	104	208
0.89161998	0.108460002	-1.63789999	184	104	208
0.895889997	0.110090002	-1.63859999	184	104	208
0.895889997	0.111879997	-1.63839996	184	104	208
0.885829985	0.10864	-1.64049995	184	104	208
0.882659972	0.108690001	-1.64139998	184	104	208
0.883210003	0.110330001	-1.64209998	184	104	208
0.883750021	0.107369997	-1.64310002	184	104	208
0.880580008	0.108860001	-1.64390004	184	104	208
0.88112998	0.1105	-1.64460003	184	104	208
0.88003999	0.113909997	-1.64269996	184	104	208
0.877409995	0.114030004	-1.6444	184	104	208
0.875779986	0.112130001	-1.64199996	184	104	208
0.876320004	0.11039	-1.64300001	184	104	208
0.878400028	0.112010002	-1.64030004	184	104	208
0.879490018	0.107320003	-1.64230001	184	104	208
0.873059988	0.10847	-1.63810003	184	104	208
0.872070014	0.110330001	-1.64219999	184	104	208
0.869979978	0.1105	-1.64470005	184	104	208
0.873149991	0.113969997	-1.64359999	184	104	208
0.874779999	0.112410001	-1.64619994	184	104	208
0.875320017	0.115869999	-1.64680004	184	104	208
0.873769999	0.116109997	-1.65020001	184	104	208
0.874849975	0.117849998	-1.65180004	184	104	208
0.877489984	0.117729999	-1.65009999	184	104	208
0.880119979	0.115989998	-1.64849997	184	104	208
0.882759988	0.115869999	-1.64680004	184	104	208
0.885389984	0.11575	-1.6451	184	104	208
0.885389984	0.112350002	-1.64530003	184	104	208
0.874310017	0.124260001	-1.65050006	184	104	208
0.867940009	0.121080004	-1.65240002	184	104	208
0.866869986	0.122589998	-1.65059996	184	104	208
0.863160014	0.120959997	-1.65069997	184	104	208
0.863160014	0.11936	-1.65079999	184	104	208
0.859440029	0.11936	-1.65079999	184	104	208
0.858910024	0.117729999	-1.65009999	184	104	208
0.856270015	0.117849998	-1.65170002	184	104	208
0.861580014	0.122830003	-1.65390003	184	104	208
0.866370022	0.122960001	-1.65559995	184	104	208
0.864229977	0.116290003	-1.65269995	184	104	208
0.866869986	0.116169997	-1.65110004	184	104	208
0.867349982	0.115809999	-1.64600003	184	104	208
0.856280029	0.126499996	-1.65699995	184	104	208
0.856280029	0.128199995	-1.65690005	184	104	208
0.854160011	0.128399998	-1.65939999	184	104	208
0.854160011	0.124949999	-1.65960002	184	104	208
0.852039993	0.126440004	-1.65610003	184	104	208
0.848330021	0.126430005	-1.65610003	184	104	208
0.847270012	0.124559999	-1.65450001	184	104	208
0.846740007	0.122819997	-1.65380001	184	104	208
0.844099998	0.124619998	-1.65530002	184	104	208
0.845149994	0.123070002	-1.65709996	184	104	208
0.840390027	0.124619998	-1.65530002	184	104	208
0.839869976	0.126289994	-1.65429997	184	104	208
0.837769985	0.12263	-1.65110004	184	104	208
0.835120022	0.122749999	-1.65279996	184	104	208
0.836170018	0.11964	-1.65470004	184	104	208
0.839869976	0.119649999	-1.65480006	184	104	208
0.840939999	0.119350001	-1.65059996	184	104	208
0.83671999	0.117710002	-1.64979994	184	104	208
0.837249994	0.114069998	-1.64499998	184	104	208
0.830910027	0.119450003	-1.65209997	184	104	208
0.830389977	0.122610003	-1.65100002	184	104	208
0.829339981	0.120860003	-1.6494	184	104	208
0.824620008	0.122359999	-1.64750004	184	104	208
0.821460009	0.122409999	-1.64820004	184	104	208
0.821460009	0.120779999	-1.64839995	184	104	208
0.819339991	0.122589998	-1.65069997	184	104	208
0.820379972	0.121090002	-1.65250003	184	104	208
0.818769991	0.12133	-1.65579998	184	104	208
0.815670013	0.122579999	-1.65059996	184	104	208
0.815670013	0.125990003	-1.65030003	184	104	208
0.813539982	0.126179993	-1.65279996	184	104	208
0.808839977	0.126039997	-1.65090001	184	104	208
0.807730019	0.128049999	-1.65489995	184	104	208
0.807730019	0.129710004	-1.65480006	184	104	208
0.804059982	0.129690006	-1.65470004	184	104	208
0.801410019	0.131420001	-1.65610003	184	104	208
0.802429974	0.13312	-1.65769994	184	104	208
0.799269974	0.133169994	-1.65840006	184	104	208
0.797739983	0.131410003	-1.6559	184	104	208
0.796220005	0.129600003	-1.65349996	184	104	208
0.796729982	0.126320004	-1.65460002	184	104	208
0.799380004	0.127900004	-1.65289998	184	104	208
0.799880028	0.129620001	-1.65369999	184	104	208
0.802020013	0.127780005	-1.65139997	184	104	208
0.796729982	0.134430006	-1.65400004	184	104	208
0.795599997	0.134770006	-1.65810001	184	104	208
0.795599997	0.133159995	-1.65820003	184	104	208
0.794080019	0.131400004	-1.65579998	184	104	208
0.791429996	0.131520003	-1.6573	184	104	208
0.789409995	0.134399995	-1.65359998	184	104	208
0.787899971	0.132589996	-1.65120006	184	104	208
0.79053998	0.129319996	-1.64989996	184	104	208
0.79053998	0.125980005	-1.65009999	184	104	208
0.788399994	0.127859995	-1.65240002	184	104	208
0.796609998	0.128470004	-1.66030002	184	104	208
0.801299989	0.128619999	-1.66219997	184	104	208
0.803960025	0.13493	-1.66009998	184	104	208
0.808659971	0.135079995	-1.66199994	184	104	208
0.808659971	0.131909996	-1.66219997	184	104	208
0.810190022	0.133680001	-1.66470003	184	104	208
0.812229991	0.137260005	-1.66789997	184	104	208
0.814899981	0.137130007	-1.66630006	184	104	208
0.814899981	0.135440007	-1.66639996	184	104	208
0.814899981	0.132259995	-1.66670001	184	104	208
0.818599999	0.135450006	-1.66649997	184	104	208
0.821269989	0.135319993	-1.66489995	184	104	208
0.825479984	0.137089998	-1.66579998	184	104	208
0.825999975	0.135470003	-1.66680002	184	104	208
0.827549994	0.134059995	-1.66939998	184	104	208
0.830739975	0.135619998	-1.66859996	184	104	208
0.833410025	0.13549	-1.66690004	184	104	208
0.833410025	0.133870006	-1.66709995	184	104	208
0.832369983	0.130549997	-1.66559994	184	104	208
0.835039973	0.130429998	-1.66400003	184	104	208
0.836660028	0.130170003	-1.66069996	184	104	208
0.834569991	0.128240004	-1.65740001	184	104	208
0.832430005	0.128429994	-1.65989995	184	104	208
0.83348	0.126859993	-1.66170001	184	104	208
0.835089982	0.124860004	-1.65849996	184	104	208
0.831390023	0.124860004	-1.65840006	184	104	208
0.833000004	0.126350001	-1.65499997	184	104	208
0.827700019	0.126589999	-1.65820003	184	104	208
0.828740001	0.128429994	-1.65980005	184	104	208
0.827109993	0.128680006	-1.6631	184	104	208
0.828149974	0.130480006	-1.66470003	184	104	208
0.828670025	0.133729994	-1.66530001	184	104	208
0.83029002	0.131899998	-1.66209996	184	104	208
0.823419988	0.128680006	-1.66299999	184	104	208
0.821870029	0.130140007	-1.66030002	184	104	208
0.819800019	0.131479993	-1.65680003	184	104	208
0.822449982	0.131349996	-1.6552	184	104	208
0.824010015	0.126589999	-1.65810001	184	104	208
0.816120028	0.128199995	-1.65690005	184	104	208
0.816120028	0.129859999	-1.65680003	184	104	208
0.816630006	0.131530002	-1.65750003	184	104	208
0.813459992	0.129979998	-1.65840006	184	104	208
0.812950015	0.128260002	-1.65760005	184	104	208
0.82249999	0.12421	-1.64979994	184	104	208
0.823840022	0.134049997	-1.66929996	184	104	208
0.821680009	0.13425	-1.67180002	184	104	208
0.821160018	0.132609993	-1.67110002	184	104	208
0.817969978	0.134240001	-1.6717	184	104	208
0.820140004	0.137349993	-1.66900003	184	104	208
0.821160018	0.139180005	-1.67050004	184	104	208
0.820140004	0.140699998	-1.66869998	184	104	208
0.817969978	0.14091	-1.67110002	184	104	208
0.816950023	0.139090002	-1.66960001	184	104	208
0.81427002	0.139229998	-1.67110002	184	104	208
0.815289974	0.141039997	-1.67270005	184	104	208
0.813629985	0.139640003	-1.67620003	184	104	208
0.814140022	0.141389996	-1.67690003	184	104	208
0.811450005	0.141530007	-1.67850006	184	104	208
0.809769988	0.141800001	-1.68180001	184	104	208
0.81348002	0.143460006	-1.68180001	184	104	208
0.816680014	0.143399999	-1.68099999	184	104	208
0.818870008	0.144779995	-1.67840004	184	104	208
0.818870008	0.146430001	-1.67830002	184	104	208
0.814649999	0.146349996	-1.67729998	184	104	208
0.814649999	0.148090005	-1.67719996	184	104	208
0.812460005	0.148300007	-1.6796	184	104	208
0.811450005	0.146410003	-1.67799997	184	104	208
0.808749974	0.14655	-1.6796	184	104	208
0.807240009	0.143079996	-1.67729998	184	104	208
0.808910012	0.144390002	-1.67390001	184	104	208
0.805209994	0.144380003	-1.67369998	184	104	208
0.801010013	0.14429	-1.67270005	184	104	208
0.799499989	0.142480001	-1.67030001	184	104	208
0.799499989	0.139180005	-1.67060006	184	104	208
0.79531002	0.139090002	-1.66949999	184	104	208
0.793799996	0.140540004	-1.66680002	184	104	208
0.793299973	0.137130007	-1.66620004	184	104	208
0.796980023	0.137140006	-1.66639996	184	104	208
0.797479987	0.140560001	-1.66700006	184	104	208
0.795809984	0.142470002	-1.67009997	184	104	208
0.794809997	0.143900007	-1.66830003	184	104	208
0.79531002	0.145620003	-1.66900003	184	104	208
0.798829973	0.147880003	-1.67490005	184	104	208
0.79764998	0.150010005	-1.67879999	184	104	208
0.804040015	0.146380007	-1.67770004	184	104	208
0.805209994	0.139479995	-1.67420006	184	104	208
0.804709971	0.137720004	-1.67340004	184	104	208
0.808399975	0.139420003	-1.67340004	184	104	208
0.808910012	0.137799993	-1.67439997	184	104	208
0.811079979	0.137600005	-1.67200005	184	104	208
0.813120008	0.144470006	-1.67490005	184	104	208
0.813979983	0.150299996	-1.68200004	184	104	208
0.81279999	0.148900002	-1.68630004	184	104	208
0.813310027	0.150739998	-1.68700004	184	104	208
0.810599983	0.150889993	-1.68859994	184	104	208
0.807380021	0.15095	-1.68929994	184	104	208
0.808080018	0.148729995	-1.68449998	184	104	208
0.801660001	0.152419999	-1.68560004	184	104	208
0.820909977	0.143480003	-1.68200004	184	104	208
0.823090017	0.143270001	-1.67949998	184	104	208
0.823610008	0.144940004	-1.6803	184	104	208
0.824249983	0.142920002	-1.67540002	184	104	208
0.826929986	0.142780006	-1.67379999	184	104	208
0.825900018	0.141000003	-1.67219996	184	104	208
0.829100013	0.140929997	-1.67149997	184	104	208
0.832289994	0.140870005	-1.67069995	184	104	208
0.833329976	0.137659997	-1.67270005	184	104	208
0.830649972	0.142790005	-1.67390001	184	104	208
0.829509974	0.144730002	-1.67789996	184	104	208
0.827449977	0.139540002	-1.67490005	184	104	208
0.824360013	0.137429997	-1.66989994	184	104	208
0.840250015	0.137600005	-1.67200005	184	104	208
0.842930019	0.137470007	-1.67040002	184	104	208
0.845600009	0.137329996	-1.66869998	184	104	208
0.844560027	0.135499999	-1.66719997	184	104	208
0.845600009	0.134020001	-1.66900003	184	104	208
0.845080018	0.132390007	-1.66830003	184	104	208
0.844560027	0.130700007	-1.66750002	184	104	208
0.845600009	0.129170001	-1.66939998	184	104	208
0.842930019	0.134159997	-1.67060006	184	104	208
0.840250015	0.134289995	-1.67229998	184	104	208
0.838169992	0.132440001	-1.66900003	184	104	208
0.841359973	0.135570005	-1.66789997	184	104	208
0.847750008	0.135440007	-1.66639996	184	104	208
0.848280013	0.133890003	-1.66729999	184	104	208
0.845120013	0.130309999	-1.66250002	184	104	208
0.845120013	0.128649995	-1.66260004	184	104	208
0.842459977	0.127069995	-1.66439998	184	104	208
0.84088999	0.125119999	-1.66199994	184	104	208
0.848309994	0.126880005	-1.66199994	184	104	208
0.849910021	0.128330007	-1.65849996	184	104	208
0.847790003	0.131789997	-1.66069996	184	104	208
0.810970008	0.122450002	-1.6487	184	104	208
0.810970008	0.120820001	-1.64890003	184	104	208
0.811540008	0.11569	-1.64419997	184	104	208
0.813650012	0.113849998	-1.64189994	184	104	208
0.816269994	0.113739997	-1.64030004	184	104	208
0.817330003	0.111730002	-1.63629997	184	104	208
0.816240013	0.115809999	-1.64600003	184	104	208
0.89222002	0.0802640021	-1.59570003	184	104	208
0.876919985	0.0912429988	-1.62230003	184	104	208
0.867209971	0.0923179984	-1.61300004	184	104	208
0.862460017	0.0922230035	-1.61129999	184	104	208
0.860430002	0.0923670009	-1.61380005	184	104	208
0.854049981	0.0905380026	-1.60969996	184	104	208
0.854979992	0.0887200013	-1.6056	184	104	208
0.853890002	0.0902089998	-1.60389996	184	104	208
0.856450021	0.0901160017	-1.60220003	184	104	208
0.858089983	0.0886740014	-1.60479999	184	104	208
0.858449996	0.0852089971	-1.60000002	184	104	208
0.859000027	0.083664	-1.60090005	184	104	208
0.854260027	0.086763002	-1.59909999	184	104	208
0.853169978	0.0850749984	-1.59749997	184	104	208
0.852630019	0.0834449977	-1.59669995	184	104	208
0.849170029	0.0885329992	-1.60230005	184	104	208
0.848240018	0.0887629986	-1.60640001	184	104	208
0.846750021	0.0889469981	-1.60979998	184	104	208
0.847299993	0.0905819982	-1.61049998	184	104	208
0.844190001	0.0890379995	-1.61140001	184	104	208
0.83987999	0.090249002	-1.60459995	184	104	208
0.852419972	0.0808660015	-1.60769999	184	104	208
0.864839971	0.0838380009	-1.60420001	184	104	208
0.863380015	0.0872170031	-1.60739994	184	104	208
0.857860029	0.100570001	-1.61500001	184	104	208
0.828559995	0.092106998	-1.60930002	184	104	208
0.829630017	0.095393002	-1.61080003	184	104	208
0.830690026	0.0938910022	-1.61259997	184	104	208
0.827059984	0.0938870013	-1.61249995	184	104	208
0.827589989	0.0971509963	-1.61319995	184	104	208
0.824400008	0.0952380002	-1.60819995	184	104	208
0.821839988	0.0969420001	-1.60969996	184	104	208
0.801209986	0.105980001	-1.62179995	184	104	208
0.798619986	0.106080003	-1.62339997	184	104	208
0.793969989	0.105959997	-1.62150002	184	104	208
0.788789988	0.109140001	-1.62440002	184	104	208
0.785679996	0.109190002	-1.62510002	184	104	208
0.782069981	0.110950001	-1.62479997	184	104	208
0.781050026	0.112539999	-1.62300003	184	104	208
0.781560004	0.114239998	-1.62370002	184	104	208
0.778970003	0.114349999	-1.62530005	184	104	208
0.778460026	0.11265	-1.62450004	184	104	208
0.776939988	0.110760003	-1.62199998	184	104	208
0.777949989	0.109099999	-1.62390006	184	104	208
0.781050026	0.107500002	-1.62329996	184	104	208
0.782620013	0.107280001	-1.62010002	184	104	208
0.785719991	0.107239999	-1.61940002	184	104	208
0.78779	0.105669998	-1.6171	184	104	208
0.78727001	0.104079999	-1.61629999	184	104	208
0.783670008	0.105599999	-1.61609995	184	104	208
0.785730004	0.100500003	-1.61399996	184	104	208
0.789849997	0.100570001	-1.61500001	184	104	208
0.790880024	0.0986590013	-1.61099994	184	104	208
0.786249995	0.0985440016	-1.60909998	184	104	208
0.790849984	0.10334	-1.6049	184	104	208
0.779009998	0.108829997	-1.61979997	184	104	208
0.810549974	0.106219999	-1.62549996	184	104	208
0.811600029	0.107749999	-1.62709999	184	104	208
0.81366998	0.107589997	-1.62469995	184	104	208
0.81418997	0.106229998	-1.62559998	184	104	208
0.815240026	0.104790002	-1.62740004	184	104	208
0.812640011	0.104889996	-1.62899995	184	104	208
0.818880022	0.106339999	-1.62740004	184	104	208
0.829840004	0.107780002	-1.62759995	184	104	208
0.836139977	0.106640004	-1.63199997	184	104	208
0.827189982	0.0994490013	-1.62390006	184	104	208
0.84246999	0.115089998	-1.6358	184	104	208
