-0.577750027	-0.477880001	-1.55869997	213	121	96
-0.580659986	-0.477910012	-1.55879998	213	121	96
-0.580969989	-0.476610005	-1.56019998	213	121	96
-0.584500015	-0.477200001	-1.56219995	213	121	96
-0.585120022	-0.476170003	-1.56449997	213	121	96
-0.582199991	-0.476139992	-1.56439996	213	121	96
-0.601559997	-0.469489992	-1.58169997	213	121	96
-0.601239979	-0.467590004	-1.58130002	213	121	96
-0.601559997	-0.466259986	-1.5826	213	121	96
-0.604830027	-0.466540009	-1.58360004	213	121	96
-0.604830027	-0.464940012	-1.58410001	213	121	96
-0.605470002	-0.463939995	-1.58630002	213	121	96
-0.608420014	-0.463959992	-1.58640003	213	121	96
-0.608420014	-0.465490013	-1.58599997	213	121	96
-0.602509975	-0.465460002	-1.58580005	213	121	96
-0.602199972	-0.463660002	-1.58539999	213	121	96
-0.599240005	-0.463640004	-1.58529997	213	121	96
-0.599560022	-0.465440005	-1.58580005	213	121	96
-0.596920013	-0.465680003	-1.58659995	213	121	96
-0.59661001	-0.463889986	-1.58609998	213	121	96
-0.596920013	-0.462639987	-1.58749998	213	121	96
-0.594600022	-0.463149995	-1.58920002	213	121	96
-0.600820005	-0.463459998	-1.59029996	213	121	96
-0.605369985	-0.458319992	-1.59679997	213	121	96
-0.608340025	-0.458339989	-1.59689999	213	121	96
-0.608020008	-0.45965001	-1.59549999	213	121	96
-0.602720022	-0.457040012	-1.59809995	213	121	96
-0.601010025	-0.456539989	-1.60210001	213	121	96
-0.595990002	-0.455619991	-1.60520005	213	121	96
-0.595990002	-0.453909993	-1.60570002	213	121	96
-0.596300006	-0.45254001	-1.60699999	213	121	96
-0.593640029	-0.452780008	-1.60790002	213	121	96
-0.590659976	-0.452749997	-1.60780001	213	121	96
-0.587689996	-0.45273	-1.60769999	213	121	96
-0.587689996	-0.454360008	-1.60720003	213	121	96
-0.584720016	-0.454329997	-1.60710001	213	121	96
-0.584720016	-0.456039995	-1.60669994	213	121	96
-0.586769998	-0.45528999	-1.60399997	213	121	96
-0.589129984	-0.454789996	-1.60230005	213	121	96
-0.589129984	-0.456449986	-1.60179996	213	121	96
-0.592090011	-0.456470013	-1.60189998	213	121	96
-0.591470003	-0.45747	-1.59959996	213	121	96
-0.592090011	-0.453110009	-1.60280001	213	121	96
-0.589429975	-0.453350008	-1.60370004	213	121	96
-0.593330026	-0.455859989	-1.60599995	213	121	96
-0.592199981	-0.45243001	-1.6128	213	121	96
-0.591889977	-0.450560004	-1.61240005	213	121	96
-0.592509985	-0.44946	-1.61459994	213	121	96
-0.589829981	-0.448060006	-1.61590004	213	121	96
-0.590129972	-0.446680009	-1.61730003	213	121	96
-0.587149978	-0.446649998	-1.61720002	213	121	96
-0.586539984	-0.447780013	-1.61489999	213	121	96
-0.586239994	-0.44916001	-1.6135	213	121	96
-0.588909984	-0.448929995	-1.61269999	213	121	96
-0.588609993	-0.450280011	-1.61129999	213	121	96
-0.589219987	-0.452410012	-1.61269999	213	121	96
-0.585319996	-0.451609999	-1.6099	213	121	96
-0.585319996	-0.449999988	-1.61029994	213	121	96
-0.58326	-0.45074001	-1.61300004	213	121	96
-0.58385998	-0.449640006	-1.61530006	213	121	96
-0.584469974	-0.448520005	-1.61759996	213	121	96
-0.584770024	-0.447129995	-1.61889994	213	121	96
-0.585380018	-0.446020007	-1.62119997	213	121	96
-0.585380018	-0.444389999	-1.62170005	213	121	96
-0.585070014	-0.442559987	-1.62119997	213	121	96
-0.58239001	-0.442779988	-1.62199998	213	121	96
-0.582690001	-0.444620013	-1.62249994	213	121	96
-0.58239001	-0.445989996	-1.62109995	213	121	96
-0.58209002	-0.447360009	-1.61979997	213	121	96
-0.581480026	-0.448489994	-1.61749995	213	121	96
-0.581179976	-0.44986999	-1.61609995	213	121	96
-0.580579996	-0.450969994	-1.61380005	213	121	96
-0.578499973	-0.450089991	-1.61689997	213	121	96
-0.579100013	-0.44896999	-1.61919999	213	121	96
-0.579100013	-0.447329998	-1.61969995	213	121	96
-0.579699993	-0.446209997	-1.62189996	213	121	96
-0.579699993	-0.444590002	-1.62240005	213	121	96
-0.579699993	-0.442999989	-1.62279999	213	121	96
-0.577009976	-0.44321999	-1.62360001	213	121	96
-0.577310026	-0.445060015	-1.62409997	213	121	96
-0.577009976	-0.446440011	-1.62269998	213	121	96
-0.574320018	-0.446660012	-1.62360001	213	121	96
-0.574320018	-0.445030004	-1.62399995	213	121	96
-0.573430002	-0.442690015	-1.62170005	213	121	96
-0.576979995	-0.442460001	-1.6336	213	121	96
-0.588370025	-0.44442001	-1.62179995	213	121	96
-0.588370025	-0.446040004	-1.62129998	213	121	96
-0.591050029	-0.44580999	-1.62049997	213	121	96
-0.591050029	-0.444189996	-1.62090003	213	121	96
-0.591359973	-0.442860007	-1.62230003	213	121	96
-0.588670015	-0.443080008	-1.62310004	213	121	96
-0.592270017	-0.442030013	-1.62549996	213	121	96
-0.59258002	-0.440629989	-1.62679994	213	121	96
-0.595579982	-0.440649986	-1.62689996	213	121	96
-0.598580003	-0.440670013	-1.62699997	213	121	96
-0.601279974	-0.442090005	-1.6257	213	121	96
-0.600650012	-0.443170011	-1.62339997	213	121	96
-0.60334003	-0.44453001	-1.62220001	213	121	96
-0.60334003	-0.446150005	-1.62170005	213	121	96
-0.600340009	-0.446130008	-1.62160003	213	121	96
-0.599720001	-0.44400999	-1.62030005	213	121	96
-0.605719984	-0.44404	-1.62039995	213	121	96
-0.605719984	-0.445659995	-1.61989999	213	121	96
-0.608709991	-0.445679992	-1.62	213	121	96
-0.611720026	-0.445690006	-1.62	213	121	96
-0.611079991	-0.446810007	-1.6178	213	121	96
-0.614719987	-0.44569999	-1.62010002	213	121	96
-0.613300025	-0.442149997	-1.62590003	213	121	96
-0.612349987	-0.43976	-1.62360001	213	121	96
-0.612820029	-0.439220011	-1.63450003	213	121	96
-0.621569991	-0.437449992	-1.63419998	213	121	96
-0.624920011	-0.437700003	-1.63510001	213	121	96
-0.62826997	-0.437949985	-1.63600004	213	121	96
-0.631309986	-0.437949985	-1.63600004	213	121	96
-0.631630003	-0.436560005	-1.63740003	213	121	96
-0.631959975	-0.435119987	-1.63880002	213	121	96
-0.628920019	-0.435119987	-1.63870001	213	121	96
-0.629239976	-0.437040001	-1.63919997	213	121	96
-0.629570007	-0.433950007	-1.64100003	213	121	96
-0.63391	-0.431659997	-1.64549994	213	121	96
-0.633580029	-0.429820001	-1.64499998	213	121	96
-0.634559989	-0.428900003	-1.64820004	213	121	96
-0.637610018	-0.428900003	-1.64820004	213	121	96
-0.63696003	-0.430059999	-1.64600003	213	121	96
-0.637290001	-0.431899995	-1.64649999	213	121	96
-0.640009999	-0.431659997	-1.64549994	213	121	96
-0.640659988	-0.430530012	-1.64779997	213	121	96
-0.640659988	-0.428900003	-1.64820004	213	121	96
-0.641650021	-0.427969992	-1.65139997	213	121	96
-0.644379973	-0.427729994	-1.65050006	213	121	96
-0.644379973	-0.429369986	-1.64999998	213	121	96
-0.644379973	-0.431010008	-1.64960003	213	121	96
-0.647109985	-0.43077001	-1.6487	213	121	96
-0.649829984	-0.430519998	-1.64779997	213	121	96
-0.649500012	-0.431890011	-1.64639997	213	121	96
-0.652559996	-0.431890011	-1.64639997	213	121	96
-0.652559996	-0.433499992	-1.64600003	213	121	96
-0.654940009	-0.433019996	-1.64409995	213	121	96
-0.655279994	-0.431639999	-1.64549994	213	121	96
-0.657660007	-0.431160003	-1.64359999	213	121	96
-0.657320023	-0.432529986	-1.64230001	213	121	96
-0.656639993	-0.433690012	-1.63999999	213	121	96
-0.656979978	-0.435579985	-1.64049995	213	121	96
-0.656300008	-0.436769992	-1.63820004	213	121	96
-0.656300008	-0.438419998	-1.63779998	213	121	96
-0.653590024	-0.437029988	-1.63919997	213	121	96
-0.652920008	-0.43818	-1.63689995	213	121	96
-0.650210023	-0.436789989	-1.63829994	213	121	96
-0.650879979	-0.435589999	-1.64049995	213	121	96
-0.65121001	-0.434190005	-1.64189994	213	121	96
-0.653930008	-0.433939993	-1.64100003	213	121	96
-0.654600024	-0.436069995	-1.64230001	213	121	96
-0.659699976	-0.435330003	-1.63950002	213	121	96
-0.659359992	-0.43344	-1.63909996	213	121	96
-0.660040021	-0.432280004	-1.64129996	213	121	96
-0.662069976	-0.433189988	-1.63810003	213	121	96
-0.658670008	-0.436280012	-1.63639998	213	121	96
-0.654950023	-0.43900001	-1.63370001	213	121	96
-0.651570022	-0.438760012	-1.63279998	213	121	96
-0.651229978	-0.440100014	-1.63150001	213	121	96
-0.650560021	-0.441280007	-1.62919998	213	121	96
-0.647520006	-0.441280007	-1.6293	213	121	96
-0.644490004	-0.441289991	-1.6293	213	121	96
-0.645160019	-0.440109998	-1.63160002	213	121	96
-0.645489991	-0.438769996	-1.6329	213	121	96
-0.645489991	-0.437220007	-1.63329995	213	121	96
-0.645160019	-0.435339987	-1.63279998	213	121	96
-0.642459989	-0.435579985	-1.63380003	213	121	96
-0.642459989	-0.437220007	-1.63329995	213	121	96
-0.641789973	-0.43829	-1.63110006	213	121	96
-0.642120004	-0.440109998	-1.63160002	213	121	96
-0.641460001	-0.441289991	-1.6293	213	121	96
-0.640460014	-0.442200005	-1.62609994	213	121	96
-0.639800012	-0.443289995	-1.62390006	213	121	96
-0.639129996	-0.444379985	-1.62160003	213	121	96
-0.636120021	-0.444379985	-1.62160003	213	121	96
-0.635460019	-0.445499986	-1.61930001	213	121	96
-0.634790003	-0.446619987	-1.6171	213	121	96
-0.637470007	-0.446370006	-1.61619997	213	121	96
-0.638140023	-0.445250005	-1.61839998	213	121	96
-0.641489983	-0.445499986	-1.61930001	213	121	96
-0.642149985	-0.444379985	-1.62160003	213	121	96
-0.642490029	-0.443040013	-1.62290001	213	121	96
-0.643159986	-0.441949993	-1.62520003	213	121	96
-0.646520019	-0.442189991	-1.62609994	213	121	96
-0.645179987	-0.442779988	-1.62199998	213	121	96
-0.648530006	-0.440349996	-1.63240004	213	121	96
-0.648869991	-0.439009994	-1.63380003	213	121	96
-0.649200022	-0.437700003	-1.63510001	213	121	96
-0.647830009	-0.435600013	-1.64059997	213	121	96
-0.647159994	-0.433470011	-1.63919997	213	121	96
-0.64477998	-0.433950007	-1.64100003	213	121	96
-0.645110011	-0.432550013	-1.64240003	213	121	96
-0.645449996	-0.43118	-1.6437	213	121	96
-0.648159981	-0.432550013	-1.64230001	213	121	96
-0.642400026	-0.432799995	-1.64330006	213	121	96
-0.641740024	-0.433959991	-1.64100003	213	121	96
-0.639020026	-0.432559997	-1.64240003	213	121	96
-0.638360023	-0.433719993	-1.6401	213	121	96
-0.643790007	-0.434879988	-1.63779998	213	121	96
-0.64339	-0.431899995	-1.64639997	213	121	96
-0.647769988	-0.427960008	-1.65139997	213	121	96
-0.648440003	-0.426730007	-1.65359998	213	121	96
-0.650829971	-0.426259995	-1.65180004	213	121	96
-0.650829971	-0.427960008	-1.65129995	213	121	96
-0.650829971	-0.4296	-1.65090001	213	121	96
-0.648440003	-0.430079997	-1.65279996	213	121	96
-0.645370007	-0.426739991	-1.65359998	213	121	96
-0.645699978	-0.425249994	-1.65499997	213	121	96
-0.643299997	-0.42572999	-1.65680003	213	121	96
-0.642970026	-0.427210003	-1.65550005	213	121	96
-0.64023	-0.42572999	-1.65680003	213	121	96
-0.639580011	-0.426979989	-1.65460002	213	121	96
-0.638589978	-0.427969992	-1.65139997	213	121	96
-0.635860026	-0.42820999	-1.6523	213	121	96
-0.636189997	-0.426739991	-1.65369999	213	121	96
-0.636189997	-0.425020009	-1.65409994	213	121	96
-0.633780003	-0.425489992	-1.6559	213	121	96
-0.633130014	-0.426739991	-1.65369999	213	121	96
-0.633130014	-0.428440005	-1.65320003	213	121	96
-0.630720019	-0.428909987	-1.65499997	213	121	96
-0.630720019	-0.427210003	-1.65550005	213	121	96
-0.630720019	-0.425489992	-1.6559	213	121	96
-0.631690025	-0.424549997	-1.65910006	213	121	96
-0.629270017	-0.425020009	-1.6609	213	121	96
-0.62895	-0.426429987	-1.65960002	213	121	96
-0.628300011	-0.427679986	-1.6573	213	121	96
-0.627340019	-0.428669989	-1.65409994	213	121	96
-0.624610007	-0.430550009	-1.65460002	213	121	96
-0.624610007	-0.42719999	-1.65540004	213	121	96
-0.625249982	-0.425949991	-1.65769994	213	121	96
-0.625559986	-0.424540013	-1.65900004	213	121	96
-0.622510016	-0.426180005	-1.65859997	213	121	96
-0.622189999	-0.424299985	-1.65810001	213	121	96
-0.621869981	-0.427430004	-1.65629995	213	121	96
-0.63507998	-0.424789995	-1.65999997	213	121	96
-0.637489974	-0.424320012	-1.65820003	213	121	96
-0.64121002	-0.424789995	-1.65999997	213	121	96
-0.643620014	-0.424320012	-1.65820003	213	121	96
-0.648020029	-0.425249994	-1.66180003	213	121	96
-0.651090026	-0.425249994	-1.66180003	213	121	96
-0.654169977	-0.42524001	-1.66180003	213	121	96
-0.656579971	-0.424769998	-1.65989995	213	121	96
-0.658990026	-0.424290001	-1.65810001	213	121	96
-0.661390007	-0.423810005	-1.65620005	213	121	96
-0.660709977	-0.424980015	-1.65400004	213	121	96
-0.661050022	-0.426939994	-1.65439999	213	121	96
-0.660709977	-0.42840001	-1.65310001	213	121	96
-0.660030007	-0.429580003	-1.65079999	213	121	96
-0.659349978	-0.430739999	-1.64859998	213	121	96
-0.656289995	-0.430750012	-1.64859998	213	121	96
-0.656960011	-0.429589987	-1.65090001	213	121	96
-0.65662998	-0.427709997	-1.65040004	213	121	96
-0.654229999	-0.428189993	-1.65219998	213	121	96
-0.654569983	-0.430070013	-1.65269995	213	121	96
-0.653900027	-0.426250011	-1.65180004	213	121	96
-0.655239999	-0.425469995	-1.65579998	213	121	96
-0.657980025	-0.425229996	-1.65489995	213	121	96
-0.657980025	-0.426950008	-1.65450001	213	121	96
-0.652170002	-0.425480008	-1.6559	213	121	96
-0.650099993	-0.426189989	-1.65859997	213	121	96
-0.663779974	-0.424970001	-1.65390003	213	121	96
-0.664460003	-0.423799992	-1.65610003	213	121	96
-0.664460003	-0.427159995	-1.65530002	213	121	96
-0.664120018	-0.428629994	-1.65390003	213	121	96
-0.663439989	-0.429800004	-1.65170002	213	121	96
-0.662760019	-0.430970013	-1.6494	213	121	96
-0.665489972	-0.430720001	-1.64849997	213	121	96
-0.665139973	-0.432090014	-1.64719999	213	121	96
-0.664460003	-0.433219999	-1.64489996	213	121	96
-0.661740005	-0.43186	-1.64629996	213	121	96
-0.668900013	-0.430940002	-1.64929998	213	121	96
-0.669589996	-0.429780006	-1.6516	213	121	96
-0.670270026	-0.428600013	-1.65380001	213	121	96
-0.670960009	-0.427370012	-1.65610003	213	121	96
-0.670620024	-0.425410002	-1.65559995	213	121	96
-0.671299994	-0.424239993	-1.65789998	213	121	96
-0.668219984	-0.424250007	-1.65789998	213	121	96
-0.667540014	-0.42543	-1.65569997	213	121	96
-0.667540014	-0.427150011	-1.6552	213	121	96
-0.667200029	-0.428620011	-1.65390003	213	121	96
-0.666849971	-0.430029988	-1.65250003	213	121	96
-0.673009992	-0.428350002	-1.65289998	213	121	96
-0.673349977	-0.426880002	-1.65419996	213	121	96
-0.673699975	-0.425399989	-1.65559995	213	121	96
-0.676079988	-0.424910009	-1.65369999	213	121	96
-0.67711997	-0.423970014	-1.65680003	213	121	96
-0.674730003	-0.424459994	-1.65869999	213	121	96
-0.652559996	-0.43028	-1.64680004	213	121	96
-0.635070026	-0.442699999	-1.6279	213	121	96
-0.635070026	-0.441040009	-1.62839997	213	121	96
-0.635070026	-0.439370006	-1.62880003	213	121	96
-0.635399997	-0.438039988	-1.63020003	213	121	96
-0.633029997	-0.438529998	-1.63199997	213	121	96
-0.632380009	-0.439619988	-1.62969995	213	121	96
-0.632049978	-0.441040009	-1.62839997	213	121	96
-0.630649984	-0.439020008	-1.63380003	213	121	96
-0.636810005	-0.44749999	-1.61389995	213	121	96
-0.636810005	-0.449129999	-1.61339998	213	121	96
-0.632149994	-0.449470013	-1.60839999	213	121	96
-0.632149994	-0.451079994	-1.60800004	213	121	96
-0.629480004	-0.452939987	-1.60839999	213	121	96
-0.628820002	-0.450819999	-1.60710001	213	121	96
-0.628820002	-0.449209988	-1.60749996	213	121	96
-0.626160026	-0.44946	-1.60839999	213	121	96
-0.626160026	-0.451070011	-1.60800004	213	121	96
-0.626489997	-0.452930003	-1.60839999	213	121	96
-0.626160026	-0.454299986	-1.60710001	213	121	96
-0.623489976	-0.454560012	-1.60790002	213	121	96
-0.623489976	-0.452930003	-1.60839999	213	121	96
-0.620500028	-0.45291999	-1.60839999	213	121	96
-0.61984998	-0.454030007	-1.60609996	213	121	96
-0.619199991	-0.455229998	-1.60380006	213	121	96
-0.618879974	-0.456620008	-1.60239995	213	121	96
-0.62154001	-0.456369996	-1.60150003	213	121	96
-0.622189999	-0.455240011	-1.60380006	213	121	96
-0.625180006	-0.455240011	-1.60380006	213	121	96
-0.624199986	-0.456120014	-1.6006	213	121	96
-0.620890021	-0.458909988	-1.59879994	213	121	96
-0.620239973	-0.456860006	-1.59749997	213	121	96
-0.617910028	-0.457370013	-1.59920001	213	121	96
-0.617579997	-0.458640009	-1.59790003	213	121	96
-0.618229985	-0.46074	-1.59930003	213	121	96
-0.614929974	-0.460469991	-1.59829998	213	121	96
-0.614929974	-0.458889991	-1.59879994	213	121	96
-0.615249991	-0.457619995	-1.60010004	213	121	96
-0.615570009	-0.456349999	-1.60150003	213	121	96
-0.616219997	-0.455220014	-1.60380006	213	121	96
-0.615890026	-0.453249991	-1.60329998	213	121	96
-0.61322999	-0.453500003	-1.60420001	213	121	96
-0.613550007	-0.455460012	-1.60459995	213	121	96
-0.611530006	-0.456230015	-1.60730004	213	121	96
-0.611209989	-0.454259992	-1.60689998	213	121	96
-0.611209989	-0.452630013	-1.60730004	213	121	96
-0.611209989	-0.451020002	-1.60780001	213	121	96
-0.608539999	-0.45126	-1.60870004	213	121	96
-0.608860016	-0.453130007	-1.60909998	213	121	96
-0.609179974	-0.45502001	-1.60959995	213	121	96
-0.608860016	-0.456470013	-1.60819995	213	121	96
-0.616289973	-0.460759997	-1.59329998	213	121	96
-0.628170013	-0.453539997	-1.60430002	213	121	96
-0.602519989	-0.441430002	-1.62979996	213	121	96
-0.584410012	-0.452439994	-1.60669994	213	121	96
-0.583500028	-0.456649989	-1.60249996	213	121	96
-0.578180015	-0.45212999	-1.6056	213	121	96
-0.55953002	-0.476399988	-1.56519997	213	121	96
-0.560750008	-0.469330013	-1.5812	213	121	96
-0.557820022	-0.469289988	-1.58099997	213	121	96
-0.558990002	-0.465539992	-1.58609998	213	121	96
-0.558990002	-0.46401	-1.58659995	213	121	96
-0.55576998	-0.463690013	-1.5855	213	121	96
-0.549960017	-0.473580003	-1.57239997	213	121	96
-0.549669981	-0.474920005	-1.57099998	213	121	96
-0.546769977	-0.474869996	-1.57079995	213	121	96
-0.547049999	-0.473529994	-1.57219994	213	121	96
-0.544149995	-0.473479986	-1.57210004	213	121	96
-0.543860018	-0.47152999	-1.57169998	213	121	96
-0.546190023	-0.471029997	-1.57000005	213	121	96
-0.546769977	-0.470039994	-1.57229996	213	121	96
-0.549380004	-0.469819993	-1.57149994	213	121	96
-0.549380004	-0.471350014	-1.5711	213	121	96
-0.545009971	-0.471089989	-1.57579994	213	121	96
-0.542379975	-0.471320003	-1.57650006	213	121	96
-0.541809976	-0.472299993	-1.57420003	213	121	96
-0.539189994	-0.472519994	-1.57500005	213	121	96
-0.539759994	-0.471540004	-1.57729995	213	121	96
-0.540319979	-0.470580012	-1.57959998	213	121	96
-0.540610015	-0.469269991	-1.58099997	213	121	96
-0.540040016	-0.467110008	-1.57959998	213	121	96
-0.540040016	-0.465499997	-1.58010006	213	121	96
-0.537410021	-0.465719998	-1.58080006	213	121	96
-0.537129998	-0.467049986	-1.57939994	213	121	96
-0.53628999	-0.46785	-1.57620001	213	121	96
-0.536570013	-0.469709992	-1.57659996	213	121	96
-0.53628999	-0.47093001	-1.57529998	213	121	96
-0.535449982	-0.471639991	-1.57200003	213	121	96
-0.535170019	-0.473040015	-1.57060003	213	121	96
-0.535449982	-0.474929988	-1.5711	213	121	96
-0.532549977	-0.474869996	-1.57089996	213	121	96
-0.531989992	-0.472710013	-1.56949997	213	121	96
-0.531989992	-0.471029997	-1.57000005	213	121	96
-0.529380023	-0.471249998	-1.57070005	213	121	96
-0.529380023	-0.472920001	-1.57019997	213	121	96
-0.529380023	-0.474539995	-1.56980002	213	121	96
-0.523869991	-0.473080009	-1.57079995	213	121	96
-0.523599982	-0.474420011	-1.56930006	213	121	96
-0.522780001	-0.475050002	-1.5661	213	121	96
-0.520169973	-0.475270003	-1.5668	213	121	96
-0.520169973	-0.47378999	-1.56729996	213	121	96
-0.517289996	-0.476700008	-1.56620002	213	121	96
-0.519349992	-0.475919992	-1.56359994	213	121	96
-0.52196002	-0.475710005	-1.56289995	213	121	96
-0.52196002	-0.477290004	-1.56239998	213	121	96
-0.521679997	-0.478590012	-1.56099999	213	121	96
-0.521409988	-0.479889989	-1.5596	213	121	96
-0.524280012	-0.479950011	-1.55980003	213	121	96
-0.526880026	-0.47973001	-1.55910003	213	121	96
-0.526610017	-0.481029987	-1.55770004	213	121	96
-0.523459971	-0.480690002	-1.55659997	213	121	96
-0.520590007	-0.480619997	-1.55639994	213	121	96
-0.518540025	-0.481409997	-1.5589	213	121	96
-0.518540025	-0.479820013	-1.55939996	213	121	96
-0.519079983	-0.478799999	-1.56169999	213	121	96
-0.518540025	-0.476660013	-1.56040001	213	121	96
-0.51621002	-0.477160007	-1.56200004	213	121	96
-0.515940011	-0.478460014	-1.56060004	213	121	96
-0.515389979	-0.479470015	-1.55830002	213	121	96
-0.515120029	-0.480769992	-1.55690002	213	121	96
-0.515120029	-0.482389987	-1.55639994	213	121	96
-0.512530029	-0.482600003	-1.55710006	213	121	96
-0.511990011	-0.480419993	-1.55569994	213	121	96
-0.509389997	-0.48063001	-1.55639994	213	121	96
-0.509130001	-0.481959999	-1.55499995	213	121	96
-0.506269991	-0.481889993	-1.55480003	213	121	96
-0.506529987	-0.480560005	-1.55620003	213	121	96
-0.50733	-0.479820013	-1.55939996	213	121	96
-0.509930015	-0.479609996	-1.55869997	213	121	96
-0.512799978	-0.479680002	-1.55900002	213	121	96
-0.513599992	-0.478949994	-1.56219995	213	121	96
-0.513599992	-0.477369994	-1.56270003	213	121	96
-0.513870001	-0.476069987	-1.56410003	213	121	96
-0.510999978	-0.476000011	-1.56389999	213	121	96
-0.510999978	-0.477580011	-1.56340003	213	121	96
-0.510730028	-0.478879988	-1.56200004	213	121	96
-0.508130014	-0.479090005	-1.56270003	213	121	96
-0.508130014	-0.477510005	-1.5632	213	121	96
-0.508130014	-0.475930005	-1.56369996	213	121	96
-0.508660018	-0.47499001	-1.56599998	213	121	96
-0.508920014	-0.473800004	-1.56729996	213	121	96
-0.511799991	-0.473870009	-1.56760001	213	121	96
-0.511799991	-0.475340009	-1.56710005	213	121	96
-0.517170012	-0.481599987	-1.55379999	213	121	96
-0.516900003	-0.482919991	-1.55239999	213	121	96
-0.516900003	-0.484519988	-1.55190003	213	121	96
-0.516629994	-0.485799998	-1.55050004	213	121	96
-0.516089976	-0.486580014	-1.54820001	213	121	96
-0.516089976	-0.488260001	-1.54770005	213	121	96
-0.516089976	-0.489820004	-1.54719996	213	121	96
-0.518670022	-0.489600003	-1.54649997	213	121	96
-0.518400013	-0.490700006	-1.54519999	213	121	96
-0.520699978	-0.490179986	-1.54359996	213	121	96
-0.520699978	-0.49180001	-1.54299998	213	121	96
-0.523280025	-0.489960015	-1.54279995	213	121	96
-0.523000002	-0.488279998	-1.5424	213	121	96
-0.523000002	-0.486719996	-1.54289997	213	121	96
-0.523559988	-0.485630006	-1.54519999	213	121	96
-0.52098	-0.485850006	-1.54589999	213	121	96
-0.520699978	-0.487230003	-1.54449999	213	121	96
-0.520150006	-0.488220006	-1.54219997	213	121	96
-0.517570019	-0.491439998	-1.54190004	213	121	96
-0.514720023	-0.489749998	-1.54219997	213	121	96
-0.512419999	-0.488880008	-1.54429996	213	121	96
-0.509570003	-0.487239987	-1.54449999	213	121	96
-0.509029984	-0.488220006	-1.54219997	213	121	96
-0.508490026	-0.489030004	-1.53989995	213	121	96
-0.508759975	-0.490929991	-1.54030001	213	121	96
-0.511330009	-0.489100009	-1.54009998	213	121	96
-0.516480029	-0.491750002	-1.53779995	213	121	96
-0.516480029	-0.493129998	-1.53729999	213	121	96
-0.518769979	-0.494159997	-1.5352	213	121	96
-0.521889985	-0.494520009	-1.53629994	213	121	96
-0.524460018	-0.494289994	-1.53559995	213	121	96
-0.527029991	-0.492520005	-1.53540003	213	121	96
-0.529869974	-0.492579997	-1.53559995	213	121	96
-0.530439973	-0.491789997	-1.53789997	213	121	96
-0.529869974	-0.489719987	-1.53649998	213	121	96
-0.532729983	-0.489789993	-1.53670001	213	121	96
-0.533010006	-0.491549999	-1.53719997	213	121	96
-0.535860002	-0.491609991	-1.53729999	213	121	96
-0.535579979	-0.492700011	-1.53600001	213	121	96
-0.535290003	-0.493950009	-1.53460002	213	121	96
-0.537859976	-0.493719995	-1.53390002	213	121	96
-0.538139999	-0.492469996	-1.53530002	213	121	96
-0.538429976	-0.491380006	-1.53659999	213	121	96
-0.538720012	-0.490189999	-1.53799999	213	121	96
-0.539009988	-0.488869995	-1.53939998	213	121	96
-0.539579988	-0.488070011	-1.54170001	213	121	96
-0.539870024	-0.486799985	-1.5431	213	121	96
-0.537289977	-0.487029999	-1.5438	213	121	96
-0.537289977	-0.488590002	-1.54330003	213	121	96
-0.535000026	-0.48754999	-1.54550004	213	121	96
-0.535279989	-0.489399999	-1.54589999	213	121	96
-0.53241998	-0.489340007	-1.54569995	213	121	96
-0.532980025	-0.488350004	-1.54799998	213	121	96
-0.532980025	-0.486680001	-1.54859996	213	121	96
-0.532700002	-0.485029995	-1.54809999	213	121	96
-0.530399978	-0.485549986	-1.54970002	213	121	96
-0.530110002	-0.486620009	-1.54840004	213	121	96
-0.530110002	-0.488290012	-1.54779994	213	121	96
-0.529269993	-0.488990009	-1.54460001	213	121	96
-0.528150022	-0.48921001	-1.54050004	213	121	96
-0.527589977	-0.490240008	-1.53820002	213	121	96
-0.527869999	-0.492020011	-1.53859997	213	121	96
-0.525020003	-0.491950005	-1.53840005	213	121	96
-0.524739981	-0.490179986	-1.53799999	213	121	96
-0.52244997	-0.49217999	-1.53910005	213	121	96
-0.522719979	-0.493860006	-1.53960001	213	121	96
-0.519869983	-0.493790001	-1.53939998	213	121	96
-0.519599974	-0.492110014	-1.53890002	213	121	96
-0.522719979	-0.490990013	-1.54050004	213	121	96
-0.525579989	-0.489439994	-1.54120004	213	121	96
-0.525579989	-0.488059998	-1.54170001	213	121	96
-0.525860012	-0.486790001	-1.5431	213	121	96
-0.526690006	-0.485980004	-1.54630005	213	121	96
-0.527530015	-0.485480011	-1.54949999	213	121	96
-0.52809	-0.484490007	-1.55180001	213	121	96
-0.52809	-0.482899994	-1.55229998	213	121	96
-0.528370023	-0.481579989	-1.55379999	213	121	96
-0.530960023	-0.481350005	-1.55299997	213	121	96
-0.530960023	-0.482959986	-1.55250001	213	121	96
-0.531520009	-0.485119998	-1.5539	213	121	96
-0.533829987	-0.484609991	-1.55219996	213	121	96
-0.533550024	-0.482730001	-1.55180001	213	121	96
-0.533259988	-0.480839998	-1.55139995	213	121	96
-0.536419988	-0.482789993	-1.55200005	213	121	96
-0.53670001	-0.481469989	-1.55340004	213	121	96
-0.53727001	-0.480419993	-1.55569994	213	121	96
-0.540149987	-0.480479985	-1.55589998	213	121	96
-0.540149987	-0.482089996	-1.55540001	213	121	96
-0.542450011	-0.48319	-1.55330002	213	121	96
-0.543030024	-0.485350013	-1.5546	213	121	96
-0.540149987	-0.485300004	-1.55439997	213	121	96
-0.536989987	-0.484950006	-1.55330002	213	121	96
-0.539290011	-0.482849985	-1.55219996	213	121	96
-0.539009988	-0.485720009	-1.5503	213	121	96
-0.542169988	-0.486059994	-1.55139995	213	121	96
-0.544470012	-0.485540003	-1.54970002	213	121	96
-0.544470012	-0.486900002	-1.54929996	213	121	96
-0.547049999	-0.486669987	-1.54849994	213	121	96
-0.547049999	-0.485309988	-1.54900002	213	121	96
-0.547339976	-0.484030008	-1.55040002	213	121	96
-0.544759989	-0.484259993	-1.55110002	213	121	96
-0.545050025	-0.482950002	-1.55250001	213	121	96
-0.545910001	-0.482199997	-1.55579996	213	121	96
-0.545329988	-0.480019987	-1.55439997	213	121	96
-0.542450011	-0.479959995	-1.55429995	213	121	96
-0.54332	-0.479229987	-1.5575	213	121	96
-0.540719986	-0.479460001	-1.5582	213	121	96
-0.538119972	-0.479680002	-1.55900002	213	121	96
-0.535520017	-0.479909986	-1.55970001	213	121	96
-0.535239995	-0.481209993	-1.55830002	213	121	96
-0.53263998	-0.481440008	-1.55900002	213	121	96
-0.532920003	-0.480129987	-1.56040001	213	121	96
-0.530040026	-0.480069995	-1.56019998	213	121	96
-0.529760003	-0.481379986	-1.55879998	213	121	96
-0.5255	-0.481510013	-1.55359995	213	121	96
-0.525219977	-0.482840002	-1.55209994	213	121	96
-0.525219977	-0.484429985	-1.55159998	213	121	96
-0.524940014	-0.485709995	-1.55019999	213	121	96
-0.522350013	-0.485929996	-1.55089998	213	121	96
-0.522080004	-0.484079987	-1.55050004	213	121	96
-0.522629976	-0.483060002	-1.55280006	213	121	96
-0.522350013	-0.481160015	-1.55239999	213	121	96
-0.519219995	-0.480809987	-1.55130005	213	121	96
-0.520039976	-0.483280003	-1.55359995	213	121	96
-0.519490004	-0.484299988	-1.55120003	213	121	96
-0.519490004	-0.48585999	-1.55069995	213	121	96
-0.518670022	-0.486360013	-1.54750001	213	121	96
-0.518400013	-0.487749994	-1.54610002	213	121	96
-0.513230026	-0.488189995	-1.54750001	213	121	96
-0.513230026	-0.486510009	-1.54799998	213	121	96
-0.512690008	-0.48458001	-1.54659998	213	121	96
-0.510110021	-0.486149997	-1.54690003	213	121	96
-0.509570003	-0.484219998	-1.54550004	213	121	96
-0.506990016	-0.484429985	-1.54620004	213	121	96
-0.507260025	-0.486079991	-1.54659998	213	121	96
-0.506720006	-0.487170011	-1.54429996	213	121	96
-0.504140019	-0.487379998	-1.54499996	213	121	96
-0.501829982	-0.487890005	-1.54659998	213	121	96
-0.502619982	-0.487080008	-1.54980004	213	121	96
-0.502349973	-0.485430002	-1.54939997	213	121	96
-0.501829982	-0.483289987	-1.54799998	213	121	96
-0.504670024	-0.483370006	-1.54820001	213	121	96
-0.504670024	-0.484930009	-1.54779994	213	121	96
-0.505469978	-0.487159997	-1.55009997	213	121	96
-0.505739987	-0.482919991	-1.55239999	213	121	96
-0.508329988	-0.482710004	-1.5517	213	121	96
-0.511449993	-0.483069986	-1.55289996	213	121	96
-0.514310002	-0.483139992	-1.55309999	213	121	96
-0.514310002	-0.484730005	-1.55260003	213	121	96
-0.51038003	-0.483509988	-1.54869998	213	121	96
-0.506720006	-0.482580006	-1.54569995	213	121	96
-0.502879977	-0.482849985	-1.55219996	213	121	96
-0.503149986	-0.481530011	-1.55359995	213	121	96
-0.500819981	-0.482019991	-1.55519998	213	121	96
-0.497700006	-0.481660008	-1.55400002	213	121	96
-0.497700006	-0.480040014	-1.55449998	213	121	96
-0.495110005	-0.480250001	-1.55519998	213	121	96
-0.495370001	-0.482149988	-1.55560005	213	121	96
-0.492769986	-0.482360005	-1.55630004	213	121	96
-0.492520005	-0.480450004	-1.55579996	213	121	96
-0.488389999	-0.483749986	-1.54949999	213	121	96
-0.488130003	-0.486389995	-1.54760003	213	121	96
-0.487619996	-0.484450012	-1.54620004	213	121	96
-0.490460008	-0.484530002	-1.54649997	213	121	96
-0.490460008	-0.487560004	-1.54550004	213	121	96
-0.489939988	-0.488539994	-1.54320002	213	121	96
-0.493039995	-0.487360001	-1.54489994	213	121	96
-0.493299991	-0.48921001	-1.54530001	213	121	96
-0.493299991	-0.485980004	-1.54630005	213	121	96
-0.493559986	-0.484910011	-1.54770005	213	121	96
-0.491490006	-0.487049997	-1.54970002	213	121	96
-0.485799998	-0.486880004	-1.54920006	213	121	96
-0.485300004	-0.48337999	-1.54830003	213	121	96
-0.498979986	-0.484780014	-1.54729998	213	121	96
-0.498459995	-0.48556	-1.54499996	213	121	96
-0.498459995	-0.487230003	-1.54449999	213	121	96
-0.498459995	-0.488790005	-1.54400003	213	121	96
-0.501039982	-0.488579988	-1.54330003	213	121	96
-0.499769986	-0.484079987	-1.55050004	213	121	96
-0.500029981	-0.482769996	-1.55190003	213	121	96
-0.491739988	-0.488840014	-1.53929996	213	121	96
-0.485579997	-0.48969999	-1.53639996	213	121	96
-0.47942999	-0.493319988	-1.53260005	213	121	96
-0.479180008	-0.494780004	-1.53110003	213	121	96
-0.47687	-0.493530005	-1.53330004	213	121	96
-0.478619993	-0.491189986	-1.54110003	213	121	96
-0.476049989	-0.49138999	-1.54180002	213	121	96
-0.541580021	-0.478720009	-1.56149995	213	121	96
-0.542150021	-0.477699995	-1.56379998	213	121	96
-0.545329988	-0.478029996	-1.56490004	213	121	96
-0.544179976	-0.478489995	-1.56070006	213	121	96
-0.54677999	-0.47826001	-1.55999994	213	121	96
-0.546199977	-0.479279995	-1.55770004	213	121	96
-0.54332	-0.482430011	-1.55649996	213	121	96
-0.539830029	-0.475129992	-1.56640005	213	121	96
-0.54964	-0.483509988	-1.54869998	213	121	96
-0.54934001	-0.484789997	-1.54729998	213	121	96
-0.549929976	-0.486719996	-1.54869998	213	121	96
-0.549049973	-0.487529993	-1.54540002	213	121	96
-0.55193001	-0.487580001	-1.54560006	213	121	96
-0.554509997	-0.487340003	-1.54480004	213	121	96
-0.554210007	-0.488609999	-1.54340005	213	121	96
-0.553619981	-0.489419997	-1.54120004	213	121	96
-0.556490004	-0.489470005	-1.54130006	213	121	96
-0.557079971	-0.488660008	-1.54359996	213	121	96
-0.557079971	-0.487100005	-1.54410005	213	121	96
-0.557680011	-0.486000001	-1.54639995	213	121	96
-0.560559988	-0.48605001	-1.54649997	213	121	96
-0.560559988	-0.484690011	-1.54700005	213	121	96
-0.563139975	-0.484450012	-1.54620004	213	121	96
-0.563139975	-0.485799998	-1.54579997	213	121	96
-0.563139975	-0.487480015	-1.54519999	213	121	96
-0.562839985	-0.488750011	-1.5438	213	121	96
-0.559960008	-0.488709986	-1.54369998	213	121	96
-0.559960008	-0.490090013	-1.54330003	213	121	96
-0.560559988	-0.487720013	-1.546	213	121	96
-0.566320002	-0.486129999	-1.54680002	213	121	96
-0.566020012	-0.484490007	-1.54630005	213	121	96
-0.564339995	-0.484019995	-1.5503	213	121	96
-0.555299997	-0.48991999	-1.53719997	213	121	96
-0.555299997	-0.491400003	-1.53670001	213	121	96
-0.552439988	-0.491349995	-1.53649998	213	121	96
-0.552730024	-0.490170002	-1.53789997	213	121	96
-0.550459981	-0.490700006	-1.53960001	213	121	96
-0.550159991	-0.488799989	-1.53919995	213	121	96
-0.547299981	-0.488739997	-1.53900003	213	121	96
-0.544730008	-0.488979995	-1.53980005	213	121	96
-0.545019984	-0.487890005	-1.54110003	213	121	96
-0.542150021	-0.487830013	-1.54100001	213	121	96
-0.541869998	-0.488929987	-1.53960001	213	121	96
-0.541869998	-0.490539998	-1.53910005	213	121	96
-0.541289985	-0.491439998	-1.53680003	213	121	96
-0.541000009	-0.492529988	-1.53540003	213	121	96
-0.541000009	-0.494069993	-1.53489995	213	121	96
-0.540419996	-0.495229989	-1.53260005	213	121	96
-0.542689979	-0.494700015	-1.5309	213	121	96
-0.542110026	-0.495530009	-1.52859998	213	121	96
-0.542110026	-0.497060001	-1.52810001	213	121	96
-0.539839983	-0.497590005	-1.52980006	213	121	96
-0.539550006	-0.495770007	-1.52939999	213	121	96
-0.536989987	-0.494590014	-1.53059995	213	121	96
-0.534430027	-0.494819999	-1.53129995	213	121	96
-0.531870008	-0.493299991	-1.53260005	213	121	96
-0.532159984	-0.492060006	-1.53400004	213	121	96
-0.535579979	-0.489840001	-1.53690004	213	121	96
-0.536149979	-0.488810003	-1.53919995	213	121	96
-0.533580005	-0.489050001	-1.53999996	213	121	96
-0.531000018	-0.489279985	-1.54069996	213	121	96
-0.525579989	-0.493919998	-1.53980005	213	121	96
-0.535279989	-0.48616001	-1.54690003	213	121	96
-0.535849988	-0.485379994	-1.54920006	213	121	96
-0.537859976	-0.485929996	-1.54620004	213	121	96
-0.54073	-0.485989988	-1.54639995	213	121	96
-0.54302001	-0.48714	-1.54419994	213	121	96
-0.545889974	-0.487190008	-1.54439998	213	121	96
-0.548179984	-0.48822999	-1.54219997	213	121	96
-0.551039994	-0.488279998	-1.5424	213	121	96
-0.54847002	-0.491519988	-1.54219997	213	121	96
-0.545599997	-0.491470009	-1.54200006	213	121	96
-0.547010005	-0.491540015	-1.53709996	213	121	96
-0.547010005	-0.492929995	-1.53670001	213	121	96
-0.546710014	-0.494179994	-1.53530002	213	121	96
-0.544149995	-0.494419992	-1.53600001	213	121	96
-0.544149995	-0.492870003	-1.53649998	213	121	96
-0.544149995	-0.491490006	-1.53699994	213	121	96
-0.549570024	-0.491299987	-1.53639996	213	121	96
-0.549279988	-0.492390007	-1.53499997	213	121	96
-0.551549971	-0.491860002	-1.53340006	213	121	96
-0.550960004	-0.492810011	-1.53100002	213	121	96
-0.548399985	-0.493059993	-1.53180003	213	121	96
-0.548399985	-0.494809985	-1.53120005	213	121	96
-0.545840025	-0.495050013	-1.53199995	213	121	96
-0.545249999	-0.495880008	-1.52970004	213	121	96
-0.544080019	-0.496219993	-1.52559996	213	121	96
-0.54095	-0.497550011	-1.52390003	213	121	96
-0.54095	-0.498939991	-1.52349997	213	121	96
-0.538110018	-0.498879999	-1.52330005	213	121	96
-0.537530005	-0.499819994	-1.52100003	213	121	96
-0.538969994	-0.498389989	-1.52649999	213	121	96
-0.536419988	-0.498629987	-1.52719998	213	121	96
-0.536989987	-0.497530013	-1.52960002	213	121	96
-0.536130011	-0.495119989	-1.52740002	213	121	96
-0.533580005	-0.495350003	-1.52810001	213	121	96
-0.533290029	-0.496580005	-1.52670002	213	121	96
-0.533010006	-0.497970015	-1.52520001	213	121	96
-0.506879985	-0.495029986	-1.53190005	213	121	96
-0.506879985	-0.496450007	-1.53149998	213	121	96
-0.504320025	-0.496670008	-1.53209996	213	121	96
-0.504050016	-0.494949996	-1.53170002	213	121	96
-0.500959992	-0.494569987	-1.53050005	213	121	96
-0.500689983	-0.495700002	-1.52909994	213	121	96
-0.501749992	-0.493710011	-1.53380001	213	121	96
-0.499190003	-0.493930012	-1.5345	213	121	96
-0.507550001	-0.498739988	-1.52289999	213	121	96
-0.50782001	-0.500580013	-1.52330005	213	121	96
-0.507000029	-0.496749997	-1.52149999	213	121	96
-0.521260023	-0.473289996	-1.57149994	213	121	96
-0.521799982	-0.472169995	-1.57379997	213	121	96
-0.521529973	-0.470360011	-1.57340002	213	121	96
-0.519720018	-0.469900012	-1.57729995	213	121	96
-0.519999981	-0.468589991	-1.57869995	213	121	96
-0.519999981	-0.466969997	-1.57910001	213	121	96
-0.521350026	-0.466729999	-1.58420002	213	121	96
-0.527869999	-0.47104001	-1.57560003	213	121	96
-0.530770004	-0.471100003	-1.57579994	213	121	96
-0.53283	-0.47033	-1.57319999	213	121	96
-0.537970006	-0.464659989	-1.58309996	213	121	96
-0.536180019	-0.464159995	-1.58710003	213	121	96
-0.610909998	-0.424970001	-1.66069996	213	121	96
-0.600830019	-0.425850004	-1.6573	213	121	96
-0.600830019	-0.424210012	-1.65769994	213	121	96
-0.598100007	-0.424430013	-1.65859997	213	121	96
-0.597790003	-0.425830007	-1.6573	213	121	96
-0.597180009	-0.427080005	-1.65499997	213	121	96
-0.53283	-0.460049987	-1.59689999	213	121	96
-0.505779982	-0.460280001	-1.59169996	213	121	96
-0.505779982	-0.461950004	-1.59119999	213	121	96
-0.505779982	-0.463580012	-1.59070003	213	121	96
-0.508419991	-0.463380009	-1.59000003	213	121	96
-0.5079	-0.464349985	-1.58770001	213	121	96
-0.507640004	-0.465609998	-1.58640003	213	121	96
-0.507369995	-0.466939986	-1.58500004	213	121	96
-0.504480004	-0.465270013	-1.58519995	213	121	96
-0.504999995	-0.464280009	-1.58749998	213	121	96
-0.502359986	-0.464480013	-1.58819997	213	121	96
-0.502619982	-0.463239998	-1.58949995	213	121	96
-0.502879977	-0.461879998	-1.59089994	213	121	96
-0.502619982	-0.459939986	-1.5905	213	121	96
-0.499720007	-0.461540014	-1.5898	213	121	96
-0.499969989	-0.463429987	-1.59019995	213	121	96
-0.499720007	-0.464679986	-1.58879995	213	121	96
-0.497070014	-0.464870006	-1.58949995	213	121	96
-0.497590005	-0.4639	-1.59179997	213	121	96
-0.494940013	-0.464100003	-1.59249997	213	121	96
-0.49228999	-0.464289993	-1.59319997	213	121	96
-0.491789997	-0.462119997	-1.59179997	213	121	96
-0.489389986	-0.462579995	-1.5934	213	121	96
-0.489890009	-0.461439997	-1.59570003	213	121	96
-0.490139991	-0.460119992	-1.59710002	213	121	96
-0.489890009	-0.458270013	-1.59660006	213	121	96
-0.490139991	-0.457010001	-1.59800005	213	121	96
-0.492799997	-0.456820011	-1.59730005	213	121	96
-0.492540002	-0.458079994	-1.59599996	213	121	96
-0.492799997	-0.459930003	-1.59640002	213	121	96
-0.492540002	-0.461250007	-1.59500003	213	121	96
-0.494690001	-0.460519999	-1.59249997	213	121	96
-0.496820003	-0.459789991	-1.59000003	213	121	96
-0.496820003	-0.461459994	-1.58949995	213	121	96
-0.493919998	-0.461389989	-1.58920002	213	121	96
-0.494179994	-0.4648	-1.58930004	213	121	96
-0.491540015	-0.46498999	-1.58990002	213	121	96
-0.49605	-0.465319991	-1.58539999	213	121	96
-0.495539993	-0.466369987	-1.58299994	213	121	96
-0.495290011	-0.467709988	-1.58159995	213	121	96
-0.498690009	-0.465119988	-1.58469999	213	121	96
-0.50158	-0.465189993	-1.58490002	213	121	96
-0.499460012	-0.459600002	-1.58930004	213	121	96
-0.498100013	-0.459540009	-1.59510005	213	121	96
-0.498349994	-0.458229989	-1.59650004	213	121	96
-0.495950013	-0.457159996	-1.59850001	213	121	96
-0.495950013	-0.460269988	-1.59759998	213	121	96
-0.494940013	-0.457630008	-1.59440005	213	121	96
-0.490889996	-0.456279993	-1.60119998	213	121	96
-0.49406001	-0.456620008	-1.60239995	213	121	96
-0.49406001	-0.454970002	-1.60290003	213	121	96
-0.5079	-0.461210012	-1.58860004	213	121	96
-0.48120001	-0.462879986	-1.59440005	213	121	96
-0.478060007	-0.462520003	-1.59319997	213	121	96
-0.47468999	-0.46351999	-1.5905	213	121	96
-0.474440008	-0.464760005	-1.58920002	213	121	96
-0.474440008	-0.466300011	-1.58870006	213	121	96
-0.473720014	-0.467079997	-1.58539999	213	121	96
-0.470600009	-0.466720015	-1.58420002	213	121	96
-0.470600009	-0.465110004	-1.58469999	213	121	96
-0.470840007	-0.463860005	-1.58609998	213	121	96
-0.471320003	-0.462889999	-1.58840001	213	121	96
-0.471799999	-0.461809993	-1.59070003	213	121	96
-0.474440008	-0.461629987	-1.59010005	213	121	96
-0.468919992	-0.460049987	-1.59089994	213	121	96
-0.468199998	-0.460909992	-1.58759999	213	121	96
-0.467970014	-0.462260008	-1.5862	213	121	96
-0.465330005	-0.462440014	-1.58679998	213	121	96
-0.462689996	-0.46261999	-1.58739996	213	121	96
-0.462220013	-0.463580012	-1.58510005	213	121	96
-0.462220013	-0.465110004	-1.58469999	213	121	96
-0.461989999	-0.466439992	-1.58329999	213	121	96
-0.461750001	-0.46777001	-1.5819	213	121	96
-0.461519986	-0.469119996	-1.58039999	213	121	96
-0.464859992	-0.468140006	-1.58309996	213	121	96
-0.464859992	-0.466540009	-1.58360004	213	121	96
-0.464619994	-0.464659989	-1.58309996	213	121	96
-0.464619994	-0.463129997	-1.58360004	213	121	96
-0.46724999	-0.462949991	-1.58299994	213	121	96
-0.467729986	-0.465020001	-1.58440006	213	121	96
-0.467489988	-0.466349989	-1.58299994	213	121	96
-0.46724999	-0.467680007	-1.58159995	213	121	96
-0.469880015	-0.467500001	-1.58089995	213	121	96
-0.460519999	-0.45844999	-1.59130001	213	121	96
-0.455689996	-0.459340006	-1.59440005	213	121	96
-0.447519988	-0.459580004	-1.59519994	213	121	96
-0.447519988	-0.458009988	-1.59570003	213	121	96
-0.447519988	-0.461180001	-1.5948	213	121	96
-0.446209997	-0.456730008	-1.60280001	213	121	96
-0.446429998	-0.455339998	-1.60420001	213	121	96
-0.446660012	-0.453900009	-1.6056	213	121	96
-0.443989992	-0.454059988	-1.60619998	213	121	96
-0.443769991	-0.45550999	-1.60479999	213	121	96
-0.443549991	-0.456900001	-1.60339999	213	121	96
-0.444880009	-0.453489989	-1.61039996	213	121	96
-0.468340009	-0.446399987	-1.61629999	213	121	96
-0.45679	-0.473089993	-1.57079995	213	121	96
-0.453009993	-0.476440012	-1.56529999	213	121	96
-0.45017001	-0.476339996	-1.56500006	213	121	96
-0.455379993	-0.477560014	-1.56330001	213	121	96
-0.455379993	-0.482309997	-1.56190002	213	121	96
-0.438620001	-0.480369985	-1.56120002	213	121	96
-0.442919999	-0.482069999	-1.55540001	213	121	96
-0.440100014	-0.483570009	-1.55449998	213	121	96
-0.439200014	-0.483999997	-1.5503	213	121	96
-0.438749999	-0.484990001	-1.54789996	213	121	96
-0.43897	-0.486640006	-1.54840004	213	121	96
-0.438749999	-0.488020003	-1.54700005	213	121	96
-0.441329986	-0.487839997	-1.54639995	213	121	96
-0.441780001	-0.486750007	-1.54879999	213	121	96
-0.444599986	-0.488539994	-1.54859996	213	121	96
-0.436610013	-0.48574999	-1.55040002	213	121	96
-0.436159998	-0.486530006	-1.54809999	213	121	96
-0.433580011	-0.486699998	-1.54859996	213	121	96
-0.433129996	-0.484759986	-1.54719996	213	121	96
-0.433129996	-0.48319	-1.54770005	213	121	96
-0.435939997	-0.483310014	-1.54809999	213	121	96
-0.435719997	-0.487610012	-1.54569995	213	121	96
-0.435270011	-0.488590002	-1.54330003	213	121	96
-0.435270011	-0.489969999	-1.54289997	213	121	96
-0.435270011	-0.491589993	-1.5424	213	121	96
-0.432469994	-0.491470009	-1.54200006	213	121	96
-0.432469994	-0.489859998	-1.54250002	213	121	96
-0.432469994	-0.488469988	-1.54299998	213	121	96
-0.429890007	-0.488649994	-1.54349995	213	121	96
-0.426660001	-0.487940013	-1.54130006	213	121	96
-0.426440001	-0.489030004	-1.53989995	213	121	96
-0.426440001	-0.490640014	-1.53939998	213	121	96
-0.424089998	-0.491109997	-1.54089999	213	121	96
-0.424299985	-0.489789993	-1.54229999	213	121	96
-0.424089998	-0.488110006	-1.54180002	213	121	96
-0.424089998	-0.486550003	-1.54229999	213	121	96
-0.429010004	-0.488849998	-1.53939998	213	121	96
-0.428790003	-0.490170002	-1.53789997	213	121	96
-0.42791	-0.490460008	-1.53369999	213	121	96
-0.427249998	-0.494230002	-1.52939999	213	121	96
-0.427029997	-0.49533999	-1.52810001	213	121	96
-0.426589996	-0.496270001	-1.52569997	213	121	96
-0.426369995	-0.497649997	-1.52419996	213	121	96
-0.426809996	-0.499639988	-1.52559996	213	121	96
-0.429369986	-0.499460012	-1.52509999	213	121	96
-0.429369986	-0.498070002	-1.52550006	213	121	96
-0.429589987	-0.496690005	-1.52699995	213	121	96
-0.429809988	-0.495460004	-1.52839994	213	121	96
-0.429809988	-0.494049996	-1.52890003	213	121	96
-0.432590008	-0.49417001	-1.52929997	213	121	96
-0.432370007	-0.495279998	-1.52789998	213	121	96
-0.432139993	-0.496509999	-1.52649999	213	121	96
-0.431919992	-0.497889996	-1.52499998	213	121	96
-0.431919992	-0.499280006	-1.52450001	213	121	96
-0.431250006	-0.499909997	-1.52119994	213	121	96
-0.431250006	-0.50158	-1.52069998	213	121	96
-0.431250006	-0.502939999	-1.52020001	213	121	96
-0.431030005	-0.504140019	-1.51880002	213	121	96
-0.428479999	-0.502820015	-1.51989996	213	121	96
-0.428259999	-0.501150012	-1.5194	213	121	96
-0.425720006	-0.501330018	-1.51989996	213	121	96
-0.425500005	-0.502390027	-1.51859999	213	121	96
-0.425060004	-0.50326997	-1.51619995	213	121	96
-0.424840003	-0.504620016	-1.51470006	213	121	96
-0.424620003	-0.505670011	-1.51339996	213	121	96
-0.427150011	-0.505490005	-1.51279998	213	121	96
-0.427370012	-0.504429996	-1.51419997	213	121	96
-0.427599996	-0.503090024	-1.51569998	213	121	96
-0.430130005	-0.504559994	-1.51460004	213	121	96
-0.43057999	-0.50654	-1.51600003	213	121	96
-0.429910004	-0.507120013	-1.51269996	213	121	96
-0.429459989	-0.50801003	-1.51030004	213	121	96
-0.432000011	-0.507830024	-1.50979996	213	121	96
-0.432220012	-0.506630003	-1.51119995	213	121	96
-0.432220012	-0.505119979	-1.51170003	213	121	96
-0.432449996	-0.504069984	-1.51310003	213	121	96
-0.434980005	-0.505240023	-1.51209998	213	121	96
-0.435440004	-0.504499972	-1.51440001	213	121	96
-0.433120012	-0.503340006	-1.51639998	213	121	96
-0.437290013	-0.503390014	-1.51100004	213	121	96
-0.436830014	-0.504130006	-1.50870001	213	121	96
-0.436830014	-0.50563997	-1.50820005	213	121	96
-0.436830014	-0.507139981	-1.50769997	213	121	96
-0.437059999	-0.508960009	-1.50820005	213	121	96
-0.439819992	-0.509090006	-1.50849998	213	121	96
-0.439359993	-0.506950021	-1.5072	213	121	96
-0.439819992	-0.506070018	-1.50950003	213	121	96
-0.44027999	-0.505169988	-1.51189995	213	121	96
-0.443040013	-0.505289972	-1.5122	213	121	96
-0.442809999	-0.506489992	-1.5108	213	121	96
-0.442809999	-0.508000016	-1.51030004	213	121	96
-0.44235	-0.508889973	-1.5079	213	121	96
-0.441890001	-0.509800017	-1.50559998	213	121	96
-0.441890001	-0.511319995	-1.50510001	213	121	96
-0.444409996	-0.511120021	-1.50450003	213	121	96
-0.444640011	-0.509909987	-1.50590003	213	121	96
-0.447169989	-0.509720027	-1.50539994	213	121	96
-0.447640002	-0.508819997	-1.50769997	213	121	96
-0.445109993	-0.509010017	-1.50829995	213	121	96
-0.44580999	-0.508430004	-1.51160002	213	121	96
-0.450639993	-0.507730007	-1.50950003	213	121	96
-0.45017001	-0.508620024	-1.50709999	213	121	96
-0.449930012	-0.509829998	-1.50569999	213	121	96
-0.449699998	-0.511039972	-1.5043	213	121	96
-0.449699998	-0.512539983	-1.50370002	213	121	96
-0.449220002	-0.513419986	-1.50139999	213	121	96
-0.451979995	-0.513530016	-1.50170004	213	121	96
-0.452219993	-0.512350023	-1.50320005	213	121	96
-0.452219993	-0.510839999	-1.50370002	213	121	96
-0.452219993	-0.509320021	-1.50419998	213	121	96
-0.454979986	-0.510950029	-1.50399995	213	121	96
-0.454739988	-0.512139976	-1.50259995	213	121	96
-0.454739988	-0.51365	-1.50209999	213	121	96
-0.457509995	-0.513759971	-1.50240004	213	121	96
-0.457020015	-0.511629999	-1.50109994	213	121	96
-0.457509995	-0.510749996	-1.50339997	213	121	96
-0.460029989	-0.510550022	-1.50279999	213	121	96
-0.459540009	-0.511430025	-1.50049996	213	121	96
-0.459789991	-0.51323998	-1.50090003	213	121	96
-0.459300011	-0.514110029	-1.49849999	213	121	96
-0.461820006	-0.513899982	-1.49790001	213	121	96
-0.462060004	-0.512719989	-1.49940002	213	121	96
-0.462309986	-0.511529982	-1.50080001	213	121	96
-0.462060004	-0.509720027	-1.50039995	213	121	96
-0.464579999	-0.509519994	-1.49979997	213	121	96
-0.464579999	-0.511020005	-1.4993	213	121	96
-0.464329988	-0.512199998	-1.49779999	213	121	96
-0.464329988	-0.513700008	-1.49730003	213	121	96
-0.466600001	-0.513170004	-1.49580002	213	121	96
-0.466600001	-0.514660001	-1.49530005	213	121	96
-0.466850013	-0.517830014	-1.49520004	213	121	96
-0.466349989	-0.518769979	-1.4928	213	121	96
-0.468360007	-0.517920017	-1.49039996	213	121	96
-0.468109995	-0.519159973	-1.48889995	213	121	96
-0.465350002	-0.519050002	-1.48860002	213	121	96
-0.462850004	-0.51770997	-1.48979998	213	121	96
-0.460339993	-0.517920017	-1.49039996	213	121	96
-0.463340014	-0.516780019	-1.49220002	213	121	96
-0.465849996	-0.515129983	-1.49199998	213	121	96
-0.468360007	-0.514919996	-1.4914	213	121	96
-0.469110012	-0.51730001	-1.49370003	213	121	96
-0.469859987	-0.515389979	-1.49740005	213	121	96
-0.469359994	-0.513279974	-1.49609995	213	121	96
-0.469610006	-0.512099981	-1.49749994	213	121	96
-0.466850013	-0.511990011	-1.49720001	213	121	96
-0.467339993	-0.511120021	-1.49960005	213	121	96
-0.467839986	-0.510240018	-1.50189996	213	121	96
-0.470360011	-0.511539996	-1.50080001	213	121	96
-0.470860004	-0.510659993	-1.50310004	213	121	96
-0.471359998	-0.509760022	-1.50549996	213	121	96
-0.471859992	-0.508859992	-1.50779998	213	121	96
