-0.248710006	0.154119998	-1.25440001	131	250	128
-0.250660002	0.154090002	-1.25419998	131	250	128
-0.252620012	0.154060006	-1.25390005	131	250	128
-0.254299998	0.153779998	-1.25170004	131	250	128
-0.256249994	0.153750002	-1.25139999	131	250	128
-0.25582999	0.152119994	-1.24860001	131	250	128
-0.253879994	0.152150005	-1.24890006	131	250	128
-0.251800001	0.150790006	-1.24829996	131	250	128
-0.249850005	0.150820002	-1.24860001	131	250	128
-0.248040006	0.150969997	-1.24979997	131	250	128
-0.246089995	0.152280003	-1.24989998	131	250	128
-0.244139999	0.152309999	-1.25020003	131	250	128
-0.243880004	0.150790006	-1.24839997	131	250	128
-0.245820001	0.150759995	-1.24810004	131	250	128
-0.245560005	0.149230003	-1.24629998	131	250	128
-0.243619993	0.149259999	-1.24660003	131	250	128
-0.241799995	0.150710002	-1.24759996	131	250	128
-0.241929993	0.152109995	-1.24849999	131	250	128
-0.240239993	0.152380005	-1.2507	131	250	128
-0.238289997	0.153669998	-1.25080001	131	250	128
-0.238030002	0.152170002	-1.24899995	131	250	128
-0.237780005	0.150649995	-1.2471	131	250	128
-0.237660006	0.149230003	-1.24629998	131	250	128
-0.235719994	0.149259999	-1.24660003	131	250	128
-0.235719994	0.150560006	-1.2464	131	250	128
-0.235839993	0.15196	-1.24720001	131	250	128
-0.233889997	0.150710002	-1.24759996	131	250	128
-0.233769998	0.149289995	-1.24679995	131	250	128
-0.231710002	0.149200007	-1.24600005	131	250	128
-0.229770005	0.149230003	-1.24629998	131	250	128
-0.227709994	0.14914	-1.24549997	131	250	128
-0.225879997	0.149279997	-1.24670005	131	250	128
-0.225649998	0.147799999	-1.24489999	131	250	128
-0.223710001	0.149069995	-1.245	131	250	128
-0.221660003	0.148980007	-1.24419999	131	250	128
-0.221430004	0.147499993	-1.24240005	131	250	128
-0.22326	0.147349998	-1.24119997	131	250	128
-0.223030001	0.145909995	-1.23940003	131	250	128
-0.221100003	0.145940006	-1.23959994	131	250	128
-0.219170004	0.145960003	-1.23979998	131	250	128
-0.219390005	0.147400007	-1.24160004	131	250	128
-0.219500005	0.148770005	-1.24249995	131	250	128
-0.217559993	0.147550002	-1.2428	131	250	128
-0.215519994	0.14745	-1.24199998	131	250	128
-0.213369995	0.147239998	-1.24030006	131	250	128
-0.213269994	0.145919994	-1.23940003	131	250	128
-0.215200007	0.145899996	-1.2392	131	250	128
-0.217020005	0.145750001	-1.23800004	131	250	128
-0.218950003	0.144500002	-1.23800004	131	250	128
-0.220880002	0.144480005	-1.23769999	131	250	128
-0.222690001	0.144339994	-1.23650002	131	250	128
-0.222690001	0.143079996	-1.23670006	131	250	128
-0.2245	0.14294	-1.23549998	131	250	128
-0.224610001	0.144309998	-1.23629999	131	250	128
-0.22642	0.144170001	-1.23510003	131	250	128
-0.22631	0.142800003	-1.23430002	131	250	128
-0.22823	0.142780006	-1.23399997	131	250	128
-0.22823	0.144030005	-1.23389995	131	250	128
-0.230149999	0.143999994	-1.23370004	131	250	128
-0.230269998	0.142869994	-1.23479998	131	250	128
-0.232309997	0.142949998	-1.23549998	131	250	128
-0.234229997	0.142930001	-1.23529994	131	250	128
-0.234479994	0.144409999	-1.23710001	131	250	128
-0.232549995	0.144429997	-1.23740005	131	250	128
-0.232800007	0.145889997	-1.2392	131	250	128
-0.232920006	0.147220001	-1.24000001	131	250	128
-0.230869994	0.147129998	-1.23930001	131	250	128
-0.229169995	0.147389993	-1.24150002	131	250	128
-0.227239996	0.147420004	-1.24170005	131	250	128
-0.22484	0.145769998	-1.23810005	131	250	128
-0.226659998	0.145630002	-1.23689997	131	250	128
-0.228459999	0.145480007	-1.23570001	131	250	128
-0.230389997	0.145459995	-1.23549998	131	250	128
-0.234730005	0.14587	-1.23899996	131	250	128
-0.234730005	0.147070006	-1.23880005	131	250	128
-0.236660004	0.147039995	-1.23860002	131	250	128
-0.236399993	0.145610005	-1.23679996	131	250	128
-0.238330007	0.145579994	-1.23650002	131	250	128
-0.237949997	0.143999994	-1.23370004	131	250	128
-0.239869997	0.143979996	-1.2335	131	250	128
-0.239739999	0.142609999	-1.23259997	131	250	128
-0.237690002	0.142529994	-1.23189998	131	250	128
-0.235780001	0.142560005	-1.23210001	131	250	128
-0.236029997	0.144030005	-1.23389995	131	250	128
-0.241789997	0.142700002	-1.23339999	131	250	128
-0.243970007	0.142900005	-1.23510003	131	250	128
-0.244240001	0.144380003	-1.23689997	131	250	128
-0.246160001	0.144350007	-1.23660004	131	250	128
-0.248089999	0.144319996	-1.23640001	131	250	128
-0.249870002	0.144170001	-1.23510003	131	250	128
-0.251789987	0.144140005	-1.2349	131	250	128
-0.253859997	0.144219995	-1.23559999	131	250	128
-0.255780011	0.144189999	-1.23529994	131	250	128
-0.257990003	0.144390002	-1.23699999	131	250	128
-0.258139998	0.145730004	-1.2378	131	250	128
-0.260210007	0.145820007	-1.2385	131	250	128
-0.260210007	0.144590005	-1.23870003	131	250	128
-0.261990011	0.144439995	-1.23740005	131	250	128
-0.263920009	0.144400001	-1.23710001	131	250	128
-0.263920009	0.145630002	-1.23699999	131	250	128
-0.265839994	0.145600006	-1.23670006	131	250	128
-0.265839994	0.144370005	-1.23679996	131	250	128
-0.267769992	0.144339994	-1.23650002	131	250	128
-0.267919987	0.145679995	-1.23740005	131	250	128
-0.269849986	0.144419998	-1.23720002	131	250	128
-0.271609992	0.144270003	-1.23590004	131	250	128
-0.271459997	0.142900005	-1.23510003	131	250	128
-0.269540012	0.14294	-1.23539996	131	250	128
-0.267459989	0.142859995	-1.23469996	131	250	128
-0.265240014	0.142660007	-1.23300004	131	250	128
-0.263170004	0.142580003	-1.23239994	131	250	128
-0.261099994	0.142499998	-1.23169994	131	250	128
-0.259189993	0.142539993	-1.23189998	131	250	128
-0.258749992	0.140939996	-1.22909999	131	250	128
-0.260659993	0.14091	-1.22889996	131	250	128
-0.262569994	0.140880004	-1.22860003	131	250	128
-0.26462999	0.140959993	-1.22930002	131	250	128
-0.2667	0.141039997	-1.23000002	131	250	128
-0.268610001	0.141000003	-1.22969997	131	250	128
-0.270520002	0.140970007	-1.22940004	131	250	128
-0.27274999	0.142409995	-1.23090005	131	250	128
-0.273059994	0.143889993	-1.23269999	131	250	128
-0.27482	0.143739998	-1.23140001	131	250	128
-0.274980009	0.1426	-1.23249996	131	250	128
-0.277060002	0.142680004	-1.23319995	131	250	128
-0.277220011	0.144040003	-1.23399997	131	250	128
-0.279469997	0.144240007	-1.23570001	131	250	128
-0.279469997	0.142979994	-1.23580003	131	250	128
-0.279630005	0.145579994	-1.23650002	131	250	128
-0.277869999	0.145730004	-1.2378	131	250	128
-0.275940001	0.145769998	-1.23810005	131	250	128
-0.274010003	0.145799994	-1.23839998	131	250	128
-0.272240013	0.145950004	-1.23969996	131	250	128
-0.272399992	0.147279993	-1.24059999	131	250	128
-0.272549987	0.148640007	-1.2414	131	250	128
-0.270770013	0.148800001	-1.24269998	131	250	128
-0.268680006	0.148719996	-1.24199998	131	250	128
-0.266449988	0.147269994	-1.24049997	131	250	128
-0.264510006	0.147300005	-1.24080002	131	250	128
-0.262580007	0.14734	-1.24100006	131	250	128
-0.260650009	0.147369996	-1.24129999	131	250	128
-0.258709997	0.147400007	-1.24160004	131	250	128
-0.25692001	0.147550002	-1.24290001	131	250	128
-0.257059991	0.14892	-1.24370003	131	250	128
-0.257209986	0.150330007	-1.24450004	131	250	128
-0.259149998	0.150299996	-1.24430001	131	250	128
-0.25929001	0.149120003	-1.24539995	131	250	128
-0.26109001	0.148969993	-1.24409997	131	250	128
-0.261229992	0.15038	-1.245	131	250	128
-0.261379987	0.151779994	-1.24580002	131	250	128
-0.259440005	0.151810005	-1.24609995	131	250	128
-0.257629991	0.151969999	-1.24730003	131	250	128
-0.255409986	0.150480002	-1.24580002	131	250	128
-0.25345999	0.150519997	-1.24609995	131	250	128
-0.253329992	0.149110004	-1.24520004	131	250	128
-0.253329992	0.147850007	-1.24539995	131	250	128
-0.251379997	0.14914	-1.24549997	131	250	128
-0.249310002	0.149049997	-1.24479997	131	250	128
-0.249170005	0.147679999	-1.24399996	131	250	128
-0.251109987	0.147650003	-1.24370003	131	250	128
-0.254979998	0.147589996	-1.24319994	131	250	128
-0.255129993	0.148949996	-1.24399996	131	250	128
-0.254420012	0.145909995	-1.23940003	131	250	128
-0.256350011	0.145879999	-1.23909998	131	250	128
-0.252350003	0.145830005	-1.23860002	131	250	128
-0.250279993	0.145750001	-1.23790002	131	250	128
-0.248359993	0.145779997	-1.23819995	131	250	128
-0.246560007	0.145919994	-1.23940003	131	250	128
-0.244499996	0.145840004	-1.23870003	131	250	128
-0.244760007	0.147279993	-1.24049997	131	250	128
-0.242960006	0.147420004	-1.24179995	131	250	128
-0.242829993	0.1461	-1.24090004	131	250	128
-0.24064	0.145899996	-1.2392	131	250	128
-0.242180005	0.14429	-1.23619998	131	250	128
-0.245619997	0.142639995	-1.23280001	131	250	128
-0.245619997	0.141379997	-1.23300004	131	250	128
-0.247539997	0.142609999	-1.23259997	131	250	128
-0.24932	0.142470002	-1.2313	131	250	128
-0.251379997	0.142550007	-1.23210001	131	250	128
-0.253289998	0.142519996	-1.23179996	131	250	128
-0.255070001	0.14237	-1.23049998	131	250	128
-0.255070001	0.141120002	-1.23070002	131	250	128
-0.253010005	0.141039997	-1.23000002	131	250	128
-0.250959992	0.140949994	-1.22920001	131	250	128
-0.250820011	0.139579996	-1.22839999	131	250	128
-0.252590001	0.13944	-1.22720003	131	250	128
-0.254500002	0.139410004	-1.22689998	131	250	128
-0.256399989	0.139379993	-1.22660005	131	250	128
-0.258459985	0.139459997	-1.22730005	131	250	128
-0.260360003	0.139430001	-1.227	131	250	128
-0.262270004	0.139390007	-1.22669995	131	250	128
-0.264180005	0.139359996	-1.22650003	131	250	128
-0.26403001	0.137979999	-1.2256	131	250	128
-0.265929997	0.137950003	-1.22529995	131	250	128
-0.265929997	0.136680007	-1.22549999	131	250	128
-0.267679989	0.137810007	-1.22409999	131	250	128
-0.269580007	0.137769997	-1.22379994	131	250	128
-0.269419998	0.136390001	-1.22290003	131	250	128
-0.271319985	0.136360005	-1.22259998	131	250	128
-0.273220003	0.135130003	-1.22239995	131	250	128
-0.27353999	0.136539996	-1.22430003	131	250	128
-0.275279999	0.136399999	-1.22300005	131	250	128
-0.277179986	0.136370003	-1.2227	131	250	128
-0.279080003	0.136329994	-1.22239995	131	250	128
-0.28064999	0.134880006	-1.22019994	131	250	128
-0.278420001	0.1347	-1.21860003	131	250	128
-0.276199996	0.134519994	-1.21689999	131	250	128
-0.274309993	0.133410007	-1.21739995	131	250	128
-0.272579998	0.133550003	-1.21860003	131	250	128
-0.270689994	0.133579999	-1.21889997	131	250	128
-0.270850003	0.134839997	-1.2198	131	250	128
-0.274639994	0.134770006	-1.21920002	131	250	128
-0.276039988	0.132060006	-1.21619999	131	250	128
-0.273990005	0.131990001	-1.2155	131	250	128
-0.272100002	0.132019997	-1.21580005	131	250	128
-0.271620005	0.130449995	-1.21300006	131	250	128
-0.269580007	0.130370006	-1.21229994	131	250	128
-0.269739985	0.131740004	-1.21319997	131	250	128
-0.268169999	0.131980002	-1.2155	131	250	128
-0.268169999	0.133190006	-1.21529996	131	250	128
-0.268020004	0.134220004	-1.21420002	131	250	128
-0.26613	0.13425	-1.21449995	131	250	128
-0.266440004	0.133330002	-1.21659994	131	250	128
-0.266290009	0.132019997	-1.21570003	131	250	128
-0.264400005	0.132049993	-1.21599996	131	250	128
-0.262059987	0.131760001	-1.21340001	131	250	128
-0.263480008	0.130150005	-1.21029997	131	250	128
-0.263330013	0.128810003	-1.20940006	131	250	128
-0.261299998	0.128729999	-1.20869994	131	250	128
-0.261299998	0.129969999	-1.20860004	131	250	128
-0.259279996	0.129889995	-1.20790005	131	250	128
-0.259279996	0.128659993	-1.20799994	131	250	128
-0.259130001	0.127330005	-1.20720005	131	250	128
-0.257259995	0.127360001	-1.20749998	131	250	128
-0.25740999	0.128690004	-1.20829999	131	250	128
-0.257550001	0.130030006	-1.20920002	131	250	128
-0.259579986	0.131359994	-1.20969999	131	250	128
-0.258150011	0.131709993	-1.21300006	131	250	128
-0.256260008	0.131740004	-1.21319997	131	250	128
-0.256119996	0.130380005	-1.21239996	131	250	128
-0.255970001	0.129030004	-1.21150005	131	250	128
-0.255389988	0.127389997	-1.20770001	131	250	128
-0.251789987	0.127550006	-1.20930004	131	250	128
-0.249489993	0.127269998	-1.20659995	131	250	128
-0.247620001	0.127299994	-1.20679998	131	250	128
-0.245340005	0.127010003	-1.20410001	131	250	128
-0.243469998	0.124760002	-1.20459998	131	250	128
-0.234139994	0.127169997	-1.20560002	131	250	128
-0.233119994	0.122890003	-1.19809997	131	250	128
-0.234720007	0.122660004	-1.19589996	131	250	128
-0.236570001	0.122639999	-1.19560003	131	250	128
-0.236430004	0.12128	-1.19480002	131	250	128
-0.234459996	0.121200003	-1.19400001	131	250	128
-0.232610002	0.121229999	-1.19430006	131	250	128
-0.228540003	0.118629999	-1.19200003	131	250	128
-0.226339996	0.119510002	-1.18920004	131	250	128
-0.2245	0.11953	-1.18939996	131	250	128
-0.223010004	0.118699998	-1.19270003	131	250	128
-0.220939994	0.118519999	-1.19089997	131	250	128
-0.218979999	0.118450001	-1.19019997	131	250	128
-0.215519994	0.118689999	-1.19260001	131	250	128
-0.213239998	0.117119998	-1.18889999	131	250	128
-0.211300001	0.117040001	-1.18809998	131	250	128
-0.209460005	0.118249997	-1.1882	131	250	128
-0.207519993	0.118170001	-1.18739998	131	250	128
-0.205679998	0.116999999	-1.18770003	131	250	128
-0.205579996	0.115670003	-1.1868	131	250	128
-0.207409993	0.115649998	-1.18669999	131	250	128
-0.207310006	0.11434	-1.18579996	131	250	128
-0.209250003	0.114409998	-1.18659997	131	250	128
-0.209350005	0.115730003	-1.1875	131	250	128
-0.21108	0.115620002	-1.18630004	131	250	128
-0.210969999	0.114299998	-1.18540001	131	250	128
-0.212579995	0.114090003	-1.1832	131	250	128
-0.212579995	0.112879999	-1.18330002	131	250	128
-0.214300007	0.113969997	-1.18200004	131	250	128
-0.214190006	0.112669997	-1.18120003	131	250	128
-0.215900004	0.111340001	-1.18009996	131	250	128
-0.215780005	0.112460002	-1.17900002	131	250	128
-0.217600003	0.112439997	-1.17879999	131	250	128
-0.217720002	0.111319996	-1.17990005	131	250	128
-0.219420001	0.111210003	-1.17869997	131	250	128
-0.21954	0.112510003	-1.17949998	131	250	128
-0.219889998	0.114009999	-1.18239999	131	250	128
-0.216350004	0.114139996	-1.18379998	131	250	128
-0.214410007	0.115290001	-1.18289995	131	250	128
-0.212579995	0.115309998	-1.18309999	131	250	128
-0.209030002	0.116669998	-1.18439996	131	250	128
-0.207210004	0.116690002	-1.1846	131	250	128
-0.205270007	0.114160001	-1.18400002	131	250	128
-0.203339994	0.114090003	-1.1832	131	250	128
-0.201519996	0.114100002	-1.18340003	131	250	128
-0.199689999	0.114119999	-1.18359995	131	250	128
-0.199790001	0.115440004	-1.18439996	131	250	128
-0.197960004	0.115450002	-1.1846	131	250	128
-0.197860003	0.114139996	-1.18369997	131	250	128
-0.196129993	0.114249997	-1.18490005	131	250	128
-0.194209993	0.11417	-1.18410003	131	250	128
-0.195940003	0.112850003	-1.18299997	131	250	128
-0.197669998	0.112740003	-1.18190002	131	250	128
-0.199399993	0.112620004	-1.18069994	131	250	128
-0.201120004	0.112510003	-1.17949998	131	250	128
-0.201120004	0.111299999	-1.1796	131	250	128
-0.20284	0.111189999	-1.17850006	131	250	128
-0.20476	0.111270003	-1.17929995	131	250	128
-0.206469998	0.111160003	-1.17809999	131	250	128
-0.208289996	0.111139998	-1.17789996	131	250	128
-0.208289996	0.109930001	-1.17799997	131	250	128
-0.209999993	0.111029997	-1.1767	131	250	128
-0.209889993	0.109729998	-1.17579997	131	250	128
-0.209889993	0.108599998	-1.176	131	250	128
-0.211919993	0.111100003	-1.17750001	131	250	128
-0.213850006	0.11118	-1.17830002	131	250	128
-0.217370003	0.109839998	-1.17700005	131	250	128
-0.219190001	0.109820001	-1.17680001	131	250	128
-0.220880002	0.109700002	-1.17560005	131	250	128
-0.220760003	0.108489998	-1.17470002	131	250	128
-0.2227	0.109679997	-1.17540002	131	250	128
-0.224509999	0.10966	-1.17519999	131	250	128
-0.226439998	0.109739996	-1.17589998	131	250	128
-0.226569995	0.111029997	-1.17680001	131	250	128
-0.228379995	0.109810002	-1.1767	131	250	128
-0.230199993	0.109779999	-1.17649996	131	250	128
-0.230199993	0.110990003	-1.17630005	131	250	128
-0.232140005	0.111060001	-1.17709994	131	250	128
-0.232140005	0.109860003	-1.17719996	131	250	128
-0.233950004	0.10983	-1.17700005	131	250	128
-0.234080002	0.111129999	-1.17789996	131	250	128
-0.235770002	0.109810002	-1.1767	131	250	128
-0.237719998	0.10988	-1.17750001	131	250	128
-0.237849995	0.11118	-1.17840004	131	250	128
-0.239800006	0.111249998	-1.17910004	131	250	128
-0.239260003	0.109669998	-1.1753	131	250	128
-0.237179995	0.108390003	-1.17359996	131	250	128
-0.235369995	0.108410001	-1.17390001	131	250	128
-0.233689994	0.108520001	-1.17509997	131	250	128
-0.231490001	0.108269997	-1.1724	131	250	128
-0.231240004	0.107019998	-1.17050004	131	250	128
-0.233040005	0.106990002	-1.17030001	131	250	128
-0.234980002	0.10706	-1.171	131	250	128
-0.234840006	0.105810001	-1.17009997	131	250	128
-0.236650005	0.105789997	-1.16989994	131	250	128
-0.236780003	0.107040003	-1.17079997	131	250	128
-0.23872	0.107110001	-1.17149997	131	250	128
-0.23872	0.108180001	-1.17139995	131	250	128
-0.240390003	0.107000001	-1.17030001	131	250	128
-0.240390003	0.105839998	-1.17040002	131	250	128
-0.242190003	0.106969997	-1.16999996	131	250	128
-0.241909996	0.105640002	-1.16820002	131	250	128
-0.238309994	0.105679996	-1.16869998	131	250	128
-0.234449998	0.1043	-1.16729999	131	250	128
-0.232519999	0.10424	-1.16649997	131	250	128
-0.230590001	0.104170002	-1.16579998	131	250	128
-0.230849996	0.105590001	-1.16760004	131	250	128
-0.232779995	0.105659999	-1.16840005	131	250	128
-0.229179993	0.105700001	-1.16890001	131	250	128
-0.227249995	0.105630003	-1.1681	131	250	128
-0.225329995	0.105559997	-1.16729999	131	250	128
-0.225329995	0.104319997	-1.16750002	131	250	128
-0.223529994	0.104340002	-1.16770005	131	250	128
-0.223409995	0.105489999	-1.16659999	131	250	128
-0.221609995	0.105509996	-1.16680002	131	250	128
-0.221729994	0.104359999	-1.16789997	131	250	128
-0.219940007	0.105619997	-1.16799998	131	250	128
-0.220050007	0.106870003	-1.16890001	131	250	128
-0.218250006	0.10689	-1.16910005	131	250	128
-0.216680005	0.107089996	-1.17130005	131	250	128
-0.216800004	0.106020004	-1.1724	131	250	128
-0.218600005	0.105999999	-1.17219996	131	250	128
-0.218720004	0.108319998	-1.17299998	131	250	128
-0.217140004	0.108520001	-1.17509997	131	250	128
-0.215100005	0.10949	-1.17330003	131	250	128
-0.214420006	0.107809998	-1.1674	131	250	128
-0.212740004	0.105700001	-1.1688	131	250	128
-0.210940003	0.10571	-1.16900003	131	250	128
-0.209240004	0.10582	-1.17019999	131	250	128
-0.207550004	0.105930001	-1.17139995	131	250	128
-0.207550004	0.107089996	-1.17130005	131	250	128
-0.205740005	0.107110001	-1.17149997	131	250	128
-0.205640003	0.105860002	-1.17060006	131	250	128
-0.203830004	0.107029997	-1.17069995	131	250	128
-0.204040006	0.108290002	-1.17260003	131	250	128
-0.20352	0.105599999	-1.16779995	131	250	128
-0.20352	0.104359999	-1.16789997	131	250	128
-0.205430001	0.104429998	-1.16869998	131	250	128
-0.205109999	0.102940001	-1.16589999	131	250	128
-0.203319997	0.102959998	-1.16610003	131	250	128
-0.201519996	0.104199998	-1.16610003	131	250	128
-0.201519996	0.105439998	-1.16600001	131	250	128
-0.199929997	0.105640002	-1.16820002	131	250	128
-0.196140006	0.104249999	-1.16670001	131	250	128
-0.194340006	0.104259998	-1.16680002	131	250	128
-0.192640007	0.104359999	-1.16799998	131	250	128
-0.190840006	0.105619997	-1.16799998	131	250	128
-0.189040005	0.105640002	-1.16820002	131	250	128
-0.187409997	0.105829999	-1.17030001	131	250	128
-0.185690001	0.105939999	-1.17149997	131	250	128
-0.18389	0.107110001	-1.17149997	131	250	128
-0.183970004	0.108269997	-1.1724	131	250	128
-0.182170004	0.108290002	-1.17260003	131	250	128
-0.182249993	0.109509997	-1.17349994	131	250	128
-0.180360004	0.1083	-1.17270005	131	250	128
-0.180360004	0.10723	-1.17279994	131	250	128
-0.178550005	0.108319998	-1.17289996	131	250	128
-0.176740006	0.108329996	-1.17299998	131	250	128
-0.176740006	0.107249998	-1.17309999	131	250	128
-0.174930006	0.107270002	-1.17320001	131	250	128
-0.175009996	0.108429998	-1.17410004	131	250	128
-0.173199996	0.108450003	-1.17429996	131	250	128
-0.171320006	0.10729	-1.17349994	131	250	128
-0.169579998	0.107390001	-1.17460001	131	250	128
-0.169510007	0.108379997	-1.17349994	131	250	128
-0.167769998	0.108479999	-1.17470002	131	250	128
-0.167840004	0.107500002	-1.17579997	131	250	128
-0.165959999	0.108489998	-1.17480004	131	250	128
-0.165889993	0.107330002	-1.17390001	131	250	128
-0.16415	0.108499996	-1.17490005	131	250	128
-0.162330002	0.108510002	-1.17499995	131	250	128
-0.160459995	0.108429998	-1.17410004	131	250	128
-0.160339996	0.107179999	-1.17219996	131	250	128
-0.162080005	0.107069999	-1.17110002	131	250	128
-0.162019998	0.10582	-1.17030001	131	250	128
-0.161960006	0.104489997	-1.16939998	131	250	128
-0.160160005	0.104500003	-1.16949999	131	250	128
-0.160160005	0.105740003	-1.16939998	131	250	128
-0.158350006	0.105750002	-1.16949999	131	250	128
-0.156550005	0.105760001	-1.16960001	131	250	128
-0.156499997	0.104429998	-1.16869998	131	250	128
-0.154699996	0.104440004	-1.1688	131	250	128
-0.154750004	0.103299998	-1.16989994	131	250	128
-0.152950004	0.103309996	-1.16999996	131	250	128
-0.152950004	0.104539998	-1.16989994	131	250	128
-0.152950004	0.105779998	-1.16980004	131	250	128
-0.152999997	0.107029997	-1.17069995	131	250	128
-0.151199996	0.107040003	-1.17079997	131	250	128
-0.151199996	0.10588	-1.17089999	131	250	128
-0.151150003	0.104539998	-1.16999996	131	250	128
-0.149399996	0.105889998	-1.171	131	250	128
-0.149450004	0.107139997	-1.17190003	131	250	128
-0.149499997	0.1083	-1.17279994	131	250	128
-0.149450004	0.109339997	-1.1717	131	250	128
-0.151299998	0.1083	-1.17270005	131	250	128
-0.153170004	0.108379997	-1.17359996	131	250	128
-0.151460007	0.109700002	-1.17550004	131	250	128
-0.14779	0.108499996	-1.17480004	131	250	128
-0.147740006	0.109530002	-1.17369998	131	250	128
-0.147689998	0.107239999	-1.17289996	131	250	128
-0.145830005	0.107160002	-1.17200005	131	250	128
-0.144030005	0.107160002	-1.17209995	131	250	128
-0.142179996	0.107079998	-1.17120004	131	250	128
-0.142130002	0.105829999	-1.17030001	131	250	128
-0.143940002	0.10582	-1.17019999	131	250	128
-0.143889993	0.104489997	-1.16929996	131	250	128
-0.145689994	0.104479998	-1.16929996	131	250	128
-0.145689994	0.105719998	-1.16919994	131	250	128
-0.147540003	0.105810001	-1.17009997	131	250	128
-0.147440001	0.104379997	-1.16820002	131	250	128
-0.149240002	0.104369998	-1.1681	131	250	128
-0.150989994	0.103050001	-1.16709995	131	250	128
-0.150989994	0.101839997	-1.16719997	131	250	128
-0.149090007	0.101669997	-1.16530001	131	250	128
-0.150780007	0.10035	-1.16330004	131	250	128
-0.150680006	0.0990760028	-1.16139996	131	250	128
-0.152410001	0.0989829972	-1.16040003	131	250	128
-0.1523	0.0999109969	-1.15830004	131	250	128
-0.154029995	0.0987199992	-1.1573	131	250	128
-0.155689999	0.0985419974	-1.1552	131	250	128
-0.155630007	0.0995509997	-1.15409994	131	250	128
-0.153860003	0.0995590016	-1.15419996	131	250	128
-0.153750002	0.0971679986	-1.15240002	131	250	128
-0.155520007	0.0971599966	-1.1523	131	250	128
-0.157289997	0.0971509963	-1.15219998	131	250	128
-0.159060001	0.0971420035	-1.15209997	131	250	128
-0.160889998	0.097217001	-1.153	131	250	128
-0.160830006	0.0959820002	-1.15209997	131	250	128
-0.162599996	0.0959720016	-1.15199995	131	250	128
-0.162660003	0.0972070023	-1.15289998	131	250	128
-0.164430007	0.097198002	-1.15269995	131	250	128
-0.16437	0.0959630013	-1.15180004	131	250	128
-0.166069999	0.0958700031	-1.15069997	131	250	128
-0.166130006	0.0971039981	-1.1516	131	250	128
-0.167830005	0.0970100015	-1.15050006	131	250	128
-0.167830005	0.095859997	-1.15059996	131	250	128
-0.169670001	0.0970830023	-1.15139997	131	250	128
-0.171509996	0.0971560031	-1.15219998	131	250	128
-0.173280001	0.0971449986	-1.15209997	131	250	128
-0.175050005	0.0959820002	-1.15209997	131	250	128
-0.17498	0.0947389975	-1.15120006	131	250	128
-0.17667	0.0946459994	-1.15009999	131	250	128
-0.176750004	0.0958880037	-1.15090001	131	250	128
-0.176750004	0.0970380008	-1.15090001	131	250	128
-0.176750004	0.0981639996	-1.15079999	131	250	128
-0.178430006	0.0980679989	-1.14960003	131	250	128
-0.178509995	0.0970259979	-1.15069997	131	250	128
-0.178430006	0.0957930014	-1.14979994	131	250	128
-0.178350002	0.0945530012	-1.14890003	131	250	128
-0.178189993	0.0932279974	-1.14699996	131	250	128
-0.176510006	0.0933199972	-1.14820004	131	250	128
-0.17475	0.0933310017	-1.14830005	131	250	128
-0.172910005	0.0944230035	-1.1473	131	250	128
-0.17306	0.0957449973	-1.14919996	131	250	128
-0.171220005	0.0956730023	-1.14839995	131	250	128
-0.169389993	0.0956009999	-1.14750004	131	250	128
-0.167549998	0.0943730026	-1.14670002	131	250	128
-0.165930003	0.0945470035	-1.14880002	131	250	128
-0.164230004	0.0946379974	-1.14999998	131	250	128
-0.162530005	0.0947299972	-1.15110004	131	250	128
-0.160510004	0.0932490006	-1.1473	131	250	128
-0.160449997	0.0943299979	-1.14619994	131	250	128
-0.162139997	0.0930780023	-1.14520001	131	250	128
-0.162080005	0.0918890014	-1.14429998	131	250	128
-0.162019998	0.0907350034	-1.14339995	131	250	128
-0.160260007	0.0907440037	-1.14349997	131	250	128
-0.15851	0.0907519981	-1.14359999	131	250	128
-0.15851	0.0929350033	-1.14339995	131	250	128
-0.158570006	0.0941750035	-1.14429998	131	250	128
-0.156749994	0.0941020027	-1.14339995	131	250	128
-0.156810001	0.0930240005	-1.14450002	131	250	128
-0.155059993	0.0919229984	-1.14470005	131	250	128
-0.154939994	0.0928710029	-1.14260006	131	250	128
-0.153239995	0.09296	-1.1437	131	250	128
-0.151539996	0.0930479988	-1.14479995	131	250	128
-0.149839997	0.0931370035	-1.14590001	131	250	128
-0.14813	0.0932250023	-1.14699996	131	250	128
-0.148080006	0.0943050012	-1.14590001	131	250	128
-0.148080006	0.0954599977	-1.14579999	131	250	128
-0.14632	0.0954670012	-1.14590001	131	250	128
-0.146270007	0.0942300037	-1.14499998	131	250	128
-0.14632	0.0931510031	-1.14610004	131	250	128
-0.147929996	0.0907199979	-1.14320004	131	250	128
-0.147880003	0.0917140022	-1.14209998	131	250	128
-0.149580002	0.0916270018	-1.14100003	131	250	128
-0.149629995	0.0906340033	-1.14209998	131	250	128
-0.149580002	0.0894479975	-1.14119995	131	250	128
-0.147880003	0.0895330012	-1.14230001	131	250	128
-0.151270002	0.0904679969	-1.13999999	131	250	128
-0.151219994	0.0892850012	-1.13909996	131	250	128
-0.151160002	0.0880689994	-1.13820004	131	250	128
-0.151160002	0.086902	-1.13829994	131	250	128
-0.152960002	0.0869700015	-1.13919997	131	250	128
-0.152960002	0.0881389976	-1.13909996	131	250	128
-0.152960002	0.0892769992	-1.13900006	131	250	128
-0.153019994	0.0904610008	-1.13989997	131	250	128
-0.154770002	0.0904529989	-1.13979995	131	250	128
-0.156570002	0.0905240029	-1.14069998	131	250	128
-0.156399995	0.0891840011	-1.13779998	131	250	128
-0.156399995	0.0880459994	-1.13789999	131	250	128
-0.156399995	0.0868790001	-1.13800001	131	250	128
-0.156340003	0.0856069997	-1.13709998	131	250	128
-0.156279996	0.0843809992	-1.13619995	131	250	128
-0.154540002	0.0855399966	-1.13619995	131	250	128
-0.152799994	0.0855470002	-1.13629997	131	250	128
-0.15106	0.0855540037	-1.13639998	131	250	128
-0.149210006	0.0866049975	-1.13440001	131	250	128
-0.149100006	0.0876139998	-1.13230002	131	250	128
-0.147369996	0.0876210034	-1.13240004	131	250	128
-0.149000004	0.0851109996	-1.13049996	131	250	128
-0.148949996	0.0838920027	-1.12960005	131	250	128
-0.150619999	0.0838119984	-1.12849998	131	250	128
-0.152410001	0.0827639997	-1.12950003	131	250	128
-0.152349994	0.0816010013	-1.1286	131	250	128
-0.154080003	0.0815939978	-1.12849998	131	250	128
-0.155680001	0.0814429969	-1.12639999	131	250	128
-0.15557	0.0802280009	-1.12450004	131	250	128
-0.157220006	0.0801500008	-1.12339997	131	250	128
-0.158879995	0.0800710022	-1.12230003	131	250	128
-0.158940002	0.0812119991	-1.12320006	131	250	128
-0.160589993	0.0811320022	-1.1221	131	250	128
-0.160530001	0.0799919963	-1.12119997	131	250	128
-0.160659999	0.0790309981	-1.12320006	131	250	128
-0.162440002	0.0790930018	-1.12409997	131	250	128
-0.162440002	0.080196999	-1.12399995	131	250	128
-0.164159998	0.0790849999	-1.12399995	131	250	128
-0.165810004	0.0790060014	-1.12290001	131	250	128
-0.165739998	0.0800380036	-1.12179995	131	250	128
-0.164030001	0.0800469965	-1.12189996	131	250	128
-0.162310004	0.0811240003	-1.12199998	131	250	128
-0.162440002	0.0823530033	-1.12390006	131	250	128
-0.164159998	0.0823450014	-1.12380004	131	250	128
-0.162579998	0.0836099982	-1.12580001	131	250	128
-0.160850003	0.0836180001	-1.12590003	131	250	128
-0.160789996	0.082434997	-1.125	131	250	128
-0.159189999	0.0825880021	-1.12709999	131	250	128
-0.157529995	0.0815789998	-1.12829995	131	250	128
-0.157649994	0.0828149989	-1.13020003	131	250	128
-0.159319997	0.0838479996	-1.12899995	131	250	128
-0.159380004	0.0850659981	-1.12989998	131	250	128
-0.161109999	0.0850580037	-1.12979996	131	250	128
-0.161180004	0.0874829963	-1.13059998	131	250	128
-0.159380004	0.0874139965	-1.12969995	131	250	128
-0.159569994	0.0864830017	-1.13279998	131	250	128
-0.157900006	0.0865669996	-1.13390005	131	250	128
-0.157959998	0.0878069997	-1.13479996	131	250	128
-0.158079997	0.0855989978	-1.13699996	131	250	128
-0.157900006	0.0842259973	-1.13409996	131	250	128
-0.156039998	0.0829690024	-1.13230002	131	250	128
-0.154310003	0.0829759985	-1.13240004	131	250	128
-0.154249996	0.0840189978	-1.13129997	131	250	128
-0.152459994	0.0839530006	-1.13039994	131	250	128
-0.150680006	0.0816799998	-1.12969995	131	250	128
-0.150460005	0.0824790001	-1.12559998	131	250	128
-0.14869	0.0824130028	-1.12469995	131	250	128
-0.150299996	0.0801070035	-1.12279999	131	250	128
-0.152070001	0.0801709965	-1.12370002	131	250	128
-0.153789997	0.0801640004	-1.12360001	131	250	128
-0.15196	0.0789270028	-1.12179995	131	250	128
-0.153559998	0.0787800029	-1.11969995	131	250	128
-0.151789993	0.0775839984	-1.11889994	131	250	128
-0.150079995	0.0787229985	-1.11889994	131	250	128
-0.151620001	0.0762019977	-1.11590004	131	250	128
-0.151620001	0.0749820024	-1.11600006	131	250	128
-0.153209999	0.0760589987	-1.11389995	131	250	128
-0.154850006	0.0759840012	-1.1128	131	250	128
-0.154789999	0.0747009963	-1.11179996	131	250	128
-0.154789999	0.0736320019	-1.11189997	131	250	128
-0.153040007	0.0735730007	-1.11099994	131	250	128
-0.153099999	0.0747079998	-1.11189997	131	250	128
-0.151289999	0.0735130012	-1.11010003	131	250	128
-0.15456	0.0713479966	-1.10810006	131	250	128
-0.154620007	0.0702299997	-1.10909998	131	250	128
-0.156189993	0.0700979978	-1.10699999	131	250	128
-0.156189993	0.071277	-1.10699999	131	250	128
-0.156189993	0.0723289996	-1.10689998	131	250	128
-0.157869995	0.0712710023	-1.10689998	131	250	128
-0.157810003	0.0700279996	-1.10590005	131	250	128
-0.159500003	0.0700210035	-1.10580003	131	250	128
-0.161050007	0.0710640028	-1.10370004	131	250	128
-0.162599996	0.0709289983	-1.10160005	131	250	128
-0.164340004	0.0709860027	-1.10239995	131	250	128
-0.164340004	0.0698110014	-1.10249996	131	250	128
-0.166020006	0.0698029995	-1.10239995	131	250	128
-0.166020006	0.0709780008	-1.10230005	131	250	128
-0.167699993	0.0709699988	-1.10220003	131	250	128
-0.167699993	0.0697949976	-1.10230005	131	250	128
-0.169459999	0.0698499978	-1.10309994	131	250	128
-0.169459999	0.0686969981	-1.10319996	131	250	128
-0.169530004	0.0676259995	-1.10430002	131	250	128
-0.171220005	0.0676190034	-1.10409999	131	250	128
-0.171220005	0.0687509999	-1.10409999	131	250	128
-0.17114	0.0698420033	-1.10300004	131	250	128
-0.171220005	0.0721310005	-1.10389996	131	250	128
-0.169459999	0.0720740035	-1.10300004	131	250	128
-0.167779997	0.072081998	-1.10309994	131	250	128
-0.166240007	0.0722199976	-1.10520005	131	250	128
-0.164690003	0.0723579973	-1.10730004	131	250	128
-0.164759994	0.0733909979	-1.10829997	131	250	128
-0.166529998	0.0734490007	-1.1092	131	250	128
-0.168290004	0.0735070035	-1.11000001	131	250	128
-0.169909999	0.0734329969	-1.10889995	131	250	128
-0.169980004	0.0745650008	-1.10979998	131	250	128
-0.171680003	0.0745569989	-1.10969996	131	250	128
-0.171599999	0.0734239966	-1.10880005	131	250	128
-0.173289999	0.0734150037	-1.10860002	131	250	128
-0.173289999	0.0713939965	-1.10880005	131	250	128
-0.174899995	0.0713210031	-1.10759997	131	250	128
-0.174899995	0.0723740011	-1.10759997	131	250	128
-0.176589996	0.0723650008	-1.10739994	131	250	128
-0.176589996	0.0713120028	-1.10749996	131	250	128
-0.178200006	0.071239002	-1.10640001	131	250	128
-0.178200006	0.0722900033	-1.1063	131	250	128
-0.179879993	0.072281003	-1.10619998	131	250	128
-0.179879993	0.0712300017	-1.10619998	131	250	128
-0.181569993	0.0712210014	-1.10609996	131	250	128
-0.181569993	0.0722720027	-1.10599995	131	250	128
-0.183349997	0.0723270029	-1.10689998	131	250	128
-0.183259994	0.0712110028	-1.10590005	131	250	128
-0.184939995	0.0712009966	-1.10580003	131	250	128
-0.184850007	0.0699599981	-1.1049	131	250	128
-0.186539993	0.0699499995	-1.10469997	131	250	128
-0.186539993	0.0711269975	-1.10459995	131	250	128
-0.188219994	0.0711169988	-1.10450006	131	250	128
-0.188219994	0.0721670017	-1.10440004	131	250	128
-0.189809993	0.0720909983	-1.10329998	131	250	128
-0.189809993	0.0710429996	-1.10329998	131	250	128
-0.191489995	0.0720809996	-1.10309994	131	250	128
-0.191589996	0.0710960031	-1.10420001	131	250	128
-0.193269998	0.0710859969	-1.10399997	131	250	128
-0.19337	0.0722000003	-1.1049	131	250	128
-0.195260003	0.0723180026	-1.10669994	131	250	128
-0.195360005	0.0713300034	-1.10780001	131	250	128
-0.197050005	0.0713189989	-1.10759997	131	250	128
-0.197150007	0.0724370033	-1.1085	131	250	128
-0.197249994	0.0734699965	-1.10950005	131	250	128
-0.198949993	0.0724899992	-1.10940003	131	250	128
-0.198740005	0.0713080019	-1.10739994	131	250	128
-0.200320005	0.0712329969	-1.1063	131	250	128
-0.201790005	0.0710930005	-1.10409999	131	250	128
-0.203360006	0.0710169971	-1.10290003	131	250	128
-0.205149993	0.0698930025	-1.10380006	131	250	128
-0.205039993	0.0686770007	-1.10290003	131	250	128
-0.206719995	0.0686649978	-1.1027	131	250	128
-0.208289996	0.0685909986	-1.10150003	131	250	128
-0.210079998	0.0686409995	-1.10230005	131	250	128
-0.210199997	0.0698560029	-1.10319996	131	250	128
-0.211879998	0.068690002	-1.10309994	131	250	128
-0.213440001	0.067486003	-1.102	131	250	128
-0.213440001	0.0663700029	-1.10210001	131	250	128
-0.215120003	0.066358	-1.10179996	131	250	128
-0.215120003	0.0674730018	-1.10179996	131	250	128
-0.215120003	0.0686030015	-1.10169995	131	250	128
-0.216920003	0.0686519966	-1.10249996	131	250	128
-0.218730003	0.0698539987	-1.10319996	131	250	128
-0.218850002	0.0687619969	-1.10430002	131	250	128
-0.220540002	0.0687490031	-1.10399997	131	250	128
-0.222090006	0.0686739981	-1.10280001	131	250	128
-0.221829996	0.0697019994	-1.10080004	131	250	128
-0.221699998	0.0708110034	-1.09969997	131	250	128
-0.220029995	0.0708250031	-1.09990001	131	250	128
-0.220280007	0.0697780028	-1.102	131	250	128
-0.218600005	0.0709659979	-1.10210001	131	250	128
-0.220540002	0.0721290037	-1.10380006	131	250	128
-0.222479999	0.0722440034	-1.1056	131	250	128
-0.224289998	0.0722939968	-1.10640001	131	250	128
-0.226109996	0.0723439977	-1.10710001	131	250	128
-0.225979999	0.0712290034	-1.10619998	131	250	128
-0.227799997	0.0712779984	-1.10699999	131	250	128
-0.227929994	0.0723939985	-1.10790002	131	250	128
-0.227929994	0.0733620003	-1.10780001	131	250	128
-0.229619995	0.0733459964	-1.10759997	131	250	128
-0.229760006	0.0724439994	-1.10870004	131	250	128
-0.229900002	0.0714540035	-1.10969996	131	250	128
-0.231450006	0.0713749975	-1.1085	131	250	128
-0.231309995	0.0723640025	-1.10739994	131	250	128
-0.231179997	0.0732659996	-1.10640001	131	250	128
-0.232999995	0.0712969974	-1.10730004	131	250	128
-0.232859999	0.0700540021	-1.10640001	131	250	128
-0.234410003	0.069976002	-1.10510004	131	250	128
-0.234549999	0.0688820034	-1.10619998	131	250	128
-0.235949993	0.0687439963	-1.10399997	131	250	128
-0.235949993	0.0698980018	-1.10389996	131	250	128
-0.237489998	0.0698200017	-1.1027	131	250	128
-0.237489998	0.068667002	-1.1027	131	250	128
-0.23567	0.0674910024	-1.10210001	131	250	128
-0.233989999	0.0675060004	-1.10230005	131	250	128
-0.232309997	0.06752	-1.10249996	131	250	128
-0.230489999	0.0674740002	-1.10179996	131	250	128
-0.230489999	0.066358	-1.10189998	131	250	128
-0.228670001	0.0663120002	-1.10109997	131	250	128
-0.228540003	0.0684949979	-1.10000002	131	250	128
-0.226860002	0.0685089976	-1.10020006	131	250	128
-0.225189999	0.0685229972	-1.10039997	131	250	128
-0.225319996	0.0697359964	-1.1013	131	250	128
-0.227129996	0.0697849989	-1.10210001	131	250	128
-0.229080006	0.0698959976	-1.10389996	131	250	128
-0.230900005	0.0699440017	-1.10459995	131	250	128
-0.232580006	0.0687739998	-1.10440004	131	250	128
-0.230350003	0.0685420036	-1.10070002	131	250	128
-0.23161	0.0661059991	-1.0977	131	250	128
-0.233280003	0.0660919994	-1.09739995	131	250	128
-0.233140007	0.0649359971	-1.09650004	131	250	128
-0.233140007	0.0638469979	-1.09660006	131	250	128
-0.231330007	0.0638030022	-1.09580004	131	250	128
-0.231330007	0.0648910031	-1.09580004	131	250	128
-0.229660004	0.0649050027	-1.09599996	131	250	128
-0.227860004	0.0670640022	-1.09510005	131	250	128
-0.226459995	0.0671989992	-1.09730005	131	250	128
-0.226459995	0.0660879984	-1.09739995	131	250	128
-0.224659994	0.067152001	-1.09650004	131	250	128
-0.22439	0.0659229979	-1.09459996	131	250	128
-0.222330004	0.065756999	-1.09189999	131	250	128
-0.222330004	0.0635809973	-1.09200001	131	250	128
-0.220799997	0.0636510029	-1.09319997	131	250	128
-0.219139993	0.0636629984	-1.0934	131	250	128
-0.219139993	0.0625850037	-1.09350002	131	250	128
-0.217600003	0.0637329966	-1.09459996	131	250	128
-0.217600003	0.064819999	-1.09459996	131	250	128
-0.219390005	0.0648669973	-1.09529996	131	250	128
-0.221059993	0.0648540035	-1.09510005	131	250	128
-0.221190006	0.0660089999	-1.09609997	131	250	128
-0.221320003	0.0671790019	-1.097	131	250	128
-0.219899997	0.0673139989	-1.09920001	131	250	128
-0.219899997	0.066200003	-1.09920001	131	250	128
-0.218229994	0.0673270002	-1.09940004	131	250	128
-0.216680005	0.067400001	-1.1006	131	250	128
-0.216680005	0.0662859976	-1.1006	131	250	128
-0.217979997	0.0660940036	-1.09749997	131	250	128
-0.216179997	0.0649499968	-1.09679997	131	250	128
-0.216179997	0.0638609976	-1.09679997	131	250	128
-0.214629993	0.0639299974	-1.09800005	131	250	128
-0.214629993	0.0650210008	-1.09790003	131	250	128
-0.212960005	0.0650330037	-1.09819996	131	250	128
-0.212840006	0.0638850033	-1.09720004	131	250	128
-0.211050004	0.0649280027	-1.09640002	131	250	128
-0.210930005	0.0637810007	-1.09539998	131	250	128
-0.20927	0.0637919977	-1.09560001	131	250	128
-0.20927	0.0648809969	-1.09560001	131	250	128
-0.209380001	0.0660360008	-1.09650004	131	250	128
-0.2095	0.0672070011	-1.09739995	131	250	128
-0.207599998	0.0670970008	-1.09560001	131	250	128
-0.206039995	0.0671700016	-1.09679997	131	250	128
-0.204260007	0.0671209991	-1.09599996	131	250	128
-0.202700004	0.0671930015	-1.09720004	131	250	128
-0.201140001	0.0672649965	-1.0984	131	250	128
-0.19957	0.0673369989	-1.09949994	131	250	128
-0.199680001	0.0685259998	-1.10049999	131	250	128
-0.199680001	0.0696770027	-1.10039997	131	250	128
-0.201360002	0.0696649998	-1.10020006	131	250	128
-0.201360002	0.0685150027	-1.10029995	131	250	128
-0.203140005	0.0697159991	-1.10099995	131	250	128
-0.203250006	0.0686269999	-1.10210001	131	250	128
-0.205270007	0.0711330026	-1.10469997	131	250	128
-0.207059994	0.070005998	-1.1056	131	250	128
-0.208749995	0.0699940026	-1.10539997	131	250	128
-0.207289994	0.0713120028	-1.10749996	131	250	128
-0.209089994	0.0724169984	-1.10819995	131	250	128
-0.209089994	0.0733850002	-1.10819995	131	250	128
-0.210779995	0.0724039972	-1.10800004	131	250	128
-0.210669994	0.0733060017	-1.10699999	131	250	128
-0.212469995	0.0723910034	-1.10780001	131	250	128
-0.212589994	0.0734239966	-1.10880005	131	250	128
-0.214399993	0.0734760016	-1.10959995	131	250	128
-0.214399993	0.0725070015	-1.10959995	131	250	128
-0.214399993	0.0714529976	-1.10969996	131	250	128
-0.216100007	0.0714399964	-1.10950005	131	250	128
-0.216340005	0.0726229995	-1.11140001	131	250	128
-0.216340005	0.0735939965	-1.11129999	131	250	128
-0.218160003	0.0736450031	-1.11210001	131	250	128
-0.219980001	0.0759830028	-1.11269999	131	250	128
-0.221300006	0.0757649988	-1.10959995	131	250	128
-0.224680007	0.0734570026	-1.10930002	131	250	128
-0.226239994	0.0733769983	-1.10810006	131	250	128
-0.223769993	0.0709879994	-1.10249996	131	250	128
-0.223379999	0.0696249977	-1.09959996	131	250	128
-0.223379999	0.0684750006	-1.09969997	131	250	128
-0.223379999	0.0673480034	-1.09969997	131	250	128
-0.218229994	0.0629369989	-1.09959996	131	250	128
-0.216429994	0.0628919974	-1.09889996	131	250	128
-0.214389995	0.0627340004	-1.09609997	131	250	128
-0.212359995	0.0625749975	-1.09329998	131	250	128
-0.210700005	0.0625870004	-1.09350002	131	250	128
-0.208800003	0.0624839999	-1.09169996	131	250	128
-0.207249999	0.0625519976	-1.09290004	131	250	128
-0.205589995	0.0625630021	-1.09309995	131	250	128
-0.205699995	0.0636989996	-1.09399998	131	250	128
-0.207479998	0.0637459978	-1.0948	131	250	128
-0.207479998	0.0648330003	-1.0948	131	250	128
-0.207369998	0.0658679977	-1.09370005	131	250	128
-0.205699995	0.0658800006	-1.09389997	131	250	128
-0.203930005	0.0658309981	-1.09309995	131	250	128
-0.202370003	0.0659020022	-1.09430003	131	250	128
-0.200599998	0.0658539981	-1.09350002	131	250	128
-0.200489998	0.0647009984	-1.09249997	131	250	128
-0.198829994	0.0647120029	-1.0927	131	250	128
-0.197170004	0.0658150017	-1.09280002	131	250	128
-0.196960002	0.0646049976	-1.09089994	131	250	128
-0.195299998	0.0646149963	-1.09109998	131	250	128
-0.193639994	0.0646250024	-1.09130001	131	250	128
-0.193540007	0.0634829998	-1.09029996	131	250	128
-0.195089996	0.0634149984	-1.08920002	131	250	128
-0.194890007	0.0622269996	-1.08720005	131	250	128
-0.194890007	0.0611549988	-1.08729994	131	250	128
-0.193130001	0.0611080006	-1.08650005	131	250	128
-0.193230003	0.0622369982	-1.08739996	131	250	128
-0.191479996	0.0611179993	-1.08659995	131	250	128
-0.189830005	0.0611269996	-1.08679998	131	250	128
-0.188270003	0.0611919984	-1.08800006	131	250	128
-0.186619997	0.0612009987	-1.08809996	131	250	128
-0.184970006	0.0612090006	-1.08829999	131	250	128
-0.183310002	0.0612180009	-1.08840001	131	250	128
-0.18175	0.0612820014	-1.08959997	131	250	128
-0.181659997	0.0601520017	-1.08860004	131	250	128
-0.179910004	0.0601049997	-1.08780003	131	250	128
-0.179910004	0.0611790009	-1.08770001	131	250	128
-0.178259999	0.0611869991	-1.08790004	131	250	128
-0.178350002	0.0601680018	-1.08889997	131	250	128
-0.176520005	0.0600659996	-1.08710003	131	250	128
-0.176520005	0.0611389987	-1.08700001	131	250	128
-0.174869999	0.0611459985	-1.08720005	131	250	128
-0.174789995	0.0600190014	-1.0862	131	250	128
-0.17306	0.0610419996	-1.08529997	131	250	128
-0.171330005	0.0609930009	-1.08440006	131	250	128
-0.171330005	0.0620630011	-1.08440006	131	250	128
-0.169679999	0.0620700009	-1.08449996	131	250	128
-0.169609994	0.0609439984	-1.08360004	131	250	128
-0.169530004	0.0598200001	-1.0826	131	250	128
-0.16945	0.0586909987	-1.08169997	131	250	128
-0.171169996	0.0598130003	-1.08249998	131	250	128
-0.172820002	0.0598060004	-1.08239996	131	250	128
-0.174380004	0.0586699992	-1.08130002	131	250	128
-0.172659993	0.058623001	-1.08039999	131	250	128
-0.170939997	0.058575999	-1.07959998	131	250	128
-0.172419995	0.0573839992	-1.07749999	131	250	128
-0.170699999	0.0562690012	-1.07669997	131	250	128
-0.170619994	0.0572849996	-1.07570004	131	250	128
-0.169070005	0.0573449992	-1.07679999	131	250	128
-0.168990001	0.0562230013	-1.07579994	131	250	128
-0.169070005	0.0552130006	-1.07690001	131	250	128
-0.168990001	0.0541189983	-1.07589996	131	250	128
-0.167359993	0.0541249998	-1.07609999	131	250	128
-0.16573	0.0541310012	-1.07620001	131	250	128
-0.164169997	0.0541869998	-1.07729995	131	250	128
-0.162389994	0.0540929995	-1.07539999	131	250	128
-0.16076	0.0540979989	-1.07550001	131	250	128
-0.159130007	0.0541040003	-1.07560003	131	250	128
-0.157499999	0.0541089997	-1.07579994	131	250	128
-0.156049997	0.0542649999	-1.07879996	131	250	128
-0.157749996	0.0553559996	-1.07969999	131	250	128
-0.157820001	0.0564740002	-1.08060002	131	250	128
-0.156179994	0.0564800017	-1.08070004	131	250	128
-0.154540002	0.056485001	-1.08080006	131	250	128
-0.154660001	0.0555200018	-1.08290005	131	250	128
-0.156299993	0.0555149987	-1.08280003	131	250	128
-0.156369999	0.0577119999	-1.08369994	131	250	128
-0.158079997	0.0577600002	-1.08459997	131	250	128
-0.159659997	0.0577009991	-1.08350003	131	250	128
-0.161300004	0.0576950014	-1.08329999	131	250	128
-0.161369994	0.0588320009	-1.08430004	131	250	128
-0.16144	0.0599640012	-1.08519995	131	250	128
-0.163090006	0.0599570014	-1.08510005	131	250	128
-0.163090006	0.061028	-1.08500004	131	250	128
-0.164739996	0.0610210001	-1.08490002	131	250	128
-0.166309997	0.0609580018	-1.08379996	131	250	128
-0.168029994	0.0620779991	-1.08459997	131	250	128
-0.168109998	0.0610629991	-1.08570004	131	250	128
-0.168259993	0.0601020008	-1.08770001	131	250	128
-0.168180004	0.0589680001	-1.08679998	131	250	128
-0.166460007	0.0589210019	-1.08589995	131	250	128
-0.164810002	0.0589269996	-1.08599997	131	250	128
-0.164879993	0.0600610003	-1.08700001	131	250	128
-0.164949998	0.0622619987	-1.08790004	131	250	128
-0.166610003	0.0622549988	-1.08770001	131	250	128
-0.166679993	0.0601640008	-1.08889997	131	250	128
-0.163369998	0.0623259991	-1.08899999	131	250	128
-0.16178	0.0623899996	-1.09010005	131	250	128
-0.161850005	0.063523002	-1.09099996	131	250	128
-0.160119995	0.0634709969	-1.09010005	131	250	128
-0.159989998	0.0622819997	-1.08819997	131	250	128
-0.159920007	0.061152	-1.08729994	131	250	128
-0.15986	0.0600249991	-1.08630002	131	250	128
-0.15986	0.0589459985	-1.08640003	131	250	128
-0.158270001	0.0590060018	-1.08749998	131	250	128
-0.158329993	0.0601410009	-1.08840001	131	250	128
-0.158399999	0.0612710007	-1.08940005	131	250	128
-0.158329993	0.0622880012	-1.08829999	131	250	128
-0.158329993	0.0633620024	-1.08819997	131	250	128
-0.156680003	0.0633680001	-1.08840001	131	250	128
-0.156619996	0.0622369982	-1.08739996	131	250	128
-0.156619996	0.0600919984	-1.08749998	131	250	128
-0.154899999	0.0600420013	-1.08659995	131	250	128
-0.153249994	0.060047999	-1.08669996	131	250	128
-0.153249994	0.0611199997	-1.08669996	131	250	128
-0.153190002	0.0589139983	-1.08580005	131	250	128
-0.154840007	0.0578240007	-1.08580005	131	250	128
-0.156489998	0.0589030012	-1.08560002	131	250	128
-0.154719993	0.0588009991	-1.08369994	131	250	128
-0.155029997	0.0612259991	-1.08860004	131	250	128
-0.155090004	0.062357001	-1.08949995	131	250	128
-0.155029997	0.0633739978	-1.08850002	131	250	128
-0.153369993	0.063380003	-1.08860004	131	250	128
-0.15343	0.0623629987	-1.08959997	131	250	128
-0.156739995	0.061276	-1.08949995	131	250	128
-0.161640003	0.0612020008	-1.08809996	131	250	128
-0.16302	0.0588259995	-1.08420002	131	250	128
-0.162880003	0.0576360002	-1.08220005	131	250	128
-0.162809998	0.0554420017	-1.08140004	131	250	128
-0.164519995	0.0554869995	-1.08220005	131	250	128
-0.166089997	0.0554299988	-1.08109999	131	250	128
-0.166020006	0.0575169995	-1.08000004	131	250	128
-0.164379999	0.0575239994	-1.08010006	131	250	128
-0.164309993	0.0563989989	-1.07920003	131	250	128
-0.162670001	0.0564050004	-1.07930005	131	250	128
-0.160899997	0.0563060008	-1.07739997	131	250	128
-0.160899997	0.0552430004	-1.07749999	131	250	128
-0.159390002	0.0553510003	-1.07959998	131	250	128
-0.159390002	0.0564160012	-1.07949996	131	250	128
-0.154290006	0.0541700013	-1.07700002	131	250	128
-0.165800005	0.0562880002	-1.07710004	131	250	128
-0.167429999	0.057351999	-1.07690001	131	250	128
-0.167280003	0.0561779998	-1.07500005	131	250	128
-0.167510003	0.0552700013	-1.07799995	131	250	128
-0.170780003	0.055257	-1.07780004	131	250	128
-0.172499999	0.0553020015	-1.07860005	131	250	128
-0.174219996	0.0574829988	-1.07939994	131	250	128
-0.175940007	0.0575289987	-1.08019996	131	250	128
-0.177489996	0.0574689992	-1.07910001	131	250	128
-0.179220006	0.0575140007	-1.07990003	131	250	128
-0.180769995	0.0574529991	-1.07879996	131	250	128
-0.182400003	0.0574459992	-1.07869995	131	250	128
-0.182500005	0.0564259999	-1.07969999	131	250	128
-0.184129998	0.0564180017	-1.07959998	131	250	128
-0.184129998	0.0574910007	-1.07949996	131	250	128
-0.18423	0.058623001	-1.08039999	131	250	128
-0.185770005	0.058561001	-1.07930005	131	250	128
-0.187409997	0.058552999	-1.07910001	131	250	128
-0.187319994	0.0563500002	-1.0783	131	250	128
-0.189150006	0.0564460009	-1.08010006	131	250	128
