-0.641650021	0.359459996	-1.60679996	83	175	54
-0.641650021	0.361059994	-1.60640001	83	175	54
-0.644959986	0.36127001	-1.60730004	83	175	54
-0.644959986	0.35966	-1.60769999	83	175	54
-0.646899998	0.359039992	-1.6049	83	175	54
-0.649869978	0.359030008	-1.6049	83	175	54
-0.653180003	0.359230012	-1.60580003	83	175	54
-0.656159997	0.359219998	-1.60580003	83	175	54
-0.658779979	0.359010011	-1.60479999	83	175	54
-0.662100017	0.359200001	-1.60570002	83	175	54
-0.665080011	0.359189987	-1.6056	83	175	54
-0.668060005	0.359180003	-1.6056	83	175	54
-0.671039999	0.35916999	-1.60549998	83	175	54
-0.67365998	0.358949989	-1.60450006	83	175	54
-0.67772001	0.359539986	-1.60720003	83	175	54
-0.678080022	0.36135	-1.60769999	83	175	54
-0.675450027	0.361580014	-1.60870004	83	175	54
-0.672469974	0.361589998	-1.60880005	83	175	54
-0.669830024	0.361809999	-1.60979998	83	175	54
-0.666849971	0.361829996	-1.60979998	83	175	54
-0.664569974	0.36225	-1.61170006	83	175	54
-0.661580026	0.362260014	-1.61179996	83	175	54
-0.658599973	0.362269998	-1.61179996	83	175	54
-0.654919982	0.361869991	-1.61000001	83	175	54
-0.651250005	0.36146	-1.60819995	83	175	54
-0.648280025	0.361470014	-1.60819995	83	175	54
-0.647700012	0.364490002	-1.61430001	83	175	54
-0.644379973	0.364279985	-1.61339998	83	175	54
-0.641059995	0.364080012	-1.61249995	83	175	54
-0.63775003	0.363869995	-1.61160004	83	175	54
-0.63477999	0.363869995	-1.61160004	83	175	54
-0.631470025	0.363660008	-1.61070001	83	175	54
-0.629830003	0.364490002	-1.61430001	83	175	54
-0.626529992	0.364279985	-1.61339998	83	175	54
-0.623889983	0.364479989	-1.61430001	83	175	54
-0.621249974	0.364690006	-1.61520004	83	175	54
-0.618610024	0.364890009	-1.61609995	83	175	54
-0.615639985	0.364879996	-1.61609995	83	175	54
-0.616289973	0.36688	-1.61749995	83	175	54
-0.61364001	0.367080003	-1.61839998	83	175	54
-0.610669971	0.367069989	-1.61839998	83	175	54
-0.608340025	0.36748001	-1.62020004	83	175	54
-0.605690002	0.367680013	-1.62100005	83	175	54
-0.602400005	0.367449999	-1.62010002	83	175	54
-0.600059986	0.369480014	-1.62150002	83	175	54
-0.599120021	0.367229998	-1.61909997	83	175	54
-0.596780002	0.36925	-1.62049997	83	175	54
-0.59412998	0.369439989	-1.62129998	83	175	54
-0.591470003	0.369639993	-1.62220001	83	175	54
-0.588819981	0.369830012	-1.62300003	83	175	54
-0.58585	0.369809985	-1.62290001	83	175	54
-0.582589984	0.369569987	-1.62189996	83	175	54
-0.579630017	0.36954999	-1.62179995	83	175	54
-0.576669991	0.369520009	-1.62170005	83	175	54
-0.574020028	0.369709998	-1.62249994	83	175	54
-0.571359992	0.369890004	-1.62329996	83	175	54
-0.569289982	0.370499998	-1.62600005	83	175	54
-0.566630006	0.370680004	-1.62679994	83	175	54
-0.563380003	0.370440006	-1.6257	83	175	54
-0.56042999	0.370409995	-1.62549996	83	175	54
-0.55776	0.370590001	-1.62629998	83	175	54
-0.554809988	0.370550007	-1.62619996	83	175	54
-0.551289976	0.370090008	-1.62419999	83	175	54
-0.54806	0.369839996	-1.62310004	83	175	54
-0.545409977	0.370009989	-1.62380004	83	175	54
-0.542750001	0.370189995	-1.62460005	83	175	54
-0.539810002	0.37015	-1.62440002	83	175	54
-0.536870003	0.370099992	-1.62419999	83	175	54
-0.534210026	0.370270014	-1.625	83	175	54
-0.534759998	0.372370005	-1.62650001	83	175	54
-0.531819999	0.372319996	-1.62629998	83	175	54
-0.529429972	0.37270999	-1.6279	83	175	54
-0.526759982	0.372869998	-1.62870002	83	175	54
-0.523819983	0.372830003	-1.62849998	83	175	54
-0.521690011	0.37342	-1.63110006	83	175	54
-0.519020021	0.373589993	-1.63180006	83	175	54
-0.516340017	0.373750001	-1.63250005	83	175	54
-0.514190018	0.376109987	-1.63469994	83	175	54
-0.511510015	0.376269996	-1.63540006	83	175	54
-0.508050025	0.375779986	-1.63329995	83	175	54
-0.505119979	0.375730008	-1.63300002	83	175	54
-0.50217998	0.375669986	-1.63279998	83	175	54
-0.49950999	0.375829995	-1.63349998	83	175	54
-0.497079998	0.376199991	-1.63510001	83	175	54
-0.494150013	0.376139998	-1.63479996	83	175	54
-0.491470009	0.376289994	-1.63549995	83	175	54
-0.488050014	0.375800014	-1.63329995	83	175	54
-0.485610008	0.376170009	-1.63489997	83	175	54
-0.483179986	0.376540005	-1.6365	83	175	54
-0.480489999	0.37669	-1.6372	83	175	54
-0.477329999	0.376399994	-1.63600004	83	175	54
-0.474649996	0.376549989	-1.63660002	83	175	54
-0.475120008	0.378679991	-1.63810003	83	175	54
-0.472200006	0.378609985	-1.63779998	83	175	54
-0.471729994	0.376480013	-1.63629997	83	175	54
-0.468809992	0.376410007	-1.63600004	83	175	54
-0.469280005	0.378529996	-1.63750005	83	175	54
-0.466360003	0.37845999	-1.6372	83	175	54
-0.46588999	0.376329988	-1.63569999	83	175	54
-0.463440001	0.378390014	-1.63689995	83	175	54
-0.464489996	0.373270005	-1.63039994	83	175	54
-0.467159986	0.37312001	-1.62979996	83	175	54
-0.469830006	0.372979999	-1.62909997	83	175	54
-0.472499996	0.372830003	-1.62849998	83	175	54
-0.475169986	0.372680008	-1.62779999	83	175	54
-0.477829993	0.372539997	-1.62720001	83	175	54
-0.480980009	0.37281999	-1.62839997	83	175	54
-0.484389991	0.373320013	-1.63059998	83	175	54
-0.487309992	0.373380005	-1.63090003	83	175	54
-0.48973	0.373019993	-1.6293	83	175	54
-0.492650002	0.373079985	-1.62960005	83	175	54
-0.495319992	0.372920007	-1.62890005	83	175	54
-0.498239994	0.372979999	-1.62919998	83	175	54
-0.500400007	0.372399986	-1.62660003	83	175	54
-0.503059983	0.372240007	-1.62590003	83	175	54
-0.50624001	0.372509986	-1.62709999	83	175	54
-0.50812	0.370039999	-1.62390006	83	175	54
-0.510519981	0.369670004	-1.62230003	83	175	54
-0.509989977	0.367619991	-1.62080002	83	175	54
-0.507080019	0.367559999	-1.62049997	83	175	54
-0.504949987	0.36976999	-1.62279999	83	175	54
-0.502030015	0.369709998	-1.62249994	83	175	54
-0.499370009	0.369870007	-1.62320006	83	175	54
-0.496969998	0.370240003	-1.62479997	83	175	54
-0.494560003	0.370609999	-1.62639999	83	175	54
-0.491649985	0.370550007	-1.62619996	83	175	54
-0.488730013	0.370490015	-1.62590003	83	175	54
-0.485579997	0.370209992	-1.62469995	83	175	54
-0.482179999	0.369709998	-1.62249994	83	175	54
-0.48168999	0.367659986	-1.62100005	83	175	54
-0.479039997	0.367810011	-1.62160003	83	175	54
-0.479519993	0.369859993	-1.62320006	83	175	54
-0.476619989	0.369789988	-1.62290001	83	175	54
-0.473479986	0.369509995	-1.62160003	83	175	54
-0.470589995	0.369439989	-1.62129998	83	175	54
-0.468409985	0.370009989	-1.62380004	83	175	54
-0.46645999	0.370810002	-1.62730002	83	175	54
-0.464569986	0.367460012	-1.62010002	83	175	54
-0.467220008	0.367320001	-1.61950004	83	175	54
-0.469870001	0.367170006	-1.61880004	83	175	54
-0.472759992	0.367240012	-1.61909997	83	175	54
-0.475899994	0.367529988	-1.62039995	83	175	54
-0.47468999	0.364870012	-1.61600006	83	175	54
-0.477329999	0.364719987	-1.61539996	83	175	54
-0.480459988	0.36500001	-1.61660004	83	175	54
-0.483110011	0.364859998	-1.61600006	83	175	54
-0.486250013	0.365130007	-1.61720002	83	175	54
-0.489140004	0.365200013	-1.61749995	83	175	54
-0.491540015	0.364829987	-1.61580002	83	175	54
-0.494430006	0.364890009	-1.61609995	83	175	54
-0.497070014	0.364740014	-1.61539996	83	175	54
-0.499969989	0.364800006	-1.61570001	83	175	54
-0.502619982	0.364639997	-1.61500001	83	175	54
-0.503390014	0.366869986	-1.61749995	83	175	54
-0.500750005	0.367020011	-1.61819994	83	175	54
-0.498100013	0.36717999	-1.61889994	83	175	54
-0.495700002	0.367549986	-1.62049997	83	175	54
-0.493299991	0.367920011	-1.6221	83	175	54
-0.490640014	0.368070006	-1.62279999	83	175	54
-0.487239987	0.367579997	-1.62059999	83	175	54
-0.484340012	0.367509991	-1.62030005	83	175	54
-0.487639993	0.362349987	-1.61210001	83	175	54
-0.490269989	0.362199992	-1.61150002	83	175	54
-0.493420005	0.362470001	-1.61269999	83	175	54
-0.495799989	0.362109989	-1.61109996	83	175	54
-0.495290011	0.36006999	-1.60959995	83	175	54
-0.497920007	0.359919995	-1.60889995	83	175	54
-0.497920007	0.361530006	-1.6085	83	175	54
-0.500800014	0.361589998	-1.60880005	83	175	54
-0.500800014	0.359979987	-1.60909998	83	175	54
-0.503690004	0.360029995	-1.60940003	83	175	54
-0.50395	0.361860007	-1.61000001	83	175	54
-0.504480004	0.363849998	-1.61150002	83	175	54
-0.506850004	0.361909986	-1.61020005	83	175	54
-0.509739995	0.361970007	-1.61039996	83	175	54
-0.512910008	0.362230003	-1.61160004	83	175	54
-0.510800004	0.364380002	-1.61389995	83	175	54
-0.507640004	0.364120007	-1.61269999	83	175	54
-0.506060004	0.359670013	-1.60769999	83	175	54
-0.50869	0.359510005	-1.60699999	83	175	54
-0.51157999	0.359560013	-1.60730004	83	175	54
-0.51473999	0.359829992	-1.6085	83	175	54
-0.517099977	0.359459996	-1.60679996	83	175	54
-0.519999981	0.359510005	-1.60699999	83	175	54
-0.522080004	0.358920008	-1.60440004	83	175	54
-0.521260023	0.356669992	-1.602	83	175	54
-0.523869991	0.356510013	-1.60119998	83	175	54
-0.527589977	0.357179999	-1.60430002	83	175	54
-0.530489981	0.357230008	-1.60450006	83	175	54
-0.533110023	0.357059985	-1.60370004	83	175	54
-0.534889996	0.356269985	-1.60020006	83	175	54
-0.537779987	0.35631001	-1.60039997	83	175	54
-0.540679991	0.356350005	-1.60049999	83	175	54
-0.543860018	0.356599987	-1.60169995	83	175	54
-0.546769977	0.356640011	-1.60179996	83	175	54
-0.549090028	0.354660004	-1.60049999	83	175	54
-0.551699996	0.354479998	-1.59969997	83	175	54
-0.554019988	0.354110003	-1.59800005	83	175	54
-0.556930006	0.354140013	-1.59809995	83	175	54
-0.559239984	0.353760004	-1.59640002	83	175	54
-0.566240013	0.356249988	-1.60010004	83	175	54
-0.569149971	0.356279999	-1.60020006	83	175	54
-0.571770012	0.356099993	-1.59940004	83	175	54
-0.574069977	0.35571	-1.5977	83	175	54
-0.573159993	0.353489995	-1.59519994	83	175	54
-0.570559978	0.353670001	-1.59599996	83	175	54
-0.56795001	0.353850007	-1.59679997	83	175	54
-0.576070011	0.353520006	-1.59529996	83	175	54
-0.579289973	0.35374999	-1.59640002	83	175	54
-0.583440006	0.354589999	-1.60020006	83	175	54
-0.58573997	0.354200006	-1.5984	83	175	54
-0.589290023	0.354640007	-1.60039997	83	175	54
-0.590219975	0.356860012	-1.60280001	83	175	54
-0.587289989	0.356840014	-1.6027	83	175	54
-0.587599993	0.358669996	-1.60329998	83	175	54
-0.584680021	0.358649999	-1.60319996	83	175	54
-0.584680021	0.357030004	-1.60360003	83	175	54
-0.582059979	0.358830005	-1.60399997	83	175	54
-0.581439972	0.35679999	-1.60249996	83	175	54
-0.57852	0.356770009	-1.60239995	83	175	54
-0.575900018	0.358579993	-1.60290003	83	175	54
-0.572979987	0.358550012	-1.60280001	83	175	54
-0.570659995	0.358940005	-1.60450006	83	175	54
-0.566900015	0.36195001	-1.61039996	83	175	54
-0.564559996	0.362340003	-1.61210001	83	175	54
-0.561630011	0.362309992	-1.61199999	83	175	54
-0.558700025	0.362280011	-1.61179996	83	175	54
-0.556360006	0.364239991	-1.61319995	83	175	54
-0.554009974	0.36462	-1.61489999	83	175	54
-0.551360011	0.364800006	-1.61570001	83	175	54
-0.548430026	0.364760011	-1.61549997	83	175	54
-0.546079993	0.366730005	-1.61689997	83	175	54
-0.543429971	0.366910011	-1.61759996	83	175	54
-0.541059971	0.36728999	-1.61930001	83	175	54
-0.538410008	0.367460012	-1.62010002	83	175	54
-0.535480022	0.367419988	-1.61989999	83	175	54
-0.532549977	0.367370009	-1.61969995	83	175	54
-0.529630005	0.367330015	-1.61950004	83	175	54
-0.526979983	0.367500007	-1.62020004	83	175	54
-0.52323997	0.366809994	-1.61720002	83	175	54
-0.520600021	0.366970003	-1.61790001	83	175	54
-0.518209994	0.367350012	-1.61960006	83	175	54
-0.515559971	0.367509991	-1.62030005	83	175	54
-0.512910008	0.36767	-1.62100005	83	175	54
-0.513970017	0.37015	-1.62440002	83	175	54
-0.517159998	0.370420009	-1.62559998	83	175	54
-0.520349979	0.370680004	-1.62670004	83	175	54
-0.523020029	0.370519996	-1.62600005	83	175	54
-0.525680006	0.370350003	-1.62530005	83	175	54
-0.528609991	0.370400012	-1.62549996	83	175	54
-0.531000018	0.370020002	-1.62380004	83	175	54
-0.53798002	0.372619987	-1.62759995	83	175	54
-0.536140025	0.375200003	-1.63069999	83	175	54
-0.533190012	0.375160009	-1.63049996	83	175	54
-0.530789971	0.375539988	-1.6322	83	175	54
-0.528379977	0.375930011	-1.63390005	83	175	54
-0.525439978	0.375880003	-1.63370001	83	175	54
-0.523029983	0.376260012	-1.63540006	83	175	54
-0.523559988	0.378390014	-1.63680005	83	175	54
-0.526239991	0.378219992	-1.63610005	83	175	54
-0.529470026	0.378479987	-1.63730001	83	175	54
-0.532149971	0.378309995	-1.6365	83	175	54
-0.535109997	0.378360003	-1.63670003	83	175	54
-0.538339972	0.378619999	-1.63779998	83	175	54
-0.540750027	0.378230006	-1.63619995	83	175	54
-0.543709993	0.37827	-1.63629997	83	175	54
-0.546679974	0.378309995	-1.6365	83	175	54
-0.550209999	0.378780007	-1.63849998	83	175	54
-0.552890003	0.378600001	-1.63779998	83	175	54
-0.555010021	0.377990007	-1.63510001	83	175	54
-0.554719985	0.376080006	-1.63460004	83	175	54
-0.557690024	0.376120001	-1.63469994	83	175	54
-0.557690024	0.377810001	-1.63429999	83	175	54
-0.560940027	0.378060013	-1.63540006	83	175	54
-0.560649991	0.376150012	-1.63489997	83	175	54
-0.563920021	0.376399994	-1.63600004	83	175	54
-0.564499974	0.378520012	-1.63740003	83	175	54
-0.567179978	0.378340006	-1.63660002	83	175	54
-0.566600025	0.376219988	-1.63520002	83	175	54
-0.568979979	0.375820011	-1.63339996	83	175	54
-0.571950018	0.375849992	-1.6336	83	175	54
-0.574630022	0.375660002	-1.63269997	83	175	54
-0.577910006	0.3759	-1.63380003	83	175	54
-0.581179976	0.376139998	-1.63479996	83	175	54
-0.584169984	0.376159996	-1.63489997	83	175	54
-0.586539984	0.375759989	-1.63320005	83	175	54
-0.589219987	0.375569999	-1.63230002	83	175	54
-0.591889977	0.375369996	-1.63150001	83	175	54
-0.595489979	0.375820011	-1.63339996	83	175	54
-0.599099994	0.376260012	-1.63540006	83	175	54
-0.601779997	0.376069993	-1.63450003	83	175	54
-0.604460001	0.375869989	-1.6336	83	175	54
-0.607140005	0.375669986	-1.63279998	83	175	54
-0.60650003	0.373479992	-1.63129997	83	175	54
-0.609179974	0.373279989	-1.63049996	83	175	54
-0.609809995	0.375470012	-1.63189995	83	175	54
-0.613120019	0.375690013	-1.6329	83	175	54
-0.615800023	0.37549001	-1.63199997	83	175	54
-0.619120002	0.375710011	-1.63300002	83	175	54
-0.622120023	0.375719994	-1.63300002	83	175	54
-0.620410025	0.378250003	-1.63629997	83	175	54
-0.617720008	0.37845999	-1.63709998	83	175	54
-0.614400029	0.378230006	-1.63619995	83	175	54
-0.612030029	0.37865001	-1.63800001	83	175	54
-0.609350026	0.378850013	-1.63890004	83	175	54
-0.606339991	0.378839999	-1.63880002	83	175	54
-0.60334003	0.378820002	-1.63870001	83	175	54
-0.600030005	0.378589988	-1.63769996	83	175	54
-0.597039998	0.378580004	-1.63769996	83	175	54
-0.593739986	0.37834999	-1.63670003	83	175	54
-0.590749979	0.378329992	-1.63660002	83	175	54
-0.588060021	0.378520012	-1.63740003	83	175	54
-0.585380018	0.378710002	-1.63829994	83	175	54
-0.582690001	0.378899992	-1.63909996	83	175	54
-0.579400003	0.378659993	-1.63800001	83	175	54
-0.576120019	0.378419995	-1.63699996	83	175	54
-0.573140025	0.378399998	-1.63689995	83	175	54
-0.570749998	0.378800005	-1.63859999	83	175	54
-0.56923002	0.38143	-1.64279997	83	175	54
-0.566529989	0.38161999	-1.64359999	83	175	54
-0.563830018	0.381799996	-1.6444	83	175	54
-0.561420023	0.382200003	-1.64610004	83	175	54
-0.561999977	0.384229988	-1.64760005	83	175	54
-0.564700007	0.384050012	-1.64680004	83	175	54
-0.567399979	0.383859992	-1.64600003	83	175	54
-0.5704	0.383890003	-1.64610004	83	175	54
-0.572510004	0.381680012	-1.64380002	83	175	54
-0.575500011	0.381700009	-1.64400005	83	175	54
-0.578499973	0.38172999	-1.64409995	83	175	54
-0.58178997	0.381969988	-1.6451	83	175	54
-0.582690001	0.384220004	-1.64750004	83	175	54
-0.579980016	0.384409994	-1.64839995	83	175	54
-0.576690018	0.384169996	-1.6473	83	175	54
-0.573979974	0.384359986	-1.64810002	83	175	54
-0.577870011	0.38666001	-1.65069997	83	175	54
-0.575450003	0.38707	-1.65240002	83	175	54
-0.572440028	0.387039989	-1.6523	83	175	54
-0.569440007	0.387010008	-1.65219998	83	175	54
-0.56615001	0.38677001	-1.65110004	83	175	54
-0.563430011	0.386949986	-1.65190005	83	175	54
-0.56042999	0.386920005	-1.65170002	83	175	54
-0.557720006	0.387100011	-1.65250003	83	175	54
-0.555010021	0.387290001	-1.65330005	83	175	54
-0.552569985	0.387690008	-1.65499997	83	175	54
-0.549849987	0.387870014	-1.65579998	83	175	54
-0.546580017	0.387609988	-1.65470004	83	175	54
-0.543030024	0.387129992	-1.65260005	83	175	54
-0.539770007	0.386869997	-1.65149999	83	175	54
-0.536509991	0.386599988	-1.65040004	83	175	54
-0.535960019	0.384539992	-1.64890003	83	175	54
-0.532989979	0.384490013	-1.6487	83	175	54
-0.530009985	0.384449989	-1.64849997	83	175	54
-0.527029991	0.38440001	-1.64830005	83	175	54
-0.524860024	0.385010004	-1.65090001	83	175	54
-0.521619976	0.384739995	-1.64979994	83	175	54
-0.518909991	0.384909987	-1.65050006	83	175	54
-0.515940011	0.384849995	-1.65030003	83	175	54
-0.512709975	0.384579986	-1.64909995	83	175	54
-0.509750009	0.384519994	-1.64880002	83	175	54
-0.507040024	0.384689987	-1.64950001	83	175	54
-0.504329979	0.384849995	-1.65020001	83	175	54
-0.501619995	0.385010004	-1.65090001	83	175	54
-0.498409986	0.384730011	-1.64970005	83	175	54
-0.49544999	0.384669989	-1.64950001	83	175	54
-0.492249995	0.384389997	-1.64830005	83	175	54
-0.489540011	0.384539992	-1.64890003	83	175	54
-0.487320006	0.385140002	-1.65149999	83	175	54
-0.483880013	0.384629995	-1.64929998	83	175	54
-0.480450004	0.384119987	-1.64709997	83	175	54
-0.477750003	0.384270012	-1.64779997	83	175	54
-0.475039989	0.384420007	-1.64839995	83	175	54
-0.471859992	0.384130001	-1.64719999	83	175	54
-0.469159991	0.384279996	-1.64779997	83	175	54
-0.465990007	0.382389992	-1.64690006	83	175	54
-0.468230009	0.381799996	-1.6444	83	175	54
-0.470690012	0.38143	-1.64279997	83	175	54
-0.473379999	0.381289989	-1.64219999	83	175	54
-0.475840002	0.380919993	-1.64059997	83	175	54
-0.47852999	0.379180014	-1.64030004	83	175	54
-0.481700003	0.379469991	-1.6415	83	175	54
-0.481950015	0.381269991	-1.64209998	83	175	54
-0.479250014	0.38143	-1.64279997	83	175	54
-0.484400004	0.379319996	-1.64090002	83	175	54
-0.485130012	0.381559998	-1.64330006	83	175	54
-0.487819999	0.381410003	-1.64269996	83	175	54
-0.487580001	0.379599988	-1.64209998	83	175	54
-0.490020007	0.379229993	-1.64049995	83	175	54
-0.49052	0.381249994	-1.64199996	83	175	54
-0.493209988	0.381099999	-1.64129996	83	175	54
-0.492709994	0.379079998	-1.63979995	83	175	54
-0.495649993	0.37913999	-1.6401	83	175	54
-0.4991	0.379629999	-1.64219999	83	175	54
-0.501789987	0.379480004	-1.64160001	83	175	54
-0.504230022	0.379099995	-1.63989997	83	175	54
-0.506399989	0.378500015	-1.63730001	83	175	54
-0.509609997	0.378780007	-1.63849998	83	175	54
-0.512549996	0.378829986	-1.63880002	83	175	54
-0.515760005	0.379099995	-1.63989997	83	175	54
-0.519240022	0.379590005	-1.64199996	83	175	54
-0.522469997	0.381440014	-1.64279997	83	175	54
-0.525160015	0.381269991	-1.64209998	83	175	54
-0.528129995	0.38132	-1.64230001	83	175	54
-0.531359971	0.381590009	-1.64349997	83	175	54
-0.534600019	0.381850004	-1.64460003	83	175	54
-0.53757	0.381889999	-1.64479995	83	175	54
-0.540269971	0.381720006	-1.64400005	83	175	54
-0.542970002	0.38154	-1.64330006	83	175	54
-0.545669973	0.381370008	-1.64250004	83	175	54
-0.549199998	0.381839991	-1.64460003	83	175	54
-0.551900029	0.381660014	-1.64380002	83	175	54
-0.554880023	0.381700009	-1.64390004	83	175	54
-0.557860017	0.38172999	-1.64409995	83	175	54
-0.559010029	0.384200007	-1.64750004	83	175	54
-0.556299984	0.384380013	-1.64820004	83	175	54
-0.553030014	0.384130001	-1.64709997	83	175	54
-0.550040007	0.384090006	-1.64699996	83	175	54
-0.54677999	0.383830011	-1.64590001	83	175	54
-0.543799996	0.383789986	-1.64569998	83	175	54
-0.541100025	0.383969992	-1.64649999	83	175	54
-0.538399994	0.384149998	-1.64719999	83	175	54
-0.533800006	0.386779994	-1.65110004	83	175	54
-0.531350017	0.387169987	-1.65279996	83	175	54
-0.528639972	0.387340009	-1.65359998	83	175	54
-0.525919974	0.387519985	-1.65429997	83	175	54
-0.522679985	0.387250006	-1.65310001	83	175	54
-0.519959986	0.387410015	-1.65390003	83	175	54
-0.517499983	0.387800008	-1.65550005	83	175	54
-0.514779985	0.387970001	-1.65620005	83	175	54
-0.511290014	0.387470007	-1.65409994	83	175	54
-0.508319974	0.387419999	-1.65390003	83	175	54
-0.505599976	0.387580007	-1.65460002	83	175	54
-0.506359994	0.389880002	-1.65699995	83	175	54
-0.503380001	0.389820009	-1.65680003	83	175	54
-0.50041002	0.389759988	-1.65649998	83	175	54
-0.496939987	0.38925001	-1.65439999	83	175	54
-0.496439993	0.387180001	-1.65289998	83	175	54
-0.493730009	0.387340009	-1.65349996	83	175	54
-0.49397999	0.389189988	-1.65409994	83	175	54
-0.49149999	0.389569998	-1.65569997	83	175	54
-0.490770012	0.387270004	-1.65330005	83	175	54
-0.488290012	0.387650013	-1.65489995	83	175	54
-0.485329986	0.387589991	-1.65460002	83	175	54
-0.482609987	0.387739986	-1.65530002	83	175	54
-0.483330011	0.39004001	-1.65769994	83	175	54
-0.480610013	0.390190005	-1.65840006	83	175	54
-0.481330007	0.392500013	-1.66079998	83	175	54
-0.484059989	0.392340004	-1.6602	83	175	54
-0.487029999	0.39241001	-1.66040003	83	175	54
-0.489760011	0.392250001	-1.65980005	83	175	54
-0.489270002	0.390170008	-1.65830004	83	175	54
-0.486299992	0.390109986	-1.65799999	83	175	54
-0.493220001	0.392769992	-1.66190004	83	175	54
-0.495950013	0.392610013	-1.66129994	83	175	54
-0.498679996	0.392450005	-1.66059995	83	175	54
-0.501659989	0.392509997	-1.66079998	83	175	54
-0.504390001	0.392340004	-1.66009998	83	175	54
-0.507629991	0.392619997	-1.66129994	83	175	54
-0.510619998	0.392679989	-1.66159999	83	175	54
-0.510100007	0.390599996	-1.66009998	83	175	54
-0.513090014	0.390650004	-1.66030002	83	175	54
-0.513859987	0.392960012	-1.66270006	83	175	54
-0.514379978	0.395029992	-1.66419995	83	175	54
-0.511640012	0.395190001	-1.66499996	83	175	54
-0.508639991	0.395139992	-1.66470003	83	175	54
-0.506160021	0.395529985	-1.66639996	83	175	54
-0.503419995	0.395689994	-1.66700006	83	175	54
-0.500670016	0.395850003	-1.66770005	83	175	54
-0.497680008	0.395790011	-1.66750002	83	175	54
-0.494690001	0.395729989	-1.66719997	83	175	54
-0.491219997	0.395220011	-1.66499996	83	175	54
-0.488480002	0.395370007	-1.66569996	83	175	54
-0.485740006	0.395529985	-1.66639996	83	175	54
-0.48300001	0.395689994	-1.66700006	83	175	54
-0.480250001	0.395839989	-1.66770005	83	175	54
-0.477270007	0.395770013	-1.6674	83	175	54
-0.474999994	0.396369994	-1.66989994	83	175	54
-0.475699991	0.398629993	-1.6724	83	175	54
-0.472710013	0.398559988	-1.67209995	83	175	54
-0.46972999	0.398490012	-1.67180002	83	175	54
-0.467429996	0.400660008	-1.67390001	83	175	54
-0.464679986	0.400810003	-1.67449999	83	175	54
-0.462139994	0.401190013	-1.67610002	83	175	54
-0.465359986	0.403039992	-1.67700005	83	175	54
-0.469029993	0.403800011	-1.68019998	83	175	54
-0.472030014	0.403869987	-1.68050003	83	175	54
-0.475030005	0.403950006	-1.68079996	83	175	54
-0.474330008	0.401719987	-1.67830002	83	175	54
-0.477100015	0.401560009	-1.67770004	83	175	54
-0.479860008	0.401410013	-1.67700005	83	175	54
-0.482859999	0.401479989	-1.67729998	83	175	54
-0.48585999	0.401549995	-1.67760003	83	175	54
-0.488139987	0.400940001	-1.67509997	83	175	54
-0.487419993	0.398689985	-1.67260003	83	175	54
-0.490170002	0.398530006	-1.67190003	83	175	54
-0.493169993	0.398589998	-1.67219996	83	175	54
-0.49665001	0.399109989	-1.67439997	83	175	54
-0.499410003	0.398939997	-1.67369998	83	175	54
-0.50316	0.399679989	-1.67680001	83	175	54
-0.503910005	0.401930004	-1.67920005	83	175	54
-0.501139998	0.402099997	-1.67990005	83	175	54
-0.501630008	0.404100001	-1.68139994	83	175	54
-0.498860002	0.40426001	-1.68210006	83	175	54
-0.495359987	0.403750002	-1.67999995	83	175	54
-0.49259001	0.403910011	-1.68060005	83	175	54
-0.491869986	0.401679993	-1.67820001	83	175	54
-0.494390011	0.401289999	-1.67659998	83	175	54
-0.497640014	0.401580006	-1.67780006	83	175	54
-0.489340007	0.403609991	-1.67939997	83	175	54
-0.486809999	0.404000014	-1.68099999	83	175	54
-0.483810008	0.403930008	-1.68069994	83	175	54
-0.480800003	0.403860003	-1.68040001	83	175	54
-0.478269994	0.404249996	-1.68200004	83	175	54
-0.48221001	0.406789988	-1.68570006	83	175	54
-0.479669988	0.407169998	-1.68729997	83	175	54
-0.47665	0.407099992	-1.68700004	83	175	54
-0.473639995	0.407029986	-1.68669999	83	175	54
-0.470860004	0.407180011	-1.68739998	83	175	54
-0.468300015	0.409139991	-1.68859994	83	175	54
-0.465519994	0.409289986	-1.68920004	83	175	54
-0.46250999	0.409209996	-1.68889999	83	175	54
-0.46439001	0.406569988	-1.68480003	83	175	54
-0.46717	0.406419992	-1.68420005	83	175	54
-0.463719994	0.404329985	-1.68239999	83	175	54
-0.461389989	0.406489998	-1.68449998	83	175	54
-0.471769989	0.409669995	-1.69079995	83	175	54
-0.474559993	0.40952	-1.69009995	83	175	54
-0.477580011	0.409590006	-1.6904	83	175	54
-0.480599999	0.409660012	-1.69070005	83	175	54
-0.48409	0.410189986	-1.69289994	83	175	54
-0.484560013	0.412209988	-1.69439995	83	175	54
-0.487120003	0.411819994	-1.69280005	83	175	54
-0.48664999	0.409799993	-1.69130003	83	175	54
-0.489199996	0.40941	-1.68970001	83	175	54
-0.491979986	0.409249991	-1.68900001	83	175	54
-0.49149999	0.407220006	-1.6875	83	175	54
-0.494289994	0.407059997	-1.68690002	83	175	54
-0.496820003	0.406670004	-1.68519998	83	175	54
-0.500329971	0.407180011	-1.68739998	83	175	54
-0.503359973	0.407249987	-1.68760002	83	175	54
-0.505900025	0.40685001	-1.68599999	83	175	54
-0.508920014	0.406910002	-1.68630004	83	175	54
-0.511699975	0.40674001	-1.68560004	83	175	54
-0.514479995	0.406569988	-1.68490005	83	175	54
-0.517260015	0.406399995	-1.68410003	83	175	54
-0.520550013	0.406679988	-1.68529999	83	175	54
-0.523580015	0.406729996	-1.68550003	83	175	54
-0.526359975	0.406560004	-1.68480003	83	175	54
-0.529139996	0.406379998	-1.68410003	83	175	54
-0.528349996	0.404150009	-1.68159997	83	175	54
-0.531379998	0.404190004	-1.68180001	83	175	54
-0.534150004	0.404020011	-1.68110001	83	175	54
-0.537989974	0.404740006	-1.68410003	83	175	54
-0.540499985	0.404329985	-1.68239999	83	175	54
-0.543269992	0.404150009	-1.68169999	83	175	54
-0.545220017	0.403290004	-1.67809999	83	175	54
-0.548259974	0.401789993	-1.67859995	83	175	54
-0.551299989	0.401829988	-1.67879999	83	175	54
-0.554059982	0.401639998	-1.67799997	83	175	54
-0.556550026	0.401230007	-1.67630005	83	175	54
-0.559310019	0.401050001	-1.67550004	83	175	54
-0.562629998	0.401300013	-1.67659998	83	175	54
-0.564819992	0.400669992	-1.67390001	83	175	54
-0.564249992	0.398649991	-1.67250001	83	175	54
-0.567009985	0.398460001	-1.6717	83	175	54
-0.569180012	0.396239996	-1.66939998	83	175	54
-0.572220027	0.396270007	-1.66949999	83	175	54
-0.57525003	0.396299988	-1.66960001	83	175	54
-0.577709973	0.395889997	-1.66789997	83	175	54
-0.580749989	0.395909995	-1.66799998	83	175	54
-0.583490014	0.395720005	-1.66719997	83	175	54
-0.587119997	0.396180004	-1.66910005	83	175	54
-0.587719977	0.398209989	-1.67060006	83	175	54
-0.584670007	0.398180008	-1.67050004	83	175	54
-0.581629992	0.398160011	-1.67040002	83	175	54
-0.578880012	0.398360014	-1.67120004	83	175	54
-0.576420009	0.398770005	-1.67299998	83	175	54
-0.573660016	0.398970008	-1.67379999	83	175	54
-0.57062	0.398939997	-1.67369998	83	175	54
-0.570909977	0.400730014	-1.67420006	83	175	54
-0.568149984	0.400920004	-1.67499995	83	175	54
-0.569010019	0.403140008	-1.67739999	83	175	54
-0.572059989	0.40316999	-1.67760003	83	175	54
-0.575110018	0.403200001	-1.67770004	83	175	54
-0.574819982	0.401430011	-1.67709994	83	175	54
-0.578159988	0.401679993	-1.67820001	83	175	54
-0.578450024	0.403450012	-1.67869997	83	175	54
-0.57960999	0.405900002	-1.68210006	83	175	54
-0.576550007	0.405880004	-1.68200004	83	175	54
-0.574069977	0.406300008	-1.68369997	83	175	54
-0.571579993	0.406720012	-1.68550003	83	175	54
-0.568509996	0.406679988	-1.68529999	83	175	54
-0.56516999	0.406430006	-1.68429995	83	175	54
-0.562680006	0.406839997	-1.68599999	83	175	54
-0.559620023	0.406809986	-1.68579996	83	175	54
-0.557389975	0.407449991	-1.68850005	83	175	54
-0.555159986	0.409669995	-1.69070005	83	175	54
-0.552370012	0.409850001	-1.69149995	83	175	54
-0.548759997	0.409359992	-1.68949997	83	175	54
-0.546249986	0.409770012	-1.69120002	83	175	54
-0.543460011	0.409960002	-1.69190001	83	175	54
-0.540130019	0.409689993	-1.69079995	83	175	54
-0.53707999	0.409640014	-1.69060004	83	175	54
-0.533500016	0.409139991	-1.68859994	83	175	54
-0.530189991	0.408859998	-1.68739998	83	175	54
-0.527660012	0.409269989	-1.68910003	83	175	54
-0.524619997	0.40922001	-1.68889999	83	175	54
-0.521830022	0.409390002	-1.68959999	83	175	54
-0.518790007	0.409339994	-1.68939996	83	175	54
-0.515240014	0.408829987	-1.68729997	83	175	54
-0.512459993	0.409000009	-1.68799996	83	175	54
-0.509930015	0.409399986	-1.68959999	83	175	54
-0.507889986	0.410250008	-1.69319999	83	175	54
-0.505089998	0.410420001	-1.69389999	83	175	54
-0.501559973	0.40990001	-1.69169998	83	175	54
-0.49853	0.409839988	-1.69149995	83	175	54
-0.495490015	0.409770012	-1.69120002	83	175	54
-0.490390003	0.412120014	-1.69400001	83	175	54
-0.488779992	0.414950013	-1.69910002	83	175	54
-0.485740006	0.414880008	-1.69879997	83	175	54
-0.482930005	0.41505	-1.69939995	83	175	54
-0.479900002	0.414970011	-1.69910002	83	175	54
-0.476859987	0.414900005	-1.69879997	83	175	54
-0.476170003	0.412690014	-1.69640005	83	175	54
-0.479200006	0.41275999	-1.69669998	83	175	54
-0.481530011	0.412140012	-1.69410002	83	175	54
-0.473140001	0.412609994	-1.6961	83	175	54
-0.469889998	0.412310004	-1.69480002	83	175	54
-0.466419995	0.411769986	-1.69260001	83	175	54
-0.464069992	0.41238001	-1.69509995	83	175	54
-0.465640008	0.415520012	-1.70140004	83	175	54
-0.463050008	0.415899992	-1.70299995	83	175	54
-0.469119996	0.416060001	-1.70360005	83	175	54
-0.471700013	0.415679991	-1.70200002	83	175	54
-0.474510014	0.415520012	-1.70140004	83	175	54
-0.495350003	0.414020002	-1.70190001	83	175	54
-0.498640001	0.414319992	-1.70309997	83	175	54
-0.50168997	0.414380014	-1.7033	83	175	54
-0.505240023	0.414900005	-1.70550001	83	175	54
-0.494210005	0.417329997	-1.70879996	83	175	54
-0.488480002	0.40715	-1.68729997	83	175	54
-0.484750003	0.406399995	-1.68410003	83	175	54
-0.512179971	0.413020015	-1.69770002	83	175	54
-0.514980018	0.412840009	-1.69700003	83	175	54
-0.517530024	0.412440002	-1.6954	83	175	54
-0.521350026	0.413179994	-1.69840002	83	175	54
-0.523890018	0.412779987	-1.69679999	83	175	54
-0.526690006	0.412600011	-1.69599998	83	175	54
-0.530009985	0.412880003	-1.69719994	83	175	54
-0.534120023	0.413839996	-1.70109999	83	175	54
-0.538510025	0.415030003	-1.70599997	83	175	54
-0.541589975	0.415069997	-1.7062	83	175	54
-0.507669985	0.404220015	-1.68190002	83	175	54
-0.504899979	0.404379994	-1.68260002	83	175	54
-0.510439992	0.404049993	-1.68120003	83	175	54
-0.513469994	0.404110014	-1.68149996	83	175	54
-0.515980005	0.403710008	-1.67980003	83	175	54
-0.518999994	0.403759986	-1.67999995	83	175	54
-0.522289991	0.404040009	-1.68120003	83	175	54
-0.525059998	0.403869987	-1.68050003	83	175	54
-0.527040005	0.401470006	-1.67729998	83	175	54
-0.529799998	0.401300013	-1.67659998	83	175	54
-0.532299995	0.400900006	-1.67490005	83	175	54
-0.535049975	0.40072	-1.67420006	83	175	54
-0.538619995	0.40121001	-1.67620003	83	175	54
-0.541649997	0.401259989	-1.67639995	83	175	54
-0.544130027	0.400849998	-1.67470002	83	175	54
-0.545790017	0.398200005	-1.67060006	83	175	54
-0.549090028	0.398470014	-1.6717	83	175	54
-0.552950025	0.399170011	-1.67470002	83	175	54
-0.554870009	0.398319989	-1.67110002	83	175	54
-0.557340026	0.397909999	-1.66939998	83	175	54
-0.560649991	0.398169994	-1.67050004	83	175	54
-0.559239984	0.395480007	-1.66620004	83	175	54
-0.556219995	0.395440012	-1.66600001	83	175	54
-0.553480029	0.395630002	-1.66680002	83	175	54
-0.550180018	0.395370007	-1.66569996	83	175	54
-0.547720015	0.395770013	-1.6674	83	175	54
-0.544420004	0.395509988	-1.66630006	83	175	54
-0.543600023	0.393220007	-1.66390002	83	175	54
-0.546339989	0.393040001	-1.6631	83	175	54
-0.549350023	0.393079996	-1.66330004	83	175	54
-0.552359998	0.393119991	-1.66340005	83	175	54
-0.555100024	0.392940015	-1.66270006	83	175	54
-0.558390021	0.393189996	-1.66369998	83	175	54
-0.561129987	0.39300999	-1.66299999	83	175	54
-0.561699986	0.395069987	-1.66439998	83	175	54
-0.563859999	0.392820001	-1.66219997	83	175	54
-0.566600025	0.392630011	-1.66139996	83	175	54
-0.568750024	0.390370011	-1.65910006	83	175	54
-0.571470022	0.390179992	-1.65830004	83	175	54
-0.574199975	0.389990002	-1.65750003	83	175	54
-0.576919973	0.389800012	-1.65670002	83	175	54
-0.579940021	0.389820009	-1.65680003	83	175	54
-0.582660019	0.38962999	-1.65600002	83	175	54
-0.585680008	0.389649987	-1.65610003	83	175	54
-0.588400006	0.389459997	-1.6552	83	175	54
-0.587499976	0.387169987	-1.65279996	83	175	54
-0.590210021	0.386979997	-1.65199995	83	175	54
-0.592620015	0.386559993	-1.65020001	83	175	54
-0.591709971	0.384279996	-1.64779997	83	175	54
-0.594720006	0.384299994	-1.64789999	83	175	54
-0.597729981	0.384319991	-1.648	83	175	54
-0.599820018	0.38369	-1.64530003	83	175	54
-0.602829993	0.383709997	-1.64530003	83	175	54
-0.605530024	0.383509994	-1.64450002	83	175	54
-0.60522002	0.381689996	-1.64390004	83	175	54
-0.608229995	0.381709993	-1.64400005	83	175	54
-0.611240029	0.381720006	-1.64400005	83	175	54
-0.613940001	0.381520003	-1.64320004	83	175	54
-0.616949975	0.381529987	-1.64320004	83	175	54
-0.619009972	0.380890012	-1.64049995	83	175	54
-0.622990012	0.38154	-1.64330006	83	175	54
-0.625999987	0.381550014	-1.64330006	83	175	54
-0.628700018	0.381339997	-1.64240003	83	175	54
-0.631389976	0.38113001	-1.6415	83	175	54
-0.630739987	0.379119992	-1.63999999	83	175	54
-0.633430004	0.378910005	-1.63909996	83	175	54
-0.636780024	0.379119992	-1.63999999	83	175	54
-0.639469981	0.378910005	-1.63909996	83	175	54
-0.642149985	0.378699988	-1.63820004	83	175	54
-0.644840002	0.378479987	-1.63730001	83	175	54
-0.645510018	0.380490005	-1.63870001	83	175	54
-0.643159986	0.380919993	-1.64059997	83	175	54
-0.640799999	0.381339997	-1.64240003	83	175	54
-0.637769997	0.381339997	-1.64240003	83	175	54
-0.634739995	0.381339997	-1.64240003	83	175	54
-0.636389971	0.384009987	-1.64660001	83	175	54
-0.63369	0.384220004	-1.64760005	83	175	54
-0.629999995	0.383789986	-1.64569998	83	175	54
-0.627300024	0.384000003	-1.64660001	83	175	54
-0.625240028	0.384640008	-1.6494	83	175	54
-0.625890017	0.386700004	-1.65079999	83	175	54
-0.628920019	0.386709988	-1.65079999	83	175	54
-0.632279992	0.386929989	-1.65180004	83	175	54
-0.635649979	0.387140006	-1.65269995	83	175	54
-0.638360023	0.386929989	-1.65180004	83	175	54
-0.641070008	0.386709988	-1.65090001	83	175	54
-0.643450022	0.38628	-1.64900005	83	175	54
-0.646489978	0.38628	-1.64900005	83	175	54
-0.645489991	0.384009987	-1.64660001	83	175	54
-0.647859991	0.383579999	-1.64479995	83	175	54
-0.642459989	0.384009987	-1.64660001	83	175	54
-0.639750004	0.384229988	-1.64760005	83	175	54
-0.636629999	0.389420003	-1.65509999	83	175	54
-0.63391	0.389640003	-1.65600002	83	175	54
-0.63489002	0.39192	-1.65840006	83	175	54
-0.632160008	0.392140001	-1.65929997	83	175	54
-0.629429996	0.392349988	-1.6602	83	175	54
-0.626060009	0.392129987	-1.65919995	83	175	54
-0.623969972	0.392780006	-1.66199994	83	175	54
-0.62124002	0.392989993	-1.66289997	83	175	54
-0.618189991	0.392980009	-1.66279995	83	175	54
-0.61451	0.392529994	-1.66100001	83	175	54
-0.61145997	0.39252001	-1.6609	83	175	54
-0.607800007	0.392069995	-1.65900004	83	175	54
-0.607490003	0.390219986	-1.65849996	83	175	54
-0.604759991	0.39041999	-1.65929997	83	175	54
-0.605069995	0.392280012	-1.65989995	83	175	54
-0.602649987	0.392699987	-1.66170001	83	175	54
-0.600220025	0.393119991	-1.66340005	83	175	54
-0.597180009	0.393099993	-1.66340005	83	175	54
-0.594139993	0.393079996	-1.66330004	83	175	54
-0.595049977	0.395370007	-1.66569996	83	175	54
-0.598100007	0.395390004	-1.66579998	83	175	54
-0.601140022	0.395399988	-1.66579998	83	175	54
-0.604189992	0.395420015	-1.66589999	83	175	54
-0.606930017	0.395209998	-1.66499996	83	175	54
-0.610289991	0.395449996	-1.66600001	83	175	54
-0.613650024	0.39568001	-1.66700006	83	175	54
-0.616710007	0.395689994	-1.66700006	83	175	54
-0.619759977	0.395700008	-1.66709995	83	175	54
-0.62282002	0.395709991	-1.66709995	83	175	54
-0.62620002	0.395929992	-1.6681	83	175	54
-0.628300011	0.395280004	-1.66530001	83	175	54
-0.631039977	0.395060003	-1.66439998	83	175	54
-0.634429991	0.395289987	-1.66530001	83	175	54
-0.637170017	0.395069987	-1.66439998	83	175	54
-0.639900029	0.394849986	-1.66349995	83	175	54
-0.642639995	0.394630015	-1.66260004	83	175	54
-0.642639995	0.39300999	-1.66299999	83	175	54
-0.645699978	0.39300999	-1.66299999	83	175	54
-0.648440003	0.39278999	-1.66199994	83	175	54
-0.652170002	0.393209994	-1.6638	83	175	54
-0.654569983	0.392769992	-1.66199994	83	175	54
-0.658309996	0.39320001	-1.6638	83	175	54
-0.659319997	0.395469993	-1.66610003	83	175	54
-0.656920016	0.395920008	-1.66799998	83	175	54
-0.653840005	0.395929992	-1.66799998	83	175	54
-0.650430024	0.395709991	-1.66709995	83	175	54
-0.647019982	0.395500004	-1.66620004	83	175	54
-0.645600021	0.398180008	-1.67050004	83	175	54
-0.646260023	0.400189996	-1.67190003	83	175	54
-0.643830001	0.400629997	-1.67379999	83	175	54
-0.64042002	0.400409997	-1.67289996	83	175	54
-0.637669981	0.400629997	-1.67379999	83	175	54
-0.634909987	0.400849998	-1.67470002	83	175	54
-0.631829977	0.400849998	-1.67470002	83	175	54
-0.628750026	0.400840014	-1.67470002	83	175	54
-0.625680029	0.400840014	-1.67470002	83	175	54
-0.621969998	0.400389999	-1.67279994	83	175	54
-0.621659994	0.398600012	-1.67219996	83	175	54
-0.624409974	0.398380011	-1.67130005	83	175	54
-0.62747997	0.398389995	-1.67139995	83	175	54
-0.63023001	0.398169994	-1.67050004	83	175	54
-0.632979989	0.397960007	-1.66960001	83	175	54
-0.635399997	0.397520006	-1.66770005	83	175	54
-0.638469994	0.397520006	-1.66770005	83	175	54
-0.64218998	0.397960007	-1.66960001	83	175	54
-0.649010003	0.398389995	-1.67139995	83	175	54
-0.649999976	0.400620013	-1.67379999	83	175	54
-0.65309	0.400620013	-1.67369998	83	175	54
-0.652419984	0.398600012	-1.67229998	83	175	54
-0.655170023	0.398380011	-1.67130005	83	175	54
-0.658259988	0.398369998	-1.67130005	83	175	54
-0.660669982	0.397929996	-1.66939998	83	175	54
-0.663760006	0.397920012	-1.66939998	83	175	54
-0.666499972	0.397689998	-1.66840005	83	175	54
-0.669929981	0.397890002	-1.66929996	83	175	54
-0.67268002	0.397659987	-1.66830003	83	175	54
-0.675419986	0.397419989	-1.66729999	83	175	54
-0.678170025	0.397190005	-1.66630006	83	175	54
-0.67711997	0.394959986	-1.66400003	83	175	54
-0.674390018	0.395190001	-1.66499996	83	175	54
-0.670960009	0.394989997	-1.66410005	83	175	54
-0.670270026	0.392940015	-1.66270006	83	175	54
-0.672659993	0.39249	-1.66079998	83	175	54
-0.675390005	0.392259985	-1.65980005	83	175	54
-0.677770019	0.39181	-1.65789998	83	175	54
-0.679440022	0.389299989	-1.65460002	83	175	54
-0.678740025	0.387239993	-1.65310001	83	175	54
-0.67602998	0.389099985	-1.65369999	83	175	54
-0.673309982	0.38933	-1.65470004	83	175	54
-0.670930028	0.389780015	-1.6566	83	175	54
-0.668550014	0.390219986	-1.65849996	83	175	54
-0.664799988	0.389800012	-1.65670002	83	175	54
-0.661740005	0.389820009	-1.65670002	83	175	54
-0.658680022	0.389829993	-1.65680003	83	175	54
-0.655619979	0.389829993	-1.65680003	83	175	54
-0.652890027	0.390060008	-1.65779996	83	175	54
-0.654600024	0.387549996	-1.65450001	83	175	54
-0.657660007	0.387549996	-1.65439999	83	175	54
-0.660040021	0.387109995	-1.65260005	83	175	54
-0.663089991	0.387100011	-1.65250003	83	175	54
-0.666840017	0.387510002	-1.65429997	83	175	54
-0.669550002	0.387290001	-1.65330005	83	175	54
-0.67227	0.387059987	-1.6523	83	175	54
-0.674979985	0.386830002	-1.65139997	83	175	54
-0.674279988	0.384770006	-1.64989996	83	175	54
-0.671230018	0.384790003	-1.64999998	83	175	54
-0.667140007	0.384160012	-1.6473	83	175	54
-0.664089978	0.384180009	-1.64740002	83	175	54
-0.660700023	0.383969992	-1.64649999	83	175	54
-0.658670008	0.384620011	-1.64929998	83	175	54
-0.655969977	0.384849995	-1.65020001	83	175	54
-0.652580023	0.384640008	-1.64929998	83	175	54
-0.650539994	0.386920005	-1.65170002	83	175	54
-0.648829997	0.389409989	-1.65499997	83	175	54
-0.645780027	0.389420003	-1.65509999	83	175	54
-0.643060029	0.389640003	-1.65600002	83	175	54
-0.640339971	0.389849991	-1.65690005	83	175	54
-0.638920009	0.392580003	-1.66110003	83	175	54
-0.656970024	0.381960005	-1.6451	83	175	54
-0.65933001	0.381520003	-1.64320004	83	175	54
-0.662370026	0.38150999	-1.64320004	83	175	54
-0.665409982	0.381500006	-1.64310002	83	175	54
-0.668449998	0.381489992	-1.64300001	83	175	54
-0.671150029	0.381260008	-1.64209998	83	175	54
-0.674539983	0.381460011	-1.64289999	83	175	54
-0.676530004	0.380809993	-1.6401	83	175	54
-0.679220021	0.380580008	-1.63909996	83	175	54
-0.67851001	0.378580004	-1.63769996	83	175	54
-0.675480008	0.378589988	-1.63769996	83	175	54
-0.672089994	0.378399998	-1.63689995	83	175	54
-0.669749975	0.378839999	-1.63880002	83	175	54
-0.666719973	0.378850013	-1.63880002	83	175	54
-0.663339972	0.37865001	-1.63800001	83	175	54
-0.660650015	0.37887001	-1.63890004	83	175	54
-0.656930029	0.37845999	-1.6372	83	175	54
-0.654250026	0.378679991	-1.63810003	83	175	54
-0.651220024	0.378679991	-1.63810003	83	175	54
-0.648199975	0.378690004	-1.63820004	83	175	54
-0.648869991	0.380699992	-1.63960004	83	175	54
-0.652239978	0.380899996	-1.64049995	83	175	54
-0.655569971	0.375919998	-1.63390005	83	175	54
-0.65824002	0.375699997	-1.6329	83	175	54
-0.661610007	0.3759	-1.63380003	83	175	54
-0.664290011	0.37568	-1.63279998	83	175	54
-0.667659998	0.375880003	-1.63370001	83	175	54
-0.670340002	0.375660002	-1.63269997	83	175	54
-0.673720002	0.375849992	-1.6336	83	175	54
-0.676039994	0.375420004	-1.63170004	83	175	54
-0.679419994	0.375609994	-1.63250005	83	175	54
-0.682449996	0.375589997	-1.63240004	83	175	54
-0.685490012	0.375569999	-1.63230002	83	175	54
-0.686559975	0.377889991	-1.63469994	83	175	54
-0.683879972	0.378120005	-1.63569999	83	175	54
-0.680840015	0.378140002	-1.6358	83	175	54
-0.681909978	0.380349994	-1.63810003	83	175	54
-0.685310006	0.380540013	-1.63900006	83	175	54
-0.688000023	0.380309999	-1.63800001	83	175	54
-0.690320015	0.378280014	-1.63639998	83	175	54
-0.694090009	0.378679991	-1.63810003	83	175	54
-0.691760004	0.380710006	-1.63970006	83	175	54
-0.690150023	0.383170009	-1.64300001	83	175	54
-0.687810004	0.383619994	-1.64499998	83	175	54
-0.685109973	0.383850008	-1.64600003	83	175	54
-0.681699991	0.383659989	-1.6451	83	175	54
-0.678990006	0.383890003	-1.64610004	83	175	54
-0.676639974	0.384330004	-1.648	83	175	54
-0.68216002	0.387430012	-1.65390003	83	175	54
-0.685230017	0.387410015	-1.65390003	83	175	54
-0.689010024	0.387820005	-1.65559995	83	175	54
-0.690079987	0.390089989	-1.65789998	83	175	54
-0.687349975	0.390329987	-1.65890002	83	175	54
-0.688409984	0.392610013	-1.66129994	83	175	54
-0.691139996	0.392379999	-1.66030002	83	175	54
-0.694580019	0.392569989	-1.66110003	83	175	54
-0.698029995	0.392749995	-1.66190004	83	175	54
-0.699109972	0.395020008	-1.66419995	83	175	54
-0.697080016	0.395700008	-1.66709995	83	175	54
-0.693979979	0.395720005	-1.66719997	83	175	54
-0.6954	0.398169994	-1.67040002	83	175	54
-0.69265002	0.398409992	-1.67139995	83	175	54
-0.691309988	0.401089996	-1.67569995	83	175	54
-0.69441998	0.401069999	-1.67560005	83	175	54
-0.698249996	0.401479989	-1.67729998	83	175	54
-0.700649977	0.40101999	-1.67540002	83	175	54
-0.702080011	0.403430015	-1.67869997	83	175	54
-0.699310005	0.403679997	-1.67970002	83	175	54
-0.696539998	0.403919995	-1.68069994	83	175	54
-0.693069994	0.403730005	-1.67990005	83	175	54
-0.689249992	0.403320014	-1.67820001	83	175	54
-0.686479986	0.403560013	-1.67920005	83	175	54
-0.684059978	0.404020011	-1.68110001	83	175	54
-0.680949986	0.404040009	-1.68120003	83	175	54
-0.677489996	0.403840005	-1.6803	83	175	54
-0.67404002	0.403629988	-1.67949998	83	175	54
-0.670930028	0.403649986	-1.6796	83	175	54
-0.667819977	0.403659999	-1.6796	83	175	54
-0.664380014	0.403450012	-1.67869997	83	175	54
-0.666469991	0.401239991	-1.67630005	83	175	54
-0.669570029	0.401219994	-1.67630005	83	175	54
-0.671639979	0.400550008	-1.67349994	83	175	54
-0.674399972	0.400319993	-1.67250001	83	175	54
-0.677150011	0.400079995	-1.67149997	83	175	54
-0.682299972	0.397819996	-1.66900003	83	175	54
-0.685400009	0.397799999	-1.66890001	83	175	54
-0.688139975	0.39756	-1.66789997	83	175	54
-0.68708998	0.395339996	-1.66550004	83	175	54
-0.689830005	0.395099998	-1.6645	83	175	54
-0.685679972	0.392850012	-1.66229999	83	175	54
-0.682250023	0.392659992	-1.66149998	83	175	54
-0.679859996	0.394730002	-1.66299999	83	175	54
-0.683650017	0.395139992	-1.66470003	83	175	54
-0.683920026	0.390139997	-1.65810001	83	175	54
-0.692439973	0.388009995	-1.65639997	83	175	54
-0.693159997	0.390069991	-1.65779996	83	175	54
-0.696240008	0.390049994	-1.65769994	83	175	54
-0.696799994	0.386889994	-1.6516	83	175	54
-0.693009973	0.386489987	-1.64989996	83	175	54
-0.693560004	0.383359998	-1.64380002	83	175	54
-0.687849998	0.400900006	-1.67490005	83	175	54
-0.685090005	0.401140004	-1.67589998	83	175	54
-0.681980014	0.401160002	-1.676	83	175	54
-0.663030028	0.401030004	-1.67550004	83	175	54
-0.660269976	0.401259989	-1.67639995	83	175	54
-0.66061002	0.403019994	-1.67700005	83	175	54
-0.657509983	0.403030008	-1.67700005	83	175	54
-0.656840026	0.401050001	-1.67550004	83	175	54
-0.654420018	0.403039992	-1.67700005	83	175	54
-0.652310014	0.403710008	-1.67980003	83	175	54
-0.649550021	0.403930008	-1.68069994	83	175	54
-0.646449983	0.403939992	-1.68079996	83	175	54
-0.643029988	0.403719991	-1.67990005	83	175	54
-0.640579998	0.404159993	-1.68169999	83	175	54
-0.637489974	0.404159993	-1.68169999	83	175	54
-0.634079993	0.403939992	-1.68079996	83	175	54
-0.630670011	0.403719991	-1.67980003	83	175	54
-0.627269983	0.403490007	-1.6789	83	175	54
-0.623870015	0.403259993	-1.67799997	83	175	54
-0.621100008	0.403479993	-1.67879999	83	175	54
-0.618340015	0.40369001	-1.67970002	83	175	54
-0.615260005	0.403679997	-1.67970002	83	175	54
-0.611559987	0.403219998	-1.67780006	83	175	54
-0.608799994	0.403430015	-1.67869997	83	175	54
-0.605729997	0.403420001	-1.67859995	83	175	54
-0.60266	0.403400004	-1.67850006	83	175	54
-0.599889994	0.403609991	-1.67939997	83	175	54
-0.596520007	0.403369993	-1.67840004	83	175	54
-0.59404999	0.403789997	-1.68019998	83	175	54
-0.591289997	0.404000014	-1.68099999	83	175	54
-0.588810027	0.404419988	-1.68280005	83	175	54
-0.586329997	0.404839993	-1.68449998	83	175	54
-0.58355999	0.405039996	-1.68540001	83	175	54
-0.58326	0.406379998	-1.68410003	83	175	54
-0.58209002	0.402370006	-1.68110001	83	175	54
-0.584860027	0.402179986	-1.6803	83	175	54
-0.586149991	0.400869995	-1.67480004	83	175	54
-0.588909984	0.400669992	-1.67390001	83	175	54
-0.591960013	0.400689989	-1.67400002	83	175	54
-0.595319986	0.400929987	-1.67499995	83	175	54
-0.597769976	0.400510013	-1.67330003	83	175	54
-0.600220025	0.400079995	-1.67149997	83	175	54
-0.599619985	0.398070008	-1.66999996	83	175	54
-0.602970004	0.398310006	-1.671	83	175	54
-0.605419993	0.397879988	-1.66919994	83	175	54
-0.608470023	0.397890002	-1.66929996	83	175	54
-0.611530006	0.397909999	-1.66929996	83	175	54
-0.61552	0.398580015	-1.67219996	83	175	54
-0.616150022	0.400590003	-1.67359996	83	175	54
-0.618900001	0.400379986	-1.67270005	83	175	54
-0.618279994	0.398369998	-1.67130005	83	175	54
-0.613080025	0.400579989	-1.67359996	83	175	54
-0.610329986	0.400790006	-1.67449999	83	175	54
-0.606949985	0.400559992	-1.67349994	83	175	54
-0.603890002	0.400539994	-1.67340004	83	175	54
-0.595960021	0.397610009	-1.6681	83	175	54
-0.593509972	0.398030013	-1.66989994	83	175	54
-0.592610002	0.395790011	-1.66750002	83	175	54
-0.589869976	0.395990014	-1.66830003	83	175	54
-0.590170026	0.397790015	-1.6688	83	175	54
-0.585039973	0.393020004	-1.66299999	83	175	54
-0.587180018	0.392379999	-1.66030002	83	175	54
-0.590510011	0.392630011	-1.66129994	83	175	54
-0.592029989	0.389919996	-1.65719998	83	175	54
-0.594749987	0.389719993	-1.65629995	83	175	54
-0.598079979	0.389950007	-1.6573	83	175	54
-0.601109982	0.389970005	-1.65740001	83	175	54
-0.602289975	0.387050003	-1.6523	83	175	54
-0.605000019	0.386849999	-1.65139997	83	175	54
-0.608030021	0.386860013	-1.65149999	83	175	54
-0.611370027	0.387089998	-1.65250003	83	175	54
-0.614709973	0.387320012	-1.65349996	83	175	54
-0.617429972	0.387109995	-1.65260005	83	175	54
-0.620459974	0.387120008	-1.65260005	83	175	54
-0.622850001	0.386700004	-1.65079999	83	175	54
