-0.843029976	-0.537760019	-1.44840002	11	149	42
-0.843500018	-0.539569974	-1.44869995	11	149	42
-0.843500018	-0.541050017	-1.44819999	11	149	42
-0.845950007	-0.541989982	-1.44640005	11	149	42
-0.846889973	-0.541209996	-1.44860005	11	149	42
-0.849820018	-0.541059971	-1.44819999	11	149	42
-0.849820018	-0.539579988	-1.44869995	11	149	42
-0.849820018	-0.538079977	-1.44930005	11	149	42
-0.85029	-0.536909997	-1.45070004	11	149	42
-0.85273999	-0.536450028	-1.44939995	11	149	42
-0.85273999	-0.537930012	-1.44889998	11	149	42
-0.852270007	-0.539120018	-1.44749999	11	149	42
-0.852270007	-0.540600002	-1.44700003	11	149	42
-0.851790011	-0.541679978	-1.44560003	11	149	42
-0.849340022	-0.542140007	-1.44679999	11	149	42
-0.847930014	-0.54400003	-1.44330001	11	149	42
-0.847450018	-0.542299986	-1.44299996	11	149	42
-0.849900007	-0.541830003	-1.4418	11	149	42
-0.849900007	-0.543219984	-1.44130003	11	149	42
-0.851859987	-0.542450011	-1.43920004	11	149	42
-0.851859987	-0.543850005	-1.43869996	11	149	42
-0.851859987	-0.54539001	-1.43809998	11	149	42
-0.852810025	-0.547500014	-1.43920004	11	149	42
-0.855250001	-0.547029972	-1.43789995	11	149	42
-0.854290009	-0.547720015	-1.43579996	11	149	42
-0.856729984	-0.547249973	-1.4346	11	149	42
-0.855769992	-0.54531002	-1.43340003	11	149	42
-0.856729984	-0.544449985	-1.43560004	11	149	42
-0.854290009	-0.544920027	-1.43690002	11	149	42
-0.854770005	-0.542289972	-1.43879998	11	149	42
-0.855729997	-0.544319987	-1.43990004	11	149	42
-0.858640015	-0.544160008	-1.43949997	11	149	42
-0.858160019	-0.542450011	-1.43920004	11	149	42
-0.855729997	-0.54152	-1.44099998	11	149	42
-0.852810025	-0.541679978	-1.44140005	11	149	42
-0.857159972	-0.541059971	-1.44400001	11	149	42
-0.857630014	-0.539979994	-1.44529998	11	149	42
-0.858110011	-0.538810015	-1.44669998	11	149	42
-0.855660021	-0.539279997	-1.44790006	11	149	42
-0.855189979	-0.540449977	-1.44649994	11	149	42
-0.855189979	-0.541840017	-1.44599998	11	149	42
-0.859600008	-0.541980028	-1.44219995	11	149	42
-0.861559987	-0.541209996	-1.44009995	11	149	42
-0.862519979	-0.543219984	-1.44120002	11	149	42
-0.861559987	-0.54400003	-1.43910003	11	149	42
-0.864000022	-0.543529987	-1.43780005	11	149	42
-0.864000022	-0.545059979	-1.43719995	11	149	42
-0.864960015	-0.547169983	-1.43830001	11	149	42
-0.867399991	-0.548009992	-1.43659997	11	149	42
-0.868359983	-0.547320008	-1.43869996	11	149	42
-0.867399991	-0.54519999	-1.43760002	11	149	42
-0.867879987	-0.543980002	-1.43900001	11	149	42
-0.868849993	-0.543200016	-1.44120002	11	149	42
-0.868849993	-0.541809976	-1.44169998	11	149	42
-0.865920007	-0.541970015	-1.44219995	11	149	42
-0.865440011	-0.543049991	-1.44079995	11	149	42
-0.870800018	-0.54381001	-1.43859994	11	149	42
-0.869830012	-0.544730008	-1.43640006	11	149	42
-0.870800018	-0.546840012	-1.43739998	11	149	42
-0.872749984	-0.546039999	-1.43540001	11	149	42
-0.872749984	-0.547360003	-1.43490005	11	149	42
-0.871779978	-0.54806	-1.43270004	11	149	42
-0.870800018	-0.548950016	-1.43050003	11	149	42
-0.86838001	-0.549430013	-1.43180001	11	149	42
-0.86838001	-0.547919989	-1.43229997	11	149	42
-0.869340003	-0.547219992	-1.43449998	11	149	42
-0.865459979	-0.548089981	-1.43280005	11	149	42
-0.865949988	-0.549910009	-1.43299997	11	149	42
-0.86789	-0.550620019	-1.43040001	11	149	42
-0.867410004	-0.551829994	-1.42900002	11	149	42
-0.866919994	-0.552990019	-1.42760003	11	149	42
-0.864009976	-0.553160012	-1.42799997	11	149	42
-0.864009976	-0.551689982	-1.42859995	11	149	42
-0.864499986	-0.550480008	-1.42999995	11	149	42
-0.862070024	-0.54944998	-1.43180001	11	149	42
-0.862070024	-0.547940016	-1.43239999	11	149	42
-0.863030016	-0.547240019	-1.43449998	11	149	42
-0.860599995	-0.546400011	-1.43630004	11	149	42
-0.859640002	-0.547089994	-1.43410003	11	149	42
-0.859640002	-0.548420012	-1.43359995	11	149	42
-0.857720017	-0.548669994	-1.42980003	11	149	42
-0.856280029	-0.54922998	-1.42680001	11	149	42
-0.856280029	-0.550750017	-1.42620003	11	149	42
-0.856760025	-0.552540004	-1.42639995	11	149	42
-0.856280029	-0.553579986	-1.42509997	11	149	42
-0.859660029	-0.552380025	-1.426	11	149	42
-0.859660029	-0.550909996	-1.42659998	11	149	42
-0.860140026	-0.554050028	-1.42630005	11	149	42
-0.86352998	-0.554199994	-1.4267	11	149	42
-0.865469992	-0.55339998	-1.42460001	11	149	42
-0.867399991	-0.552600026	-1.42250001	11	149	42
-0.866429985	-0.553349972	-1.42040002	11	149	42
-0.867399991	-0.555480003	-1.42139995	11	149	42
-0.868369997	-0.557569981	-1.42250001	11	149	42
-0.870790005	-0.557079971	-1.42120004	11	149	42
-0.870299995	-0.555299997	-1.421	11	149	42
-0.869319975	-0.553170025	-1.41989994	11	149	42
-0.869319975	-0.551789999	-1.42050004	11	149	42
-0.87221998	-0.552999973	-1.41949999	11	149	42
-0.87221998	-0.55448997	-1.41890001	11	149	42
-0.87270999	-0.551940024	-1.42079997	11	149	42
-0.874180019	-0.551530004	-1.42379999	11	149	42
-0.872250021	-0.552330017	-1.42589998	11	149	42
-0.87322998	-0.551490009	-1.42809999	11	149	42
-0.87322998	-0.549969971	-1.42869997	11	149	42
-0.874199986	-0.549090028	-1.43089998	11	149	42
-0.87371999	-0.54727	-1.43060005	11	149	42
-0.87322998	-0.545629978	-1.4303	11	149	42
-0.87371999	-0.544629991	-1.43159997	11	149	42
-0.874199986	-0.543460011	-1.43299997	11	149	42
-0.872749984	-0.544560015	-1.43589997	11	149	42
-0.87371999	-0.543640018	-1.43809998	11	149	42
-0.876640022	-0.543470025	-1.43770003	11	149	42
-0.878109992	-0.542999983	-1.44070005	11	149	42
-0.878109992	-0.541610003	-1.44120002	11	149	42
-0.880540013	-0.541119993	-1.43990004	11	149	42
-0.880540013	-0.539740026	-1.4404	11	149	42
-0.880540013	-0.542509973	-1.43939996	11	149	42
-0.880060017	-0.543609977	-1.43799996	11	149	42
-0.880540013	-0.545449972	-1.43830001	11	149	42
-0.882979989	-0.544960022	-1.43700004	11	149	42
-0.88102001	-0.542200029	-1.43429995	11	149	42
-0.880029976	-0.540189981	-1.4332	11	149	42
-0.880029976	-0.537429988	-1.43420005	11	149	42
-0.881510019	-0.536960006	-1.43719995	11	149	42
-0.882000029	-0.540030003	-1.43700004	11	149	42
-0.883469999	-0.536710024	-1.44099998	11	149	42
-0.884450018	-0.535820007	-1.44319999	11	149	42
-0.885429978	-0.534950018	-1.4454	11	149	42
-0.887380004	-0.532710016	-1.44379997	11	149	42
-0.886420012	-0.532660007	-1.44809997	11	149	42
-0.887399971	-0.531830013	-1.45029998	11	149	42
-0.885439992	-0.53403002	-1.45179999	11	149	42
-0.885930002	-0.535780013	-1.45210004	11	149	42
-0.884949982	-0.536639988	-1.45000005	11	149	42
-0.883970022	-0.537509978	-1.44780004	11	149	42
-0.883970022	-0.539009988	-1.44719994	11	149	42
-0.882009983	-0.539799988	-1.44930005	11	149	42
-0.882009983	-0.538290024	-1.44990003	11	149	42
-0.879559994	-0.537289977	-1.45169997	11	149	42
-0.88053	-0.536419988	-1.45389998	11	149	42
-0.883469999	-0.536249995	-1.45340002	11	149	42
-0.883469999	-0.537720025	-1.45290005	11	149	42
-0.884940028	-0.535709977	-1.45640004	11	149	42
-0.885909975	-0.534879982	-1.45860004	11	149	42
-0.886889994	-0.533949971	-1.46080005	11	149	42
-0.883930027	-0.534120023	-1.46130002	11	149	42
-0.882960021	-0.535049975	-1.45910001	11	149	42
-0.883449972	-0.536790013	-1.45930004	11	149	42
-0.879530013	-0.536360025	-1.45819998	11	149	42
-0.879530013	-0.534919977	-1.45869994	11	149	42
-0.879530013	-0.533389986	-1.45930004	11	149	42
-0.877539992	-0.534160018	-1.46140003	11	149	42
-0.877059996	-0.535390019	-1.46000004	11	149	42
-0.87458998	-0.534319997	-1.46179998	11	149	42
-0.873149991	-0.534950018	-1.45879996	11	149	42
-0.871219993	-0.535179973	-1.45500004	11	149	42
-0.870739996	-0.536319971	-1.45360005	11	149	42
-0.870739996	-0.53779	-1.45309997	11	149	42
-0.87026	-0.538969994	-1.45169997	11	149	42
-0.869289994	-0.53986001	-1.44949996	11	149	42
-0.869289994	-0.541339993	-1.44889998	11	149	42
-0.868330002	-0.54211998	-1.44679999	11	149	42
-0.865880013	-0.542590022	-1.44799995	11	149	42
-0.866360009	-0.541509986	-1.44939995	11	149	42
-0.866360009	-0.540030003	-1.44990003	11	149	42
-0.864870012	-0.539600015	-1.45340002	11	149	42
-0.865339994	-0.538420022	-1.45480001	11	149	42
-0.865819991	-0.535809994	-1.45669997	11	149	42
-0.865819991	-0.534370005	-1.45720005	11	149	42
-0.865819991	-0.532840014	-1.45780003	11	149	42
-0.863359988	-0.533299983	-1.45899999	11	149	42
-0.863839984	-0.535130024	-1.45930004	11	149	42
-0.862410009	-0.535660028	-1.45630002	11	149	42
-0.861930013	-0.536800027	-1.45490003	11	149	42
-0.86097002	-0.537670016	-1.45270002	11	149	42
-0.860019982	-0.538529992	-1.45050001	11	149	42
-0.857089996	-0.538689971	-1.45099998	11	149	42
-0.857569993	-0.537519991	-1.45229995	11	149	42
-0.857569993	-0.536050022	-1.45290005	11	149	42
-0.854640007	-0.536199987	-1.4533	11	149	42
-0.851710021	-0.536350012	-1.45369995	11	149	42
-0.850189984	-0.535969973	-1.45710003	11	149	42
-0.851130009	-0.535139978	-1.45930004	11	149	42
-0.851130009	-0.533609986	-1.45990002	11	149	42
-0.853600025	-0.533159971	-1.45860004	11	149	42
-0.853600025	-0.534690022	-1.45809996	11	149	42
-0.854070008	-0.536430001	-1.45840001	11	149	42
-0.856060028	-0.535669982	-1.45630002	11	149	42
-0.856530011	-0.534539998	-1.45770001	11	149	42
-0.857010007	-0.533309996	-1.45899999	11	149	42
-0.860419989	-0.534990013	-1.45889997	11	149	42
-0.860899985	-0.533760011	-1.46029997	11	149	42
-0.858990014	-0.535520017	-1.45589995	11	149	42
-0.863910019	-0.536040008	-1.45280004	11	149	42
-0.868279994	-0.536790013	-1.45490003	11	149	42
-0.86875999	-0.535650015	-1.4562	11	149	42
-0.86875999	-0.534210026	-1.45679998	11	149	42
-0.869239986	-0.532980025	-1.45809996	11	149	42
-0.869239986	-0.538869977	-1.45599997	11	149	42
-0.868279994	-0.539740026	-1.45379996	11	149	42
-0.873199999	-0.538800001	-1.45130002	11	149	42
-0.873679996	-0.537630022	-1.4526	11	149	42
-0.873679996	-0.536159992	-1.45319998	11	149	42
-0.874159992	-0.535019994	-1.45449996	11	149	42
-0.877099991	-0.53628999	-1.45350003	11	149	42
-0.877099991	-0.537760019	-1.45299995	11	149	42
-0.875649989	-0.538330019	-1.45000005	11	149	42
-0.874679983	-0.539219975	-1.44780004	11	149	42
-0.875159979	-0.541010022	-1.44799995	11	149	42
-0.875159979	-0.542400002	-1.44749999	11	149	42
-0.878099978	-0.54223001	-1.44710004	11	149	42
-0.878579974	-0.541149974	-1.44840002	11	149	42
-0.879069984	-0.539969981	-1.44980001	11	149	42
-0.878579974	-0.538160026	-1.44949996	11	149	42
-0.881030023	-0.540669978	-1.44710004	11	149	42
-0.879570007	-0.54114002	-1.44420004	11	149	42
-0.882009983	-0.539269984	-1.44340003	11	149	42
-0.875670016	-0.542079985	-1.4425	11	149	42
-0.876640022	-0.544089973	-1.44360006	11	149	42
-0.873220026	-0.543950021	-1.44319999	11	149	42
-0.872250021	-0.541949987	-1.44210005	11	149	42
-0.870299995	-0.541339993	-1.4447	11	149	42
-0.872229993	-0.539699972	-1.449	11	149	42
-0.87270999	-0.541480005	-1.44930005	11	149	42
-0.862469971	-0.539569974	-1.44869995	11	149	42
-0.862469971	-0.542450011	-1.44760001	11	149	42
-0.86056	-0.539830029	-1.44490004	11	149	42
-0.888379991	-0.535300016	-1.45079994	11	149	42
-0.889360011	-0.531499982	-1.45410001	11	149	42
-0.89082998	-0.530430019	-1.45120001	11	149	42
-0.887889981	-0.534099996	-1.45650005	11	149	42
-0.888379991	-0.532869995	-1.45780003	11	149	42
-0.848200023	-0.535290003	-1.45969999	11	149	42
-0.847729981	-0.533460021	-1.45940006	11	149	42
-0.844799995	-0.533599973	-1.4598	11	149	42
-0.844330013	-0.534829974	-1.45840001	11	149	42
-0.847259998	-0.536119998	-1.45749998	11	149	42
-0.844910026	-0.536040008	-1.45280004	11	149	42
-0.844910026	-0.537509978	-1.45229995	11	149	42
-0.847370028	-0.537060022	-1.45109999	11	149	42
-0.847370028	-0.535589993	-1.45159996	11	149	42
-0.84641999	-0.537919998	-1.44889998	11	149	42
-0.845480025	-0.538810015	-1.44669998	11	149	42
-0.841629982	-0.541199982	-1.44430006	11	149	42
-0.841159999	-0.542280018	-1.44299996	11	149	42
-0.841159999	-0.543669999	-1.4425	11	149	42
-0.841159999	-0.545080006	-1.44190001	11	149	42
-0.844070017	-0.544929981	-1.44149995	11	149	42
-0.84454	-0.543839991	-1.44289994	11	149	42
-0.844070017	-0.542129993	-1.44260001	11	149	42
-0.846509993	-0.544470012	-1.44029999	11	149	42
-0.843129992	-0.545840025	-1.43929994	11	149	42
-0.849900007	-0.547659993	-1.43959999	11	149	42
-0.851379991	-0.547879994	-1.43620002	11	149	42
-0.859640002	-0.544290006	-1.43519998	11	149	42
-0.861100018	-0.550329983	-1.4296	11	149	42
-0.861109972	-0.55400002	-1.42209995	11	149	42
-0.861599982	-0.555819988	-1.42229998	11	149	42
-0.861599982	-0.55726999	-1.4217	11	149	42
-0.864009976	-0.556779981	-1.42050004	11	149	42
-0.864009976	-0.555329978	-1.421	11	149	42
-0.864009976	-0.553830028	-1.42159998	11	149	42
-0.857729971	-0.553849995	-1.4217	11	149	42
-0.857249975	-0.555019975	-1.42030001	11	149	42
-0.858210027	-0.557120025	-1.42130005	11	149	42
-0.856769979	-0.557510018	-1.41830003	11	149	42
-0.869830012	-0.552820027	-1.42709994	11	149	42
-0.870320022	-0.551660001	-1.42850006	11	149	42
-0.869340003	-0.549510002	-1.42750001	11	149	42
-0.875159979	-0.547659993	-1.42719996	11	149	42
-0.876139998	-0.549790025	-1.42820001	11	149	42
-0.876630008	-0.55163002	-1.42840004	11	149	42
-0.877610028	-0.547720015	-1.43180001	11	149	42
-0.876630008	-0.545769989	-1.43069994	11	149	42
-0.875649989	-0.543839991	-1.4296	11	149	42
-0.875620008	-0.544430017	-1.42320001	11	149	42
-0.875129998	-0.541499972	-1.42340004	11	149	42
-0.874140024	-0.542180002	-1.42130005	11	149	42
-0.873160005	-0.544369996	-1.41859996	11	149	42
-0.874629974	-0.546800017	-1.42040002	11	149	42
-0.876110017	-0.54926002	-1.42229998	11	149	42
-0.874140024	-0.552190006	-1.4174	11	149	42
-0.875069976	-0.537999988	-1.41859996	11	149	42
-0.878030002	-0.535570025	-1.42509997	11	149	42
-0.878030002	-0.531369984	-1.4267	11	149	42
-0.835680008	-0.543500006	-1.45050001	11	149	42
-0.853630006	-0.567269981	-1.37810004	11	149	42
-0.852649987	-0.567990005	-1.37590003	11	149	42
-0.852050006	-0.562740028	-1.37100005	11	149	42
-0.847259998	-0.567110002	-1.36590004	11	149	42
-0.846289992	-0.567659974	-1.36380005	11	149	42
-0.855579972	-0.575290024	-1.37849998	11	149	42
-0.853219986	-0.577210009	-1.37919998	11	149	42
-0.85086	-0.577719986	-1.38039994	11	149	42
-0.850380003	-0.575969994	-1.38020003	11	149	42
-0.848010004	-0.576470017	-1.38139999	11	149	42
-0.848500013	-0.578230023	-1.38160002	11	149	42
-0.847039998	-0.578639984	-1.3786	11	149	42
-0.849399984	-0.578130007	-1.37740004	11	149	42
-0.850790024	-0.57694	-1.37450004	11	149	42
-0.849810004	-0.577769995	-1.37230003	11	149	42
-0.849319994	-0.578859985	-1.37090003	11	149	42
-0.848829985	-0.579770029	-1.36960006	11	149	42
-0.848349988	-0.580680013	-1.36819994	11	149	42
-0.846000016	-0.58118999	-1.36940002	11	149	42
-0.846000016	-0.58257997	-1.36880004	11	149	42
-0.845510006	-0.583630025	-1.36740005	11	149	42
-0.843649983	-0.583090007	-1.37	11	149	42
-0.841300011	-0.583599985	-1.37119997	11	149	42
-0.841780007	-0.582549989	-1.37259996	11	149	42
-0.842260003	-0.581629992	-1.37399995	11	149	42
-0.842750013	-0.580730021	-1.37530005	11	149	42
-0.842260003	-0.578960001	-1.37510002	11	149	42
-0.842750013	-0.577790022	-1.37650001	11	149	42
-0.843710005	-0.577040017	-1.37880003	11	149	42
-0.844200015	-0.57595998	-1.38020003	11	149	42
-0.842320025	-0.576799989	-1.3822	11	149	42
-0.839470029	-0.576969981	-1.38259995	11	149	42
-0.837100029	-0.576200008	-1.38429999	11	149	42
-0.833779991	-0.576030016	-1.38380003	11	149	42
-0.833779991	-0.574779987	-1.38440001	11	149	42
-0.830449998	-0.575839996	-1.38339996	11	149	42
-0.82950002	-0.573930025	-1.38230002	11	149	42
-0.829980016	-0.572889984	-1.38370001	11	149	42
-0.827139974	-0.574419975	-1.38349998	11	149	42
-0.827610016	-0.575999975	-1.38380003	11	149	42
-0.826659977	-0.572700024	-1.38320005	11	149	42
-0.825720012	-0.575900018	-1.38	11	149	42
-0.825720012	-0.577310026	-1.37940001	11	149	42
-0.826189995	-0.579079986	-1.37960005	11	149	42
-0.829029977	-0.578920007	-1.3793	11	149	42
-0.828549981	-0.577160001	-1.37899995	11	149	42
-0.828549981	-0.575749993	-1.37960005	11	149	42
-0.831390023	-0.575590014	-1.3793	11	149	42
-0.830910027	-0.576669991	-1.3779	11	149	42
-0.831390023	-0.578429997	-1.37810004	11	149	42
-0.830429971	-0.579259992	-1.37580001	11	149	42
-0.830910027	-0.581030011	-1.37600005	11	149	42
-0.832790017	-0.578760028	-1.37460005	11	149	42
-0.833270013	-0.576170027	-1.37670004	11	149	42
-0.834230006	-0.578270018	-1.37769997	11	149	42
-0.836109996	-0.57743001	-1.3757	11	149	42
-0.837069988	-0.576690018	-1.3779	11	149	42
-0.837069988	-0.579620004	-1.37670004	11	149	42
-0.838029981	-0.581740022	-1.37769997	11	149	42
-0.840390027	-0.581229985	-1.37650001	11	149	42
-0.840870023	-0.580139995	-1.3779	11	149	42
-0.840390027	-0.576870024	-1.37829995	11	149	42
-0.838940024	-0.577269971	-1.37530005	11	149	42
-0.837979972	-0.580770016	-1.37189996	11	149	42
-0.838940024	-0.582719982	-1.37300003	11	149	42
-0.838460028	-0.583769977	-1.37160003	11	149	42
-0.840330005	-0.584309995	-1.36899996	11	149	42
-0.839359999	-0.585039973	-1.36679995	11	149	42
-0.841709971	-0.58592999	-1.36500001	11	149	42
-0.841220021	-0.586899996	-1.36370003	11	149	42
-0.840740025	-0.587870002	-1.36230004	11	149	42
-0.839770019	-0.588569999	-1.36010003	11	149	42
-0.839290023	-0.589619994	-1.35870004	11	149	42
-0.841620028	-0.589100003	-1.35749996	11	149	42
-0.842589974	-0.58841002	-1.35969996	11	149	42
-0.842589974	-0.587010026	-1.36029994	11	149	42
-0.842589974	-0.585690022	-1.36090004	11	149	42
-0.844929993	-0.58385998	-1.36020005	11	149	42
-0.845420003	-0.582819998	-1.36160004	11	149	42
-0.846390009	-0.58209002	-1.36380005	11	149	42
-0.846880019	-0.581040025	-1.36520004	11	149	42
-0.849219978	-0.579150021	-1.36459994	11	149	42
-0.850690007	-0.576250017	-1.36870003	11	149	42
-0.846970022	-0.577939987	-1.37269998	11	149	42
-0.847940028	-0.580049992	-1.37370002	11	149	42
-0.848429978	-0.581640005	-1.37399995	11	149	42
-0.846069992	-0.582149982	-1.37520003	11	149	42
-0.845589995	-0.580560029	-1.37489998	11	149	42
-0.844619989	-0.578450024	-1.37390006	11	149	42
-0.845099986	-0.582729995	-1.37300003	11	149	42
-0.842190027	-0.583450019	-1.36699998	11	149	42
-0.840740025	-0.583840013	-1.36399996	11	149	42
-0.843569994	-0.58367002	-1.36360002	11	149	42
-0.84404999	-0.585409999	-1.36380005	11	149	42
-0.844929993	-0.586499989	-1.35909998	11	149	42
-0.844439983	-0.587539971	-1.35769999	11	149	42
-0.843469977	-0.588240027	-1.35549998	11	149	42
-0.842490017	-0.588930011	-1.35329998	11	149	42
-0.839680016	-0.589100003	-1.35370004	11	149	42
-0.837830007	-0.589969993	-1.35570002	11	149	42
-0.835889995	-0.589940012	-1.35189998	11	149	42
-0.835889995	-0.591220021	-1.3513	11	149	42
-0.836380005	-0.592869997	-1.35150003	11	149	42
-0.836860001	-0.594590008	-1.35169995	11	149	42
-0.83822	-0.590709984	-1.35010004	11	149	42
-0.83822	-0.589420021	-1.35070002	11	149	42
-0.831719995	-0.591310024	-1.35500002	11	149	42
-0.830749989	-0.591899991	-1.35280001	11	149	42
-0.830749989	-0.593200028	-1.35230005	11	149	42
-0.828419983	-0.592419982	-1.35399997	11	149	42
-0.827939987	-0.590770006	-1.35380006	11	149	42
-0.827939987	-0.589410007	-1.35440004	11	149	42
-0.82889998	-0.588720024	-1.35660005	11	149	42
-0.827049971	-0.589569986	-1.35860002	11	149	42
-0.827049971	-0.586790025	-1.35979998	11	149	42
-0.825190008	-0.587639987	-1.36170006	11	149	42
-0.826139987	-0.587010026	-1.36389995	11	149	42
-0.82565999	-0.585349977	-1.36370003	11	149	42
-0.825190008	-0.583609998	-1.3635	11	149	42
-0.823319972	-0.58585	-1.36479998	11	149	42
-0.822839975	-0.586820006	-1.3635	11	149	42
-0.821889997	-0.587440014	-1.36129999	11	149	42
-0.821889997	-0.588840008	-1.36070001	11	149	42
-0.820940018	-0.589529991	-1.3585	11	149	42
-0.823279977	-0.589030027	-1.35730004	11	149	42
-0.824230015	-0.588339984	-1.35950005	11	149	42
-0.828480005	-0.589230001	-1.36160004	11	149	42
-0.83130002	-0.589070022	-1.36119998	11	149	42
-0.829859972	-0.586629987	-1.35940003	11	149	42
-0.832199991	-0.588909984	-1.35699999	11	149	42
-0.830749989	-0.589250028	-1.35399997	11	149	42
-0.827459991	-0.593010008	-1.35179996	11	149	42
-0.825609982	-0.592570007	-1.35440004	11	149	42
-0.826089978	-0.591639996	-1.35570002	11	149	42
-0.825129986	-0.589559972	-1.35469997	11	149	42
-0.822799981	-0.591440022	-1.35529995	11	149	42
-0.822319984	-0.592379987	-1.35389996	11	149	42
-0.823700011	-0.592459977	-1.3506	11	149	42
-0.820890009	-0.588670015	-1.3527	11	149	42
-0.818090022	-0.590189993	-1.35239995	11	149	42
-0.816190004	-0.587419987	-1.34979999	11	149	42
-0.81803	-0.590499997	-1.34609997	11	149	42
-0.811540008	-0.59236002	-1.35039997	11	149	42
-0.810150027	-0.592270017	-1.35370004	11	149	42
-0.807820022	-0.59276998	-1.35479999	11	149	42
-0.808290005	-0.594420016	-1.35510004	11	149	42
-0.811569989	-0.594630003	-1.35549998	11	149	42
-0.80734998	-0.589760005	-1.35520005	11	149	42
-0.806410015	-0.590420008	-1.35300004	11	149	42
-0.807330012	-0.587499976	-1.35000002	11	149	42
-0.80686003	-0.588509977	-1.34860003	11	149	42
-0.803600013	-0.585560024	-1.34930003	11	149	42
-0.801739991	-0.593089998	-1.34829998	11	149	42
-0.800809979	-0.593739986	-1.34609997	11	149	42
-0.798489988	-0.594229996	-1.34720004	11	149	42
-0.798489988	-0.595550001	-1.34660006	11	149	42
-0.798020005	-0.596499979	-1.34529996	11	149	42
-0.800809979	-0.596360028	-1.34490001	11	149	42
-0.803600013	-0.596220016	-1.34459996	11	149	42
-0.804069996	-0.595269978	-1.34599996	11	149	42
-0.803129971	-0.593240023	-1.34500003	11	149	42
-0.805909991	-0.593100011	-1.34469998	11	149	42
-0.80776	-0.59088999	-1.34329998	11	149	42
-0.809180021	-0.593309999	-1.34510005	11	149	42
-0.807799995	-0.593159974	-1.34850001	11	149	42
-0.806410015	-0.594370008	-1.35119998	11	149	42
-0.802209973	-0.59612	-1.34800005	11	149	42
-0.798950016	-0.593230009	-1.34860003	11	149	42
-0.799419999	-0.592220008	-1.35000002	11	149	42
-0.798020005	-0.599189997	-1.3441	11	149	42
-0.797550023	-0.600170016	-1.3427	11	149	42
-0.800339997	-0.600030005	-1.34230006	11	149	42
-0.802659988	-0.59819001	-1.34179997	11	149	42
-0.802190006	-0.596490026	-1.34159994	11	149	42
-0.798940003	-0.596270025	-1.34109998	11	149	42
-0.798940003	-0.597609997	-1.3405	11	149	42
-0.796620011	-0.596769989	-1.34220004	11	149	42
-0.803600013	-0.600250006	-1.34280002	11	149	42
-0.805909991	-0.599749982	-1.34169996	11	149	42
-0.805440009	-0.598049998	-1.34150004	11	149	42
-0.805909991	-0.597060025	-1.34290004	11	149	42
-0.789659977	-0.598249972	-1.34560001	11	149	42
-0.809599996	-0.583379984	-1.34430003	11	149	42
-0.823140025	-0.596509993	-1.34169996	11	149	42
-0.826900005	-0.597060025	-1.34290004	11	149	42
-0.827380002	-0.592100024	-1.34609997	11	149	42
-0.835089982	-0.586880028	-1.36360002	11	149	42
-0.835089982	-0.585569978	-1.3642	11	149	42
-0.835569978	-0.584510028	-1.36559999	11	149	42
-0.835569978	-0.583100021	-1.36619997	11	149	42
-0.832740009	-0.58326	-1.36660004	11	149	42
-0.832740009	-0.584680021	-1.36600006	11	149	42
-0.832740009	-0.586070001	-1.36539996	11	149	42
-0.837909997	-0.585399985	-1.36380005	11	149	42
-0.83743	-0.586369991	-1.36240005	11	149	42
-0.838400006	-0.588389993	-1.3635	11	149	42
-0.843949974	-0.584490001	-1.35810006	11	149	42
-0.846289992	-0.585290015	-1.3563	11	149	42
-0.844330013	-0.579900026	-1.35479999	11	149	42
-0.834179997	-0.582899988	-1.36960006	11	149	42
-0.833700001	-0.581170022	-1.36940002	11	149	42
-0.831830025	-0.580749989	-1.37189996	11	149	42
-0.835150003	-0.580940008	-1.37230003	11	149	42
-0.835179985	-0.581900001	-1.37810004	11	149	42
-0.835179985	-0.576110005	-1.38049996	11	149	42
-0.827600002	-0.579410017	-1.37619996	11	149	42
-0.826170027	-0.579819977	-1.37320006	11	149	42
-0.825699985	-0.580720007	-1.37179995	11	149	42
-0.828050017	-0.580219984	-1.37059999	11	149	42
-0.829919994	-0.580640018	-1.36810005	11	149	42
-0.826619983	-0.580449998	-1.36769998	11	149	42
-0.82427001	-0.580950022	-1.36889994	11	149	42
-0.821919978	-0.584219992	-1.36880004	11	149	42
-0.820029974	-0.585659981	-1.36440003	11	149	42
-0.819079995	-0.583570004	-1.36339998	11	149	42
-0.821889997	-0.583410025	-1.36300004	11	149	42
-0.821460009	-0.582050025	-1.375	11	149	42
-0.818159997	-0.581860006	-1.37450004	11	149	42
-0.819100022	-0.578350008	-1.3779	11	149	42
-0.820050001	-0.577610016	-1.38010001	11	149	42
-0.820519984	-0.57652998	-1.38150001	11	149	42
-0.818149984	-0.577019989	-1.38269997	11	149	42
-0.819090009	-0.576439977	-1.38479996	11	149	42
-0.818620026	-0.574859977	-1.38450003	11	149	42
-0.819559991	-0.57415998	-1.38670003	11	149	42
-0.823350012	-0.576390028	-1.38119996	11	149	42
-0.823350012	-0.577799976	-1.38059998	11	149	42
-0.82288003	-0.578890026	-1.37919998	11	149	42
-0.817210019	-0.577759981	-1.38049996	11	149	42
-0.824209988	-0.562770009	-1.40699995	11	149	42
-0.824670017	-0.56449002	-1.4073	11	149	42
-0.812430024	-0.569949985	-1.39250004	11	149	42
-0.827950001	-0.559740007	-1.41589999	11	149	42
-0.827950001	-0.558319986	-1.41639996	11	149	42
-0.826009989	-0.557749987	-1.41900003	11	149	42
-0.823589981	-0.55686003	-1.42069995	11	149	42
-0.822660029	-0.557569981	-1.41849995	11	149	42
-0.820710003	-0.556999981	-1.421	11	149	42
-0.817830026	-0.555679977	-1.42190003	11	149	42
-0.816910028	-0.553539991	-1.42089999	11	149	42
-0.818289995	-0.553129971	-1.42390001	11	149	42
-0.820249975	-0.553730011	-1.42139995	11	149	42
-0.823589981	-0.553910017	-1.42180002	11	149	42
-0.824519992	-0.556050003	-1.42289996	11	149	42
-0.822560012	-0.556840003	-1.42490005	11	149	42
-0.829819977	-0.555450022	-1.42130005	11	149	42
-0.829819977	-0.553950012	-1.42190003	11	149	42
-0.832700014	-0.55381	-1.42159998	11	149	42
-0.833169997	-0.555620015	-1.42180002	11	149	42
-0.832239985	-0.556429982	-1.41960001	11	149	42
-0.806569993	-0.557619989	-1.41050005	11	149	42
-0.806569993	-0.559029996	-1.40999997	11	149	42
-0.806569993	-0.560440004	-1.40939999	11	149	42
-0.806110024	-0.56151998	-1.40799999	11	149	42
-0.805199981	-0.562269986	-1.40579998	11	149	42
-0.805660009	-0.563989997	-1.40610003	11	149	42
-0.805199981	-0.565020025	-1.40470004	11	149	42
-0.8028	-0.564119995	-1.40639997	11	149	42
-0.802339971	-0.562399983	-1.40610003	11	149	42
-0.803719997	-0.561980009	-1.40919995	11	149	42
-0.803719997	-0.560570002	-1.40970004	11	149	42
-0.804170012	-0.559490025	-1.41110003	11	149	42
-0.804170012	-0.558080018	-1.41170001	11	149	42
-0.80223	-0.560270011	-1.4131	11	149	42
-0.803139985	-0.559509993	-1.41530001	11	149	42
-0.803139985	-0.558099985	-1.41589999	11	149	42
-0.803139985	-0.556739986	-1.41639996	11	149	42
-0.793649971	-0.556450009	-1.41569996	11	149	42
-0.791689992	-0.554419994	-1.41869998	11	149	42
-0.788380027	-0.55272001	-1.4188	11	149	42
-0.789889991	-0.554570019	-1.41480005	11	149	42
-0.791390002	-0.556169987	-1.41100001	11	149	42
-0.794700027	-0.557789981	-1.4109	11	149	42
-0.786750019	-0.553629994	-1.40849996	11	149	42
-0.784950018	-0.553669989	-1.40460002	11	149	42
-0.781220019	-0.549000025	-1.40489995	11	149	42
-0.773779988	-0.549350023	-1.40149999	11	149	42
-0.766369998	-0.55230999	-1.39709997	11	149	42
-0.763549984	-0.552410007	-1.3973	11	149	42
-0.763549984	-0.551010013	-1.39789999	11	149	42
-0.76117003	-0.551440001	-1.39900005	11	149	42
-0.76117003	-0.552839994	-1.39839995	11	149	42
-0.758360028	-0.552929997	-1.39859998	11	149	42
-0.759230018	-0.554989994	-1.39979994	11	149	42
-0.756850004	-0.555419981	-1.40079999	11	149	42
-0.755550027	-0.553030014	-1.39890003	11	149	42
-0.754679978	-0.550970018	-1.39779997	11	149	42
-0.754239976	-0.549290001	-1.39750004	11	149	42
-0.753369987	-0.547309995	-1.39629996	11	149	42
-0.753809988	-0.546209991	-1.39769995	11	149	42
-0.753809988	-0.544730008	-1.39830005	11	149	42
-0.750999987	-0.544820011	-1.39849997	11	149	42
-0.750129998	-0.542810023	-1.3973	11	149	42
-0.74733001	-0.544250011	-1.39699996	11	149	42
-0.746469975	-0.545069993	-1.39479995	11	149	42
-0.745599985	-0.545840025	-1.39250004	11	149	42
-0.745599985	-0.547160029	-1.39199996	11	149	42
-0.746029973	-0.548829973	-1.39230001	11	149	42
-0.746469975	-0.550549984	-1.39260006	11	149	42
-0.74970001	-0.552190006	-1.39269996	11	149	42
-0.750129998	-0.549730003	-1.39460003	11	149	42
-0.751429975	-0.55211997	-1.39660001	11	149	42
-0.752300024	-0.55558002	-1.39719999	11	149	42
-0.752730012	-0.557309985	-1.39740002	11	149	42
-0.748199999	-0.554669976	-1.39489996	11	149	42
-0.746900022	-0.555060029	-1.39180005	11	149	42
-0.744530022	-0.555480003	-1.39289999	11	149	42
-0.743669987	-0.553420007	-1.39170003	11	149	42
-0.742160022	-0.555899978	-1.39390004	11	149	42
-0.740019977	-0.552829981	-1.39030004	11	149	42
-0.737649977	-0.556029975	-1.39020002	11	149	42
-0.735509992	-0.552959979	-1.38660002	11	149	42
-0.734229982	-0.550580025	-1.38460004	11	149	42
-0.73743999	-0.54944998	-1.3858	11	149	42
-0.73743999	-0.54806	-1.38629997	11	149	42
-0.739359975	-0.54460001	-1.38549995	11	149	42
-0.735729992	-0.545350015	-1.38349998	11	149	42
-0.74109	-0.550029993	-1.38730001	11	149	42
-0.741519988	-0.548979998	-1.38859999	11	149	42
-0.741949975	-0.547919989	-1.38999999	11	149	42
-0.741949975	-0.545260012	-1.39110005	11	149	42
-0.742380023	-0.544170022	-1.39250004	11	149	42
-0.746029973	-0.541920006	-1.39499998	11	149	42
-0.745169997	-0.53994	-1.39390004	11	149	42
-0.747959971	-0.539849997	-1.3937	11	149	42
-0.747959971	-0.538410008	-1.39419997	11	149	42
-0.749890029	-0.540440023	-1.39119995	11	149	42
-0.752240002	-0.540030003	-1.39020002	11	149	42
-0.753560007	-0.542360008	-1.39219999	11	149	42
-0.754429996	-0.544480026	-1.39330006	11	149	42
-0.755299985	-0.546559989	-1.3944	11	149	42
-0.757229984	-0.545809984	-1.39250004	11	149	42
-0.760469973	-0.547370017	-1.39260006	11	149	42
-0.759859979	-0.549109995	-1.39699996	11	149	42
-0.757049978	-0.550549984	-1.39670002	11	149	42
-0.756609976	-0.548870027	-1.39639997	11	149	42
-0.757229984	-0.541570008	-1.39409995	11	149	42
-0.755739987	-0.541299999	-1.39740002	11	149	42
-0.753369987	-0.540269971	-1.39900005	11	149	42
-0.751630008	-0.540419996	-1.3951	11	149	42
-0.74970001	-0.54531002	-1.39540005	11	149	42
-0.748399973	-0.545750022	-1.39230001	11	149	42
-0.748399973	-0.54707998	-1.39180005	11	149	42
-0.744740009	-0.550610006	-1.38870001	11	149	42
-0.754159987	-0.542100012	-1.3872	11	149	42
-0.752839983	-0.539659977	-1.38520002	11	149	42
-0.755630016	-0.539569974	-1.38499999	11	149	42
-0.755190015	-0.540700018	-1.3836	11	149	42
-0.757089972	-0.541360021	-1.38110006	11	149	42
-0.757979989	-0.543340027	-1.38230002	11	149	42
-0.758549988	-0.541599989	-1.3779	11	149	42
-0.757659972	-0.542270005	-1.3757	11	149	42
-0.760439992	-0.542169988	-1.37549996	11	149	42
-0.760439992	-0.543550014	-1.37489998	11	149	42
-0.762319982	-0.544160008	-1.37249994	11	149	42
-0.763750017	-0.543079972	-1.36969995	11	149	42
-0.762409985	-0.544820011	-1.36609995	11	149	42
-0.765179992	-0.544719994	-1.36590004	11	149	42
-0.766529977	-0.54707998	-1.3678	11	149	42
-0.767430007	-0.549099982	-1.36889994	11	149	42
-0.770200014	-0.550320029	-1.36810005	11	149	42
-0.772069991	-0.546869993	-1.36730003	11	149	42
-0.768400013	-0.546310008	-1.36590004	11	149	42
-0.770259976	-0.546899974	-1.36339998	11	149	42
-0.770720005	-0.549870014	-1.36319995	11	149	42
-0.767050028	-0.54667002	-1.36290002	11	149	42
-0.767099977	-0.545889974	-1.35710001	11	149	42
-0.768490016	-0.546090007	-1.35389996	11	149	42
-0.767579973	-0.546760023	-1.35169995	11	149	42
-0.769879997	-0.550490022	-1.34889996	11	149	42
-0.772159994	-0.550759971	-1.35360003	11	149	42
-0.772159994	-0.549329996	-1.35420001	11	149	42
-0.774460018	-0.550310016	-1.35249996	11	149	42
-0.775370002	-0.552399993	-1.35360003	11	149	42
-0.775839984	-0.553330004	-1.34809995	11	149	42
-0.779060006	-0.557659984	-1.34689999	11	149	42
-0.781350017	-0.557210028	-1.34580004	11	149	42
-0.780430019	-0.557869971	-1.34360003	11	149	42
-0.780430019	-0.561670005	-1.34200001	11	149	42
-0.780399978	-0.563730001	-1.33510005	11	149	42
-0.77947998	-0.561649978	-1.33399999	11	149	42
-0.77809	-0.557789981	-1.33280003	11	149	42
-0.777159989	-0.555739999	-1.33169997	11	149	42
-0.774890006	-0.556190014	-1.33280003	11	149	42
-0.777159989	-0.558480024	-1.33050001	11	149	42
-0.778029978	-0.55844003	-1.32640004	11	149	42
-0.779829979	-0.559010029	-1.32389998	11	149	42
-0.776170015	-0.55844003	-1.32249999	11	149	42
-0.775709987	-0.559300005	-1.32120001	11	149	42
-0.777499974	-0.558489978	-1.31930006	11	149	42
-0.778429985	-0.560400009	-1.3204	11	149	42
-0.780690014	-0.559930027	-1.31930006	11	149	42
-0.780690014	-0.561269999	-1.31879997	11	149	42
-0.780219972	-0.562259972	-1.31739998	11	149	42
-0.780219972	-0.563629985	-1.3168	11	149	42
-0.782469988	-0.563160002	-1.31570005	11	149	42
-0.782000005	-0.565419972	-1.31379998	11	149	42
-0.78283	-0.56516999	-1.30970001	11	149	42
-0.781889975	-0.565819979	-1.3075	11	149	42
-0.786019981	-0.56941998	-1.30850005	11	149	42
-0.788259983	-0.568939984	-1.30739999	11	149	42
-0.78779	-0.56990999	-1.30599999	11	149	42
-0.787310004	-0.572049975	-1.30410004	11	149	42
-0.786360025	-0.570100009	-1.30299997	11	149	42
-0.785420001	-0.571959972	-1.3003	11	149	42
-0.788119972	-0.571820021	-1.29999995	11	149	42
-0.787649989	-0.572780013	-1.29859996	11	149	42
-0.786220014	-0.569090009	-1.29729998	11	149	42
-0.782710016	-0.568279982	-1.30219996	11	149	42
-0.792259991	-0.575330019	-1.30089998	11	149	42
-0.792739987	-0.576960027	-1.30120003	11	149	42
-0.792739987	-0.578260005	-1.30060005	11	149	42
-0.794799984	-0.576780021	-1.2938	11	149	42
-0.793359995	-0.577000022	-1.29079998	11	149	42
-0.790660024	-0.578429997	-1.29050004	11	149	42
-0.789709985	-0.576420009	-1.2895	11	149	42
-0.788749993	-0.574419975	-1.28849995	11	149	42
-0.798319995	-0.580259979	-1.30509996	11	149	42
-0.797160029	-0.582440019	-1.31359994	11	149	42
-0.800010026	-0.583289981	-1.31889999	11	149	42
-0.798690021	-0.583220005	-1.32219994	11	149	42
-0.805980027	-0.583360016	-1.31910002	11	149	42
-0.806940019	-0.585359991	-1.32009995	11	149	42
-0.80704999	-0.58506	-1.32640004	11	149	42
-0.804769993	-0.58160001	-1.32930005	11	149	42
-0.792630017	-0.57694	-1.31860006	11	149	42
-0.793110013	-0.573350012	-1.32120001	11	149	42
-0.791310012	-0.574180007	-1.32309997	11	149	42
-0.793579996	-0.570980012	-1.32309997	11	149	42
-0.792330027	-0.574389994	-1.33099997	11	149	42
-0.796490014	-0.574020028	-1.33369994	11	149	42
-0.792800009	-0.566709995	-1.33529997	11	149	42
-0.786830008	-0.569320023	-1.33389997	11	149	42
-0.783609986	-0.567749977	-1.33399999	11	149	42
-0.782679975	-0.565699995	-1.33290005	11	149	42
-0.78403002	-0.56072998	-1.33179998	11	149	42
-0.787699997	-0.562680006	-1.3326	11	149	42
-0.783959985	-0.561129987	-1.32550001	11	149	42
-0.784430027	-0.568109989	-1.32350004	11	149	42
-0.784349978	-0.565900028	-1.31840003	11	149	42
-0.787440002	-0.567789972	-1.31200004	11	149	42
-0.776570022	-0.560350001	-1.31659997	11	149	42
-0.776730001	-0.556339979	-1.33659995	11	149	42
-0.774909973	-0.555939972	-1.33899999	11	149	42
-0.771709979	-0.551639974	-1.34010005	11	149	42
-0.769429982	-0.549390018	-1.34230006	11	149	42
-0.784569979	-0.568050027	-1.34189999	11	149	42
-0.783659995	-0.56832999	-1.34599996	11	149	42
-0.785969973	-0.571290016	-1.34949994	11	149	42
-0.78828001	-0.572059989	-1.34790003	11	149	42
-0.778590024	-0.558070004	-1.35189998	11	149	42
-0.781819999	-0.558300018	-1.35239995	11	149	42
-0.782739997	-0.557609975	-1.35459995	11	149	42
-0.785960019	-0.558610022	-1.36090004	11	149	42
-0.783150017	-0.560880005	-1.3664	11	149	42
-0.779900014	-0.559270024	-1.36650002	11	149	42
-0.784969985	-0.563600004	-1.36919999	11	149	42
-0.789139986	-0.561730027	-1.37249994	11	149	42
-0.786800027	-0.557919979	-1.37530005	11	149	42
-0.781729996	-0.555000007	-1.37199998	11	149	42
-0.774789989	-0.554220021	-1.37010002	11	149	42
-0.774399996	-0.553129971	-1.3635	11	149	42
-0.772909999	-0.54825002	-1.37469995	11	149	42
-0.765890002	-0.545419991	-1.37969995	11	149	42
-0.765330017	-0.544449985	-1.38510001	11	149	42
-0.762979984	-0.547599971	-1.38520002	11	149	42
-0.760179996	-0.546310008	-1.38590002	11	149	42
-0.757830024	-0.544080019	-1.38810003	11	149	42
-0.761510015	-0.543219984	-1.3901	11	149	42
-0.764750004	-0.544870019	-1.3901	11	149	42
-0.764159977	-0.543709993	-1.39559996	11	149	42
-0.763549984	-0.544070005	-1.40059996	11	149	42
-0.760739982	-0.542840004	-1.40139997	11	149	42
-0.762290001	-0.544719994	-1.41050005	11	149	42
-0.758369982	-0.544700027	-1.41499996	11	149	42
-0.766219974	-0.549210012	-1.38520002	11	149	42
-0.768570006	-0.551549971	-1.38300002	11	149	42
-0.774609983	-0.550289989	-1.38390005	11	149	42
-0.777310014	-0.550880015	-1.38940001	11	149	42
-0.775839984	-0.550580025	-1.39269996	11	149	42
-0.783280015	-0.553070009	-1.39489996	11	149	42
-0.78609997	-0.552959979	-1.39460003	11	149	42
-0.783840001	-0.554090023	-1.38940001	11	149	42
-0.787649989	-0.557969987	-1.38329995	11	149	42
-0.782570004	-0.55509001	-1.38	11	149	42
-0.797049999	-0.567319989	-1.3743	11	149	42
-0.792349994	-0.571049988	-1.37539995	11	149	42
-0.793780029	-0.57378	-1.37100005	11	149	42
-0.795159996	-0.57773	-1.37220001	11	149	42
-0.796090007	-0.576919973	-1.37450004	11	149	42
-0.793730021	-0.577390015	-1.37559998	11	149	42
-0.793269992	-0.578549981	-1.37409997	11	149	42
-0.792810023	-0.579630017	-1.37269998	11	149	42
-0.791899979	-0.580190003	-1.37059999	11	149	42
-0.794650018	-0.576650023	-1.37779999	11	149	42
-0.795570016	-0.572049975	-1.38170004	11	149	42
-0.793659985	-0.572860003	-1.3836	11	149	42
-0.794120014	-0.571759999	-1.38499999	11	149	42
-0.791750014	-0.57367003	-1.38559997	11	149	42
-0.788919985	-0.573790014	-1.38590002	11	149	42
-0.790740013	-0.573710024	-1.38970006	11	149	42
-0.790740013	-0.572309971	-1.39030004	11	149	42
-0.790289998	-0.570580006	-1.3901	11	149	42
-0.792659998	-0.571510017	-1.38839996	11	149	42
-0.793110013	-0.573239982	-1.38859999	11	149	42
-0.791750014	-0.569440007	-1.38730001	11	149	42
-0.797399998	-0.566389978	-1.38779998	11	149	42
-0.798319995	-0.565609992	-1.3901	11	149	42
-0.802070022	-0.569010019	-1.39020002	11	149	42
-0.788810015	-0.568899989	-1.39400005	11	149	42
-0.789719999	-0.568109989	-1.39619994	11	149	42
-0.786430001	-0.565039992	-1.39690006	11	149	42
-0.787339985	-0.564329982	-1.39909995	11	149	42
-0.785399973	-0.565110028	-1.40100002	11	149	42
-0.784950018	-0.566160023	-1.39960003	11	149	42
-0.781220019	-0.566990018	-1.39769995	11	149	42
-0.780319989	-0.567789972	-1.39540005	11	149	42
-0.780319989	-0.569239974	-1.39479995	11	149	42
-0.779869974	-0.57032001	-1.39339995	11	149	42
-0.778980017	-0.571049988	-1.39119995	11	149	42
-0.778980017	-0.572440028	-1.39059997	11	149	42
-0.778079987	-0.573149979	-1.38839996	11	149	42
-0.775259972	-0.573270023	-1.38870001	11	149	42
-0.776740015	-0.573570013	-1.38530004	11	149	42
-0.781359971	-0.576210022	-1.38779998	11	149	42
-0.777050018	-0.573230028	-1.39260006	11	149	42
-0.776600003	-0.571500003	-1.39230001	11	149	42
-0.777050018	-0.570429981	-1.3937	11	149	42
-0.77749002	-0.569360018	-1.3951	11	149	42
-0.77749002	-0.567900002	-1.39569998	11	149	42
-0.776000023	-0.567550004	-1.39909995	11	149	42
-0.775560021	-0.565819979	-1.39880002	11	149	42
-0.775110006	-0.564109981	-1.39849997	11	149	42
-0.761070013	-0.542460024	-1.3642	11	149	42
-0.759199977	-0.543219984	-1.36609995	11	149	42
-0.737839997	-0.559840024	-1.39569998	11	149	42
-0.734610021	-0.563650012	-1.39339995	11	149	42
-0.734610021	-0.567960024	-1.39170003	11	149	42
-0.787760019	-0.553070009	-1.42379999	11	149	42
-0.787760019	-0.550249994	-1.42490005	11	149	42
-0.784449995	-0.552860022	-1.42320001	11	149	42
-0.776520014	-0.550100029	-1.42009997	11	149	42
-0.774990022	-0.549709976	-1.42349994	11	149	42
-0.770820022	-0.548839986	-1.42120004	11	149	42
-0.768169999	-0.549780011	-1.42820001	11	149	42
-0.768599987	-0.548600018	-1.4296	11	149	42
-0.767729998	-0.546450019	-1.42850006	11	149	42
-0.768599987	-0.545759976	-1.43069994	11	149	42
-0.76947999	-0.54509002	-1.43289995	11	149	42
-0.771899998	-0.543190002	-1.43229997	11	149	42
-0.772780001	-0.545319974	-1.43340003	11	149	42
-0.772780001	-0.546630025	-1.43289995	11	149	42
-0.771899998	-0.547309995	-1.43079996	11	149	42
-0.77234	-0.549139977	-1.43099999	11	149	42
-0.77234	-0.550650001	-1.43040001	11	149	42
-0.775640011	-0.546530008	-1.43270004	11	149	42
-0.772780001	-0.542299986	-1.4346	11	149	42
-0.773649991	-0.541540027	-1.4368	11	149	42
-0.777400017	-0.540679991	-1.43869996	11	149	42
-0.765749991	-0.548690021	-1.42980003	11	149	42
-0.790430009	-0.550660014	-1.43040001	11	149	42
-0.796630025	-0.550750017	-1.43069994	11	149	42
-0.801429987	-0.564480007	-1.40339994	11	149	42
-0.802919984	-0.542299986	-1.44729996	11	149	42
-0.803369999	-0.541230023	-1.44860005	11	149	42
-0.804270029	-0.540369987	-1.45089996	11	149	42
-0.80517	-0.539479971	-1.45309997	11	149	42
-0.805620015	-0.538309991	-1.45449996	11	149	42
-0.80517	-0.536530018	-1.45420003	11	149	42
-0.80607003	-0.535709977	-1.45640004	11	149	42
-0.805620015	-0.533959985	-1.45609999	11	149	42
-0.808529973	-0.533840001	-1.45580006	11	149	42
-0.808529973	-0.535279989	-1.45519996	11	149	42
-0.807630002	-0.53609997	-1.45299995	11	149	42
-0.808080018	-0.537880003	-1.4533	11	149	42
-0.808529973	-0.539669991	-1.45360005	11	149	42
-0.806720018	-0.53994	-1.4497	11	149	42
-0.806270003	-0.541109979	-1.4483	11	149	42
-0.805819988	-0.542180002	-1.44690001	11	149	42
-0.798910022	-0.540910006	-1.45229995	11	149	42
-0.803160012	-0.538739979	-1.45560002	11	149	42
-0.802709997	-0.536960006	-1.45529997	11	149	42
-0.803610027	-0.536130011	-1.45749998	11	149	42
-0.800700009	-0.536249995	-1.45790005	11	149	42
-0.799809992	-0.534189999	-1.45669997	11	149	42
-0.802259982	-0.533770025	-1.45560002	11	149	42
-0.803160012	-0.532850027	-1.45780003	11	149	42
-0.80697	-0.533349991	-1.45920002	11	149	42
-0.79847002	-0.53174001	-1.45469999	11	149	42
-0.782029986	-0.531729996	-1.44560003	11	149	42
-0.780939996	-0.52591002	-1.43879998	11	149	42
-0.776750028	-0.52658999	-1.43599999	11	149	42
-0.825079978	-0.536809981	-1.45039999	11	149	42
-0.823539972	-0.53640002	-1.45379996	11	149	42
-0.826919973	-0.536570013	-1.45430005	11	149	42
-0.827839971	-0.535740018	-1.45650005	11	149	42
-0.827839971	-0.534309983	-1.45700002	11	149	42
-0.825380027	-0.534739971	-1.45819998	11	149	42
-0.825380027	-0.536180019	-1.45770001	11	149	42
-0.822459996	-0.536310017	-1.45799994	11	149	42
-0.822000027	-0.537450016	-1.45669997	11	149	42
-0.82336998	-0.535489976	-1.46019995	11	149	42
-0.824289978	-0.534560025	-1.46249998	11	149	42
-0.827210009	-0.534430027	-1.46210003	11	149	42
-0.829219997	-0.533689976	-1.46010005	11	149	42
-0.77579999	-0.600600004	-1.34000003	11	149	42
-0.775349975	-0.59890002	-1.3398	11	149	42
-0.77579999	-0.597920001	-1.34119999	11	149	42
-0.773029983	-0.596700013	-1.34210002	11	149	42
-0.772119999	-0.59732002	-1.33990002	11	149	42
-0.772580028	-0.599020004	-1.34010005	11	149	42
-0.773490012	-0.601090014	-1.34109998	11	149	42
-0.770259976	-0.596819997	-1.34230006	11	149	42
-0.77117002	-0.596199989	-1.34459996	11	149	42
-0.77117002	-0.594889998	-1.34519994	11	149	42
-0.77117002	-0.593580008	-1.34570003	11	149	42
-0.772530019	-0.593299985	-1.34879994	11	149	42
-0.775759995	-0.594900012	-1.34870005	11	149	42
-0.775300026	-0.595849991	-1.34730005	11	149	42
-0.774399996	-0.596440017	-1.34510005	11	149	42
-0.767949998	-0.594640017	-1.34459996	11	149	42
-0.767499983	-0.595589995	-1.34319997	11	149	42
-0.767050028	-0.596570015	-1.34179997	11	149	42
-0.762409985	-0.596170008	-1.34449995	11	149	42
-0.763310015	-0.595579982	-1.34669995	11	149	42
-0.761430025	-0.595099986	-1.34920001	11	149	42
-0.761430025	-0.593739986	-1.34979999	11	149	42
-0.76098001	-0.592010021	-1.34959996	11	149	42
-0.758210003	-0.592119992	-1.34979999	11	149	42
-0.75545001	-0.592220008	-1.35000002	11	149	42
-0.756330013	-0.594309986	-1.35109997	11	149	42
-0.756770015	-0.596029997	-1.3513	11	149	42
-0.755890012	-0.596620023	-1.34909999	11	149	42
-0.758210003	-0.596159995	-1.34800005	11	149	42
-0.757319987	-0.596750021	-1.34580004	11	149	42
-0.754559994	-0.596849978	-1.34599996	11	149	42
-0.753669977	-0.597469985	-1.34379995	11	149	42
-0.751349986	-0.596589983	-1.34549999	11	149	42
-0.751789987	-0.595640004	-1.34689999	11	149	42
-0.752240002	-0.594690025	-1.34829998	11	149	42
-0.753560007	-0.594410002	-1.3513	11	149	42
-0.754000008	-0.593400002	-1.3527	11	149	42
-0.754890025	-0.592830002	-1.35500002	11	149	42
-0.755330026	-0.591889977	-1.3563	11	149	42
-0.754890025	-0.590160012	-1.35609996	11	149	42
-0.752110004	-0.590260029	-1.3563	11	149	42
-0.752990007	-0.592350006	-1.35739994	11	149	42
-0.752110004	-0.592920005	-1.35520005	11	149	42
-0.749779999	-0.590719998	-1.35739994	11	149	42
-0.750209987	-0.58969003	-1.35880005	11	149	42
-0.747879982	-0.590139985	-1.3599	11	149	42
-0.747439981	-0.591170013	-1.35839999	11	149	42
-0.744669974	-0.587080002	-1.36049998	11	149	42
-0.743629992	-0.589999974	-1.36339998	11	149	42
-0.742150009	-0.584299982	-1.36899996	11	149	42
-0.759549975	-0.594569981	-1.35169995	11	149	42
-0.759989977	-0.596289992	-1.35189998	11	149	42
-0.764649987	-0.595350027	-1.34979999	11	149	42
-0.765550017	-0.594709992	-1.352	11	149	42
-0.764649987	-0.592620015	-1.35099995	11	149	42
-0.764199972	-0.59096998	-1.35070002	11	149	42
-0.759639978	-0.594969988	-1.34529996	11	149	42
-0.760089993	-0.596639991	-1.34560001	11	149	42
-0.759199977	-0.597259998	-1.34329998	11	149	42
-0.761070013	-0.596430004	-1.34150004	11	149	42
-0.761070013	-0.597769976	-1.34089994	11	149	42
-0.76196003	-0.599839985	-1.34189999	11	149	42
-0.761520028	-0.600809991	-1.3405	11	149	42
-0.758750021	-0.600920022	-1.34070003	11	149	42
-0.75831002	-0.599210024	-1.3405	11	149	42
-0.757860005	-0.59750998	-1.34029996	11	149	42
-0.755100012	-0.596270025	-1.34109998	11	149	42
-0.75466001	-0.597249985	-1.33969998	11	149	42
-0.755100012	-0.598950028	-1.33990002	11	149	42
-0.755990028	-0.601019979	-1.34099996	11	149	42
-0.75466001	-0.601260006	-1.33790004	11	149	42
-0.754209995	-0.602230012	-1.33650005	11	149	42
-0.753319979	-0.602829993	-1.33430004	11	149	42
-0.752879977	-0.603799999	-1.33280003	11	149	42
-0.75474	-0.602949977	-1.33099997	11	149	42
-0.75474	-0.604300022	-1.33039999	11	149	42
-0.757489979	-0.604200006	-1.33010006	11	149	42
-0.757929981	-0.605910003	-1.33029997	11	149	42
-0.759790003	-0.605059981	-1.32850003	11	149	42
-0.760240018	-0.604089975	-1.32990003	11	149	42
-0.760689974	-0.603110015	-1.33130002	11	149	42
-0.76157999	-0.602509975	-1.33360004	11	149	42
-0.758830011	-0.602620006	-1.33379996	11	149	42
-0.759280026	-0.60165	-1.33519995	11	149	42
-0.760169983	-0.601050019	-1.33739996	11	149	42
-0.75740999	-0.60115999	-1.33770001	11	149	42
-0.756519973	-0.60176003	-1.33539999	11	149	42
-0.756079972	-0.602729976	-1.33399999	11	149	42
-0.757929981	-0.603219986	-1.33159995	11	149	42
-0.756590009	-0.606140018	-1.32729995	11	149	42
-0.759339988	-0.606040001	-1.32700002	11	149	42
-0.759339988	-0.607379973	-1.32640004	11	149	42
-0.758440018	-0.607940018	-1.32420003	11	149	42
-0.757539988	-0.608500004	-1.32200003	11	149	42
-0.754800022	-0.607299984	-1.32280004	11	149	42
-0.755249977	-0.606369972	-1.32420003	11	149	42
-0.752950013	-0.605509996	-1.32589996	11	149	42
-0.753400028	-0.604529977	-1.32729995	11	149	42
-0.752059996	-0.606100023	-1.32360005	11	149	42
-0.751609981	-0.607029974	-1.32219994	11	149	42
-0.75116998	-0.607959986	-1.32079995	11	149	42
-0.752059996	-0.610029995	-1.32179999	11	149	42
-0.754350007	-0.609549999	-1.32079995	11	149	42
-0.754350007	-0.608229995	-1.32140005	11	149	42
-0.762120008	-0.608850002	-1.31930006	11	149	42
-0.762570024	-0.610549986	-1.31949997	11	149	42
-0.765770018	-0.610809982	-1.32000005	11	149	42
-0.765770018	-0.609480023	-1.32060003	11	149	42
-0.74703002	-0.605340004	-1.32550001	11	149	42
-0.765240014	-0.604470015	-1.33430004	11	149	42
-0.764789999	-0.602769971	-1.33410001	11	149	42
-0.765240014	-0.601800025	-1.3355	11	149	42
-0.762929976	-0.602280021	-1.33659995	11	149	42
-0.751900017	-0.602699995	-1.33749998	11	149	42
-0.751460016	-0.601000011	-1.33729994	11	149	42
-0.752340019	-0.600390017	-1.33959997	11	149	42
-0.751460016	-0.598320007	-1.33850002	11	149	42
-0.752340019	-0.597710013	-1.34080005	11	149	42
-0.767780006	-0.589779973	-1.35899997	11	149	42
-0.765450001	-0.586130023	-1.36189997	11	149	42
-0.765890002	-0.585169971	-1.36329997	11	149	42
-0.766340017	-0.584129989	-1.36469996	11	149	42
