-0.675029993	-0.0453459993	-1.14230001	41	16	204
-0.675029993	-0.0464730002	-1.14219999	41	16	204
-0.676779985	-0.0464319997	-1.14119995	41	16	204
-0.676779985	-0.0442040004	-1.14129996	41	16	204
-0.676779985	-0.0419659987	-1.14139998	41	16	204
-0.675530016	-0.0420349985	-1.14330006	41	16	204
-0.675029993	-0.0407860018	-1.14240003	41	16	204
-0.674030006	-0.0395530015	-1.1408	41	16	204
-0.674030006	-0.0384129994	-1.1408	41	16	204
-0.674530029	-0.0372919999	-1.14170003	41	16	204
-0.672779977	-0.0373249985	-1.14269996	41	16	204
-0.672290027	-0.0395880006	-1.14180005	41	16	204
-0.670040011	-0.039593	-1.14189994	41	16	204
-0.670040011	-0.0384519994	-1.14189994	41	16	204
-0.668550014	-0.0372160003	-1.13940001	41	16	204
-0.668550014	-0.0360630006	-1.13940001	41	16	204
-0.670289993	-0.0360310003	-1.13839996	41	16	204
-0.671530008	-0.0348390006	-1.13660002	41	16	204
-0.673269987	-0.0359399989	-1.13549995	41	16	204
-0.676010013	-0.0371129997	-1.13619995	41	16	204
-0.676010013	-0.0382580012	-1.13619995	41	16	204
-0.676010013	-0.0405590013	-1.13610005	41	16	204
-0.675499976	-0.0428839996	-1.13520002	41	16	204
-0.676010013	-0.0439979993	-1.13600004	41	16	204
-0.67701	-0.0462849997	-1.13759995	41	16	204
-0.677519977	-0.0451969989	-1.13849998	41	16	204
-0.673529983	-0.0441429988	-1.13970006	41	16	204
-0.673030019	-0.0430249982	-1.13890004	41	16	204
-0.675270021	-0.0406569988	-1.13880002	41	16	204
-0.675270021	-0.038350001	-1.13890004	41	16	204
-0.675769985	-0.0372309983	-1.13979995	41	16	204
-0.673529983	-0.0360819995	-1.13999999	41	16	204
-0.671790004	-0.0349760018	-1.14100003	41	16	204
-0.673280001	-0.0316700004	-1.1437	41	16	204
-0.672529995	-0.0317450017	-1.14649999	41	16	204
-0.674279988	-0.0385640003	-1.14530003	41	16	204
-0.673780024	-0.0408519991	-1.14429998	41	16	204
-0.673280001	-0.0420400016	-1.14339995	41	16	204
-0.668550014	-0.0418860018	-1.13919997	41	16	204
-0.668550014	-0.0430350006	-1.13919997	41	16	204
-0.669290006	-0.0440139994	-1.13639998	41	16	204
-0.668299973	-0.042865999	-1.13469994	41	16	204
-0.667559981	-0.0406100005	-1.13750005	41	16	204
-0.673269987	-0.0393689983	-1.13540006	41	16	204
-0.672259986	-0.0428240001	-1.1336	41	16	204
-0.676230013	-0.0404310003	-1.13250005	41	16	204
-0.676440001	-0.0426440015	-1.12880003	41	16	204
-0.67543	-0.0414419994	-1.12709999	41	16	204
-0.67543	-0.0379579999	-1.12730002	41	16	204
-0.67543	-0.0356810018	-1.12730002	41	16	204
-0.675930023	-0.0345829986	-1.12820005	41	16	204
-0.674210012	-0.0346140005	-1.12919998	41	16	204
-0.674709976	-0.0335250013	-1.13010001	41	16	204
-0.676949978	-0.0335199982	-1.13	41	16	204
-0.676949978	-0.0324050002	-1.13	41	16	204
-0.675930023	-0.0312430002	-1.12829995	41	16	204
-0.677649975	-0.0334389992	-1.12730002	41	16	204
-0.678160012	-0.0345779993	-1.12810004	41	16	204
-0.679369986	-0.0345209986	-1.12619996	41	16	204
-0.679369986	-0.0334089994	-1.12619996	41	16	204
-0.681089997	-0.0333789997	-1.12520003	41	16	204
-0.681089997	-0.0344900005	-1.12520003	41	16	204
-0.681089997	-0.0356119983	-1.12520003	41	16	204
-0.68058002	-0.0322440006	-1.12440002	41	16	204
-0.679560006	-0.0310869999	-1.12269998	41	16	204
-0.680760026	-0.032141	-1.12080002	41	16	204
-0.680249989	-0.0310110003	-1.12	41	16	204
-0.680249989	-0.0343270004	-1.11989999	41	16	204
-0.680760026	-0.0354709998	-1.1207	41	16	204
-0.680760026	-0.0366050005	-1.1207	41	16	204
-0.680760026	-0.0377339981	-1.12059999	41	16	204
-0.679560006	-0.0377970003	-1.12249994	41	16	204
-0.679050028	-0.0366390012	-1.12170005	41	16	204
-0.679050028	-0.0388889983	-1.12160003	41	16	204
-0.679050028	-0.0400400013	-1.12160003	41	16	204
-0.677850008	-0.0401070006	-1.12339997	41	16	204
-0.677850008	-0.0389540009	-1.12349999	41	16	204
-0.677850008	-0.037831001	-1.12349999	41	16	204
-0.675620019	-0.0378369987	-1.12370002	41	16	204
-0.676129997	-0.0367330015	-1.12460005	41	16	204
-0.676639974	-0.0356209986	-1.12549996	41	16	204
-0.677850008	-0.0355620012	-1.12360001	41	16	204
-0.676320016	-0.0366149992	-1.12100005	41	16	204
-0.679740012	-0.0387950018	-1.11889994	41	16	204
-0.679740012	-0.0399429984	-1.11880004	41	16	204
-0.680930018	-0.0398759991	-1.11699998	41	16	204
-0.680410028	-0.0386999995	-1.11609995	41	16	204
-0.679899991	-0.0375550017	-1.11530006	41	16	204
-0.679899991	-0.0364320017	-1.11539996	41	16	204
-0.681079984	-0.0341329984	-1.11360002	41	16	204
-0.680570006	-0.0330080017	-1.11269999	41	16	204
-0.680050015	-0.0318860002	-1.11189997	41	16	204
-0.679539979	-0.0307650007	-1.11109996	41	16	204
-0.678359985	-0.0297020003	-1.11300004	41	16	204
-0.676660001	-0.0297289994	-1.11399996	41	16	204
-0.673940003	-0.0297100004	-1.11329997	41	16	204
-0.674279988	-0.0298280008	-1.11769998	41	16	204
-0.674099982	-0.0299239997	-1.12129998	41	16	204
-0.674610019	-0.031072	-1.12220001	41	16	204
-0.675620019	-0.0322280005	-1.12380004	41	16	204
-0.677339971	-0.0321989991	-1.12279999	41	16	204
-0.676829994	-0.0310679991	-1.12199998	41	16	204
-0.681779981	-0.0332980007	-1.12249994	41	16	204
-0.681949973	-0.0354110003	-1.11880004	41	16	204
-0.681439996	-0.0342690013	-1.11800003	41	16	204
-0.680410028	-0.0331149995	-1.11629999	41	16	204
-0.680410028	-0.0320129991	-1.1164	41	16	204
-0.679899991	-0.0308880005	-1.11549997	41	16	204
-0.679539979	-0.0351620018	-1.11099994	41	16	204
-0.67851001	-0.036231	-1.1092	41	16	204
-0.677479982	-0.0372899994	-1.10749996	41	16	204
-0.67681998	-0.0408140011	-1.11010003	41	16	204
-0.679019988	-0.0408079997	-1.1099	41	16	204
-0.680050015	-0.0419929996	-1.11160004	41	16	204
-0.678359985	-0.0420310013	-1.11259997	41	16	204
-0.681079984	-0.0397469997	-1.11339998	41	16	204
-0.680050015	-0.0385459997	-1.11170006	41	16	204
-0.681599975	-0.0431500003	-1.11409998	41	16	204
-0.678200006	-0.0410399996	-1.11619997	41	16	204
-0.677990019	-0.0295829996	-1.1085	41	16	204
-0.682110012	-0.0414250009	-1.12670004	41	16	204
-0.681919992	-0.0415569991	-1.13030005	41	16	204
-0.68039	-0.0447629988	-1.12759995	41	16	204
-0.679880023	-0.0458399989	-1.12670004	41	16	204
-0.678749979	-0.0371370018	-1.13689995	41	16	204
-0.679759979	-0.0360400006	-1.13870001	41	16	204
-0.676509976	-0.0359899998	-1.13709998	41	16	204
-0.678250015	-0.0325829983	-1.13619995	41	16	204
-0.678250015	-0.0314619988	-1.13619995	41	16	204
-0.679260015	-0.0303690005	-1.13800001	41	16	204
-0.675499976	-0.0314420015	-1.13549995	41	16	204
-0.673489988	-0.0324629992	-1.13199997	41	16	204
-0.672490001	-0.0346449986	-1.13030005	41	16	204
-0.670260012	-0.0346489996	-1.13039994	41	16	204
-0.670979977	-0.0334520005	-1.12769997	41	16	204
-0.668250024	-0.0334299989	-1.12699997	41	16	204
-0.668250024	-0.0323179998	-1.12699997	41	16	204
-0.669470012	-0.0300280005	-1.12520003	41	16	204
-0.66602999	-0.0300810002	-1.12720001	41	16	204
-0.668030024	-0.0324210003	-1.13059998	41	16	204
-0.669759989	-0.0312779993	-1.12960005	41	16	204
-0.669529974	-0.0336139984	-1.13320005	41	16	204
-0.670530021	-0.0314260013	-1.13489997	41	16	204
-0.669290006	-0.0303380005	-1.13680005	41	16	204
-0.667559981	-0.0303649995	-1.13779998	41	16	204
-0.665820003	-0.0315329991	-1.13880002	41	16	204
-0.668049991	-0.0326530002	-1.13859999	41	16	204
-0.66979003	-0.0326239988	-1.13759995	41	16	204
-0.669290006	-0.033721	-1.13670003	41	16	204
-0.665570021	-0.0347669981	-1.13419998	41	16	204
-0.665069997	-0.0336220004	-1.13339996	41	16	204
-0.663339972	-0.0336510018	-1.13440001	41	16	204
-0.663839996	-0.0325569995	-1.13530004	41	16	204
-0.663839996	-0.0302990004	-1.13540006	41	16	204
-0.661610007	-0.0303019993	-1.13549995	41	16	204
-0.661109984	-0.0314159989	-1.13460004	41	16	204
-0.66012001	-0.0324850008	-1.13279998	41	16	204
-0.660619974	-0.0336290002	-1.1336	41	16	204
-0.657410026	-0.0324629992	-1.13209999	41	16	204
-0.654209971	-0.0301680006	-1.13049996	41	16	204
-0.657159984	-0.0345610008	-1.12750006	41	16	204
-0.656669974	-0.0356579982	-1.12660003	41	16	204
-0.660369992	-0.0357370004	-1.12909997	41	16	204
-0.660369992	-0.0346110016	-1.12919998	41	16	204
-0.660860002	-0.0391759984	-1.12989998	41	16	204
-0.662349999	-0.0381340012	-1.13250005	41	16	204
-0.661350012	-0.0315390006	-1.13900006	41	16	204
-0.660359979	-0.0303509999	-1.13730001	41	16	204
-0.656400025	-0.0366530009	-1.1221	41	16	204
-0.650020003	-0.0331929997	-1.11899996	41	16	204
-0.646350026	-0.032017	-1.11650002	41	16	204
-0.645370007	-0.0286209993	-1.11479998	41	16	204
-0.647069991	-0.0285969991	-1.11389995	41	16	204
-0.650160015	-0.0284330007	-1.10749996	41	16	204
-0.651849985	-0.0284090005	-1.10650003	41	16	204
-0.654529989	-0.0284279995	-1.10730004	41	16	204
-0.654209971	-0.028314	-1.10290003	41	16	204
-0.656390011	-0.0283119995	-1.10280001	41	16	204
-0.655040026	-0.0281540006	-1.09660006	41	16	204
-0.656700015	-0.028128	-1.09560001	41	16	204
-0.658370018	-0.0281029996	-1.09469998	41	16	204
-0.659009993	-0.0280339997	-1.09200001	41	16	204
-0.660669982	-0.0280089993	-1.09099996	41	16	204
-0.660669982	-0.0269300006	-1.09099996	41	16	204
-0.662840009	-0.0269269999	-1.09089994	41	16	204
-0.663349986	-0.0280280001	-1.09169996	41	16	204
-0.665009975	-0.0280019995	-1.09070003	41	16	204
-0.665520012	-0.0269450005	-1.09159994	41	16	204
-0.666660011	-0.0268990006	-1.08969998	41	16	204
-0.666660011	-0.0279770009	-1.08969998	41	16	204
-0.664089978	-0.0257360004	-1.0855	41	16	204
-0.664089978	-0.0246539991	-1.0855	41	16	204
-0.664089978	-0.0235549994	-1.0855	41	16	204
-0.661920011	-0.0246569999	-1.08560002	41	16	204
-0.661409974	-0.025719	-1.0848	41	16	204
-0.660279989	-0.0246799998	-1.08659995	41	16	204
-0.659759998	-0.0235610008	-1.08580005	41	16	204
-0.660279989	-0.0224530008	-1.08669996	41	16	204
-0.660279989	-0.0213089995	-1.08669996	41	16	204
-0.661920011	-0.0212900005	-1.08570004	41	16	204
-0.661920011	-0.0224329997	-1.08570004	41	16	204
-0.660899997	-0.0235210005	-1.08399999	41	16	204
-0.658119977	-0.0246820003	-1.08669996	41	16	204
-0.658630013	-0.0236009993	-1.08759999	41	16	204
-0.656470001	-0.0236029997	-1.08780003	41	16	204
-0.655960023	-0.0246849991	-1.0869	41	16	204
-0.656470001	-0.0257890001	-1.08770001	41	16	204
-0.654309988	-0.0257920008	-1.08780003	41	16	204
-0.654810011	-0.0268719997	-1.08870006	41	16	204
-0.653159976	-0.0268959999	-1.08959997	41	16	204
-0.651000023	-0.0258380007	-1.0898	41	16	204
-0.649850011	-0.0269440003	-1.09159994	41	16	204
-0.646690011	-0.0269029997	-1.08990002	41	16	204
-0.646179974	-0.0258220006	-1.0891	41	16	204
-0.64568001	-0.0247159991	-1.08819997	41	16	204
-0.644029975	-0.0247380007	-1.08920002	41	16	204
-0.644529998	-0.0258440003	-1.09000003	41	16	204
-0.645030022	-0.0269269999	-1.09089994	41	16	204
-0.641879976	-0.0268859994	-1.08920002	41	16	204
-0.641879976	-0.0258259997	-1.08930004	41	16	204
-0.641879976	-0.0247399993	-1.08930004	41	16	204
-0.639720023	-0.0247419998	-1.08940005	41	16	204
-0.63872999	-0.0268460009	-1.08759999	41	16	204
-0.638230026	-0.0257660002	-1.08669996	41	16	204
-0.638230026	-0.0235820003	-1.08679998	41	16	204
-0.640380025	-0.023581	-1.08669996	41	16	204
-0.642530024	-0.0235789996	-1.08659995	41	16	204
-0.64418	-0.0235580001	-1.08570004	41	16	204
-0.643169999	-0.0223970003	-1.08399999	41	16	204
-0.641529977	-0.0224169996	-1.08490002	41	16	204
-0.639379978	-0.0224179998	-1.08500004	41	16	204
-0.639379978	-0.0212760009	-1.08500004	41	16	204
-0.637740016	-0.0212949999	-1.08599997	41	16	204
-0.638230026	-0.0202629995	-1.0869	41	16	204
-0.63872999	-0.0192709994	-1.08770001	41	16	204
-0.63872999	-0.0181980003	-1.08780003	41	16	204
-0.63872999	-0.0171939991	-1.08780003	41	16	204
-0.637080014	-0.0182140004	-1.08870006	41	16	204
-0.638069987	-0.0193179995	-1.09039998	41	16	204
-0.637570024	-0.0203130003	-1.08949995	41	16	204
-0.637080014	-0.0213469993	-1.08870006	41	16	204
-0.635429978	-0.0213660002	-1.08959997	41	16	204
-0.635429978	-0.0203150008	-1.08959997	41	16	204
-0.634930015	-0.019289	-1.08879995	41	16	204
-0.634440005	-0.0182009991	-1.08790004	41	16	204
-0.632790029	-0.0192900002	-1.08879995	41	16	204
-0.63112998	-0.0203169994	-1.08969998	41	16	204
-0.63112998	-0.0213680007	-1.08969998	41	16	204
-0.633279979	-0.0213670004	-1.08969998	41	16	204
-0.633769989	-0.0203319993	-1.09060001	41	16	204
-0.634440005	-0.0224769991	-1.08780003	41	16	204
-0.634440005	-0.023604	-1.08780003	41	16	204
-0.633939981	-0.0246859994	-1.0869	41	16	204
-0.633449972	-0.0257489998	-1.08599997	41	16	204
-0.635100007	-0.0257270001	-1.08510005	41	16	204
-0.635590017	-0.0246649999	-1.08599997	41	16	204
-0.635590017	-0.0235649999	-1.08599997	41	16	204
-0.636089981	-0.0224569999	-1.0869	41	16	204
-0.637239993	-0.0224200003	-1.08510005	41	16	204
-0.640380025	-0.0202619992	-1.08679998	41	16	204
-0.640380025	-0.0192540009	-1.08679998	41	16	204
-0.639880002	-0.0181680005	-1.08599997	41	16	204
-0.639379978	-0.0171520002	-1.08510005	41	16	204
-0.638890028	-0.0159239992	-1.08430004	41	16	204
-0.638390005	-0.0148139996	-1.08340001	41	16	204
-0.637889981	-0.0138429999	-1.08249998	41	16	204
-0.637889981	-0.0126989996	-1.0826	41	16	204
-0.637889981	-0.0116079999	-1.0826	41	16	204
-0.637889981	-0.0105969999	-1.0826	41	16	204
-0.636250019	-0.0116189998	-1.08350003	41	16	204
-0.635749996	-0.0126999998	-1.0826	41	16	204
-0.635749996	-0.0148029998	-1.0826	41	16	204
-0.634750009	-0.0138219995	-1.08089995	41	16	204
-0.63312	-0.0138339996	-1.08179998	41	16	204
-0.63361001	-0.0127010001	-1.08270001	41	16	204
-0.63361001	-0.0116100004	-1.08270001	41	16	204
-0.631969988	-0.01162	-1.08369994	41	16	204
-0.631969988	-0.0127119999	-1.08360004	41	16	204
-0.631470025	-0.0138459997	-1.08280003	41	16	204
-0.631470025	-0.0148050003	-1.08270001	41	16	204
-0.630980015	-0.0158879999	-1.0819	41	16	204
-0.632120013	-0.0158619992	-1.08010006	41	16	204
-0.631630003	-0.0147569999	-1.07920003	41	16	204
-0.632619977	-0.0105809998	-1.08099997	41	16	204
-0.632619977	-0.00936300028	-1.08099997	41	16	204
-0.63312	-0.00827510003	-1.0819	41	16	204
-0.63312	-0.00731740007	-1.0819	41	16	204
-0.630980015	-0.00731780007	-1.08200002	41	16	204
-0.630490005	-0.00826899987	-1.08109999	41	16	204
-0.630980015	-0.00937109999	-1.0819	41	16	204
-0.630980015	-0.0105900001	-1.0819	41	16	204
-0.629339993	-0.0105990004	-1.08290005	41	16	204
-0.627699971	-0.0106079997	-1.08379996	41	16	204
-0.628189981	-0.0116309999	-1.08459997	41	16	204
-0.628679991	-0.0127339996	-1.0855	41	16	204
-0.630819976	-0.0127330003	-1.08539999	41	16	204
-0.630320013	-0.0116299996	-1.08459997	41	16	204
-0.630320013	-0.0138689997	-1.08459997	41	16	204
-0.629830003	-0.0148179997	-1.08369994	41	16	204
-0.629830003	-0.0159150008	-1.08369994	41	16	204
-0.629830003	-0.0171290003	-1.08360004	41	16	204
-0.628189981	-0.0171440002	-1.08459997	41	16	204
-0.628189981	-0.0159290005	-1.08459997	41	16	204
-0.628189981	-0.0148299998	-1.08459997	41	16	204
-0.627699971	-0.0138590001	-1.08369994	41	16	204
-0.625559986	-0.0138590001	-1.08379996	41	16	204
-0.626049995	-0.012724	-1.08469999	41	16	204
-0.623920023	-0.0127250003	-1.08469999	41	16	204
-0.623430014	-0.0116219996	-1.08389997	41	16	204
-0.623430014	-0.010609	-1.08389997	41	16	204
-0.622940004	-0.00938049983	-1.08299994	41	16	204
-0.624580026	-0.00937249977	-1.08210003	41	16	204
-0.624580026	-0.00827690028	-1.08210003	41	16	204
-0.626219988	-0.00826979987	-1.0812	41	16	204
-0.626709998	-0.00937210023	-1.08210003	41	16	204
-0.628350019	-0.00936410017	-1.08109999	41	16	204
-0.628849983	-0.00731820008	-1.08200002	41	16	204
-0.62786001	-0.0061650998	-1.08029997	41	16	204
-0.629499972	-0.0061598001	-1.07939994	41	16	204
-0.63112998	-0.00615449995	-1.07840002	41	16	204
-0.63063997	-0.00507250009	-1.0776	41	16	204
-0.63112998	-0.00397069985	-1.07840002	41	16	204
-0.63063997	-0.00287920004	-1.0776	41	16	204
-0.63063997	-0.00180219999	-1.0776	41	16	204
-0.63063997	-0.000839630025	-1.0776	41	16	204
-0.628509998	-0.000839670014	-1.0776	41	16	204
-0.627520025	-0.00179939996	-1.07589996	41	16	204
-0.628019989	-0.00287709991	-1.07679999	41	16	204
-0.629000008	-0.00397090008	-1.07850003	41	16	204
-0.62687999	-0.00397109985	-1.07850003	41	16	204
-0.62687999	-0.00507720001	-1.07850003	41	16	204
-0.625729978	-0.00508560007	-1.08029997	41	16	204
-0.625240028	-0.00616039988	-1.07949996	41	16	204
-0.625240028	-0.00730089983	-1.07949996	41	16	204
-0.623600006	-0.00730720023	-1.08039999	41	16	204
-0.62312001	-0.00616070023	-1.07949996	41	16	204
-0.624090016	-0.00509000011	-1.08130002	41	16	204
-0.621969998	-0.00509019988	-1.08130002	41	16	204
-0.621969998	-0.00731340004	-1.08130002	41	16	204
-0.620989978	-0.00825720001	-1.07949996	41	16	204
-0.61887002	-0.0082574999	-1.07959998	41	16	204
-0.61887002	-0.00616119988	-1.07959998	41	16	204
-0.61838001	-0.00507800002	-1.07869995	41	16	204
-0.61887002	-0.00397500023	-1.07959998	41	16	204
-0.620010018	-0.00396839995	-1.07780004	41	16	204
-0.619530022	-0.00287760003	-1.07690001	41	16	204
-0.620010018	-0.00180259999	-1.07780004	41	16	204
-0.621649981	-0.00287749991	-1.07690001	41	16	204
-0.621649981	-0.00396500016	-1.07690001	41	16	204
-0.623279989	-0.00396170001	-1.07599998	41	16	204
-0.624260008	-0.00180249999	-1.07770002	41	16	204
-0.623769999	-0.000839080021	-1.07690001	41	16	204
-0.62213999	-0.00083978998	-1.07780004	41	16	204
-0.62263	-0.001804	-1.07869995	41	16	204
-0.620989978	-0.000841189991	-1.07959998	41	16	204
-0.61789	-0.000839860004	-1.07790005	41	16	204
-0.617410004	-0.00180119998	-1.07700002	41	16	204
-0.61789	-0.00288000004	-1.07790005	41	16	204
-0.615779996	-0.00396869984	-1.07790005	41	16	204
-0.614139974	-0.0050782999	-1.07879996	41	16	204
-0.612990022	-0.00508669997	-1.08060002	41	16	204
-0.612020016	-0.0061567002	-1.07879996	41	16	204
-0.612020016	-0.0072964998	-1.07879996	41	16	204
-0.610390007	-0.00616180012	-1.07969999	41	16	204
-0.608749986	-0.00616690004	-1.08060002	41	16	204
-0.608269989	-0.00508269994	-1.07969999	41	16	204
-0.608269989	-0.00397549989	-1.07969999	41	16	204
-0.608269989	-0.00288500008	-1.07969999	41	16	204
-0.609910011	-0.00288260006	-1.07879996	41	16	204
-0.609430015	-0.00396890007	-1.07799995	41	16	204
-0.609430015	-0.00507439999	-1.07799995	41	16	204
-0.610580027	-0.0039623999	-1.07620001	41	16	204
-0.610580027	-0.00287560001	-1.07620001	41	16	204
-0.612209976	-0.00287319999	-1.07529998	41	16	204
-0.612209976	-0.00395910023	-1.07529998	41	16	204
-0.61431998	-0.00287310011	-1.07529998	41	16	204
-0.615289986	-0.00180129998	-1.07700002	41	16	204
-0.614139974	-0.0018043	-1.07879996	41	16	204
-0.61461997	-0.000841270026	-1.07969999	41	16	204
-0.616259992	-0.000840560009	-1.07879996	41	16	204
-0.612510026	-0.00180580001	-1.07969999	41	16	204
-0.612020016	-0.000840599998	-1.07879996	41	16	204
-0.610390007	-0.00180580001	-1.07969999	41	16	204
-0.607309997	-0.00180289999	-1.07799995	41	16	204
-0.605679989	-0.000840639987	-1.07889998	41	16	204
-0.605199993	-0.00180289999	-1.07799995	41	16	204
-0.603569984	-0.0018044	-1.07889998	41	16	204
-0.60145998	-0.0018044	-1.07889998	41	16	204
-0.600979984	-0.00288040005	-1.07799995	41	16	204
-0.599349976	-0.00288269995	-1.07889998	41	16	204
-0.598879993	-0.00396900019	-1.07799995	41	16	204
-0.599349976	-0.00507869991	-1.07889998	41	16	204
-0.60145998	-0.00507869991	-1.07889998	41	16	204
-0.601930022	-0.00616210001	-1.07969999	41	16	204
-0.600769997	-0.00617210008	-1.08150005	41	16	204
-0.601239979	-0.00732070021	-1.08239996	41	16	204
-0.600769997	-0.00827219989	-1.08150005	41	16	204
-0.600769997	-0.00936719961	-1.08150005	41	16	204
-0.601239979	-0.0105940001	-1.08239996	41	16	204
-0.60007	-0.0116250003	-1.08410001	41	16	204
-0.600539982	-0.0106199998	-1.08500004	41	16	204
-0.598890007	-0.0106290001	-1.08589995	41	16	204
-0.597249985	-0.0106370002	-1.08669996	41	16	204
-0.595130026	-0.0106370002	-1.08669996	41	16	204
-0.594200015	-0.0116339996	-1.08500004	41	16	204
-0.594659984	-0.0127370004	-1.08580005	41	16	204
-0.596310019	-0.0127269998	-1.08500004	41	16	204
-0.595839977	-0.0116250003	-1.08410001	41	16	204
-0.597959995	-0.0116250003	-1.08410001	41	16	204
-0.598420024	-0.0127269998	-1.08500004	41	16	204
-0.600539982	-0.0127269998	-1.08500004	41	16	204
-0.599359989	-0.0138969999	-1.08669996	41	16	204
-0.599359989	-0.0148590002	-1.08669996	41	16	204
-0.599359989	-0.0159590002	-1.08669996	41	16	204
-0.599359989	-0.0171770006	-1.08669996	41	16	204
-0.597710013	-0.0171910003	-1.08749998	41	16	204
-0.597710013	-0.0159719996	-1.08759999	41	16	204
-0.597710013	-0.0148710003	-1.08759999	41	16	204
-0.597249985	-0.0138969999	-1.08669996	41	16	204
-0.596059978	-0.0139189996	-1.08850002	41	16	204
-0.593949974	-0.0139189996	-1.08850002	41	16	204
-0.593020022	-0.0127480002	-1.08669996	41	16	204
-0.59254998	-0.0116429999	-1.08580005	41	16	204
-0.59254998	-0.0106279999	-1.08580005	41	16	204
-0.590439975	-0.0116429999	-1.08580005	41	16	204
-0.589980006	-0.0106189996	-1.08490002	41	16	204
-0.589980006	-0.0127269998	-1.08490002	41	16	204
-0.590439975	-0.0138849998	-1.08580005	41	16	204
-0.589980006	-0.0148339998	-1.08490002	41	16	204
-0.588329971	-0.0148459999	-1.08570004	41	16	204
-0.588329971	-0.0138839995	-1.08570004	41	16	204
-0.586679995	-0.0138950003	-1.08659995	41	16	204
-0.585030019	-0.0139060002	-1.08749998	41	16	204
-0.585030019	-0.0127569996	-1.08749998	41	16	204
-0.585030019	-0.0116609996	-1.08749998	41	16	204
-0.583379984	-0.0116699999	-1.08829999	41	16	204
-0.583379984	-0.0127670001	-1.08829999	41	16	204
-0.583379984	-0.013917	-1.08829999	41	16	204
-0.580820024	-0.0127560003	-1.08739996	41	16	204
-0.57990998	-0.013882	-1.08560002	41	16	204
-0.57990998	-0.0148440003	-1.08560002	41	16	204
-0.582009971	-0.0148440003	-1.08560002	41	16	204
-0.582009971	-0.0159430001	-1.08560002	41	16	204
-0.583660007	-0.0148329996	-1.0848	41	16	204
-0.585759997	-0.0148329996	-1.0848	41	16	204
-0.585300028	-0.0127149997	-1.08399999	41	16	204
-0.585300028	-0.0106100002	-1.08399999	41	16	204
-0.583660007	-0.0106189996	-1.0848	41	16	204
-0.582009971	-0.0106269997	-1.08570004	41	16	204
-0.581099987	-0.00938810036	-1.08389997	41	16	204
-0.580640018	-0.0082839001	-1.08299994	41	16	204
-0.580640018	-0.00732509978	-1.08299994	41	16	204
-0.58227998	-0.0082774004	-1.08220005	41	16	204
-0.58227998	-0.00937309954	-1.08220005	41	16	204
-0.583459973	-0.00935809966	-1.08039999	41	16	204
-0.585560024	-0.00935839955	-1.08050001	41	16	204
-0.587660015	-0.00935870036	-1.08050001	41	16	204
-0.588590026	-0.0082782004	-1.08229995	41	16	204
-0.588590026	-0.00617660023	-1.08229995	41	16	204
-0.586480021	-0.00617650012	-1.08229995	41	16	204
-0.586480021	-0.00509470003	-1.08229995	41	16	204
-0.586480021	-0.00398480007	-1.08229995	41	16	204
-0.588119984	-0.00398170017	-1.08140004	41	16	204
-0.589760005	-0.00397850014	-1.08060002	41	16	204
-0.589760005	-0.00508669997	-1.08060002	41	16	204
-0.59187001	-0.00397859979	-1.08060002	41	16	204
-0.59187001	-0.00288729998	-1.08060002	41	16	204
-0.591400027	-0.00180580001	-1.07969999	41	16	204
-0.589760005	-0.00180720002	-1.08060002	41	16	204
-0.590229988	-0.00288959988	-1.08150005	41	16	204
-0.592800021	-0.00509510003	-1.08239996	41	16	204
-0.594439983	-0.00509099988	-1.08150005	41	16	204
-0.594439983	-0.00617199996	-1.08150005	41	16	204
-0.595610023	-0.00616199989	-1.07969999	41	16	204
-0.597239971	-0.00507869991	-1.07889998	41	16	204
-0.597239971	-0.00397229986	-1.07889998	41	16	204
-0.597239971	-0.00288269995	-1.07889998	41	16	204
-0.597710013	-0.00180590001	-1.07980001	41	16	204
-0.596080005	-0.00180730002	-1.08060002	41	16	204
-0.596080005	-0.00084201002	-1.08060002	41	16	204
-0.593500018	-0.000841310015	-1.07969999	41	16	204
-0.593500018	-0.00180580001	-1.07969999	41	16	204
-0.594669998	-0.00288029993	-1.07799995	41	16	204
-0.593970001	-0.00397869991	-1.08060002	41	16	204
-0.596080005	-0.00397869991	-1.08060002	41	16	204
-0.596549988	-0.0050911	-1.08150005	41	16	204
-0.596549988	-0.00731470017	-1.08150005	41	16	204
-0.59701997	-0.00827880017	-1.08239996	41	16	204
-0.597490013	-0.00938230008	-1.08319998	41	16	204
-0.599129975	-0.00937480014	-1.08239996	41	16	204
-0.598659992	-0.00827210024	-1.08150005	41	16	204
-0.599129975	-0.00732070021	-1.08239996	41	16	204
-0.598659992	-0.00617210008	-1.08150005	41	16	204
-0.594910026	-0.00827869959	-1.08229995	41	16	204
-0.595369995	-0.00938220043	-1.08319998	41	16	204
-0.59325999	-0.00938209984	-1.08319998	41	16	204
-0.59325999	-0.00732639991	-1.08319998	41	16	204
-0.593729973	-0.00618699985	-1.08410001	41	16	204
-0.592090011	-0.0061919	-1.08500004	41	16	204
-0.591620028	-0.00733229984	-1.08410001	41	16	204
-0.589510024	-0.00733210007	-1.08410001	41	16	204
-0.587870002	-0.00829830021	-1.08490002	41	16	204
-0.587409973	-0.0106109995	-1.08399999	41	16	204
-0.587870002	-0.0116330003	-1.08490002	41	16	204
-0.587409973	-0.012716	-1.08399999	41	16	204
-0.586220026	-0.0116419997	-1.08570004	41	16	204
-0.585300028	-0.00829130039	-1.08399999	41	16	204
-0.583199978	-0.00733140018	-1.08399999	41	16	204
-0.58227998	-0.006176	-1.08220005	41	16	204
-0.582740009	-0.00509859994	-1.08309996	41	16	204
-0.58484	-0.00509870006	-1.08309996	41	16	204
-0.584379971	-0.00617629988	-1.08220005	41	16	204
-0.583920002	-0.00731369993	-1.08130002	41	16	204
-0.586019993	-0.00731390016	-1.08140004	41	16	204
-0.587199986	-0.00508240005	-1.07959998	41	16	204
-0.587199986	-0.00288480008	-1.07969999	41	16	204
-0.587199986	-0.00180570001	-1.07969999	41	16	204
-0.587199986	-0.000841250003	-1.07969999	41	16	204
-0.588829994	-0.000840589986	-1.07879996	41	16	204
-0.589529991	-0.000838540029	-1.07620001	41	16	204
-0.591629982	-0.00287560001	-1.07620001	41	16	204
-0.595830023	-0.000838580017	-1.07620001	41	16	204
-0.597459972	-0.000837899977	-1.07539999	41	16	204
-0.600300014	-0.00180730002	-1.08060002	41	16	204
-0.602410018	-0.000842019974	-1.08060002	41	16	204
-0.604520023	-0.000842019974	-1.08060002	41	16	204
-0.604520023	-0.0028874001	-1.08060002	41	16	204
-0.606159985	-0.00288509997	-1.07969999	41	16	204
-0.606630027	-0.00397869991	-1.08060002	41	16	204
-0.606630027	-0.0050869002	-1.08060002	41	16	204
-0.606159985	-0.00616199989	-1.07969999	41	16	204
-0.604520023	-0.00616709981	-1.08060002	41	16	204
-0.605000019	-0.0050911	-1.08150005	41	16	204
-0.603359997	-0.00398530019	-1.08239996	41	16	204
-0.603359997	-0.00732070021	-1.08239996	41	16	204
-0.605000019	-0.00731470017	-1.08150005	41	16	204
-0.603359997	-0.00937480014	-1.08239996	41	16	204
-0.604300022	-0.00829240028	-1.08410001	41	16	204
-0.606419981	-0.0082922997	-1.08410001	41	16	204
-0.608539999	-0.00829220004	-1.08410001	41	16	204
-0.608539999	-0.00938989967	-1.08410001	41	16	204
-0.610669971	-0.00938970037	-1.08410001	41	16	204
-0.610189974	-0.00828540046	-1.08319998	41	16	204
-0.610669971	-0.00733239995	-1.08410001	41	16	204
-0.609019995	-0.0073384	-1.08500004	41	16	204
-0.611829996	-0.00732039986	-1.08229995	41	16	204
-0.611829996	-0.00827850029	-1.08229995	41	16	204
-0.612309992	-0.00938189961	-1.08319998	41	16	204
-0.612309992	-0.0116149997	-1.08319998	41	16	204
-0.613470018	-0.0115959998	-1.08140004	41	16	204
-0.615589976	-0.0115949996	-1.08140004	41	16	204
-0.615589976	-0.012685	-1.08140004	41	16	204
-0.61443001	-0.0127060004	-1.08309996	41	16	204
-0.614910007	-0.0138619998	-1.08399999	41	16	204
-0.616559982	-0.0138499998	-1.08309996	41	16	204
-0.617039979	-0.0148210004	-1.08399999	41	16	204
-0.615880013	-0.0148459999	-1.08570004	41	16	204
-0.614229977	-0.014858	-1.08659995	41	16	204
-0.614229977	-0.0138959996	-1.08669996	41	16	204
-0.613059998	-0.0139189996	-1.08840001	41	16	204
-0.612580001	-0.0159719996	-1.08749998	41	16	204
-0.612580001	-0.01719	-1.08749998	41	16	204
-0.614229977	-0.0171760004	-1.08659995	41	16	204
-0.614229977	-0.015958	-1.08659995	41	16	204
-0.616840005	-0.0159709994	-1.08749998	41	16	204
-0.616840005	-0.0171889998	-1.08749998	41	16	204
-0.616840005	-0.0181930009	-1.08739996	41	16	204
-0.617320001	-0.0192809999	-1.08829999	41	16	204
-0.616840005	-0.020273	-1.08739996	41	16	204
-0.618009984	-0.0202399995	-1.08560002	41	16	204
-0.617519975	-0.0212699994	-1.08469999	41	16	204
-0.615880013	-0.021288	-1.08560002	41	16	204
-0.613749981	-0.0212890003	-1.08570004	41	16	204
-0.612580001	-0.0213229991	-1.08739996	41	16	204
-0.610930026	-0.0213409998	-1.08829999	41	16	204
-0.610930026	-0.0224869996	-1.08829999	41	16	204
-0.610450029	-0.0235959999	-1.08739996	41	16	204
-0.608799994	-0.0236150008	-1.08829999	41	16	204
-0.608799994	-0.0224869996	-1.08829999	41	16	204
-0.607620001	-0.0225239992	-1.09010005	41	16	204
-0.608099997	-0.0236729998	-1.09099996	41	16	204
-0.608099997	-0.0247770008	-1.09089994	41	16	204
-0.607620001	-0.0258440003	-1.09000003	41	16	204
-0.606440008	-0.0258859992	-1.09179997	41	16	204
-0.606440008	-0.024797	-1.09179997	41	16	204
-0.606440008	-0.0236920007	-1.09179997	41	16	204
-0.604780018	-0.0237109996	-1.0927	41	16	204
-0.604780018	-0.0248179995	-1.0927	41	16	204
-0.604780018	-0.0259070005	-1.0927	41	16	204
-0.603590012	-0.0259489994	-1.09440005	41	16	204
-0.603120029	-0.0269920006	-1.09350002	41	16	204
-0.600520015	-0.0259070005	-1.0927	41	16	204
-0.600049973	-0.0247980002	-1.09179997	41	16	204
-0.599590003	-0.0236729998	-1.09099996	41	16	204
-0.599590003	-0.0225419998	-1.09099996	41	16	204
-0.599120021	-0.0213760007	-1.09010005	41	16	204
-0.600769997	-0.0203079991	-1.08930004	41	16	204
-0.599829972	-0.0192670003	-1.08749998	41	16	204
-0.600300014	-0.0182089992	-1.08840001	41	16	204
-0.598179996	-0.0182089992	-1.08840001	41	16	204
-0.598179996	-0.0192820001	-1.08840001	41	16	204
-0.597710013	-0.0202750005	-1.08749998	41	16	204
-0.596059978	-0.0202910006	-1.08840001	41	16	204
-0.596059978	-0.0192820001	-1.08840001	41	16	204
-0.596059978	-0.0172039997	-1.08840001	41	16	204
-0.593949974	-0.0172039997	-1.08840001	41	16	204
-0.591830015	-0.0172039997	-1.08840001	41	16	204
-0.589720011	-0.0182080008	-1.08829999	41	16	204
-0.589720011	-0.0192809999	-1.08829999	41	16	204
-0.590900004	-0.0192499999	-1.08659995	41	16	204
-0.591369987	-0.0202740002	-1.08739996	41	16	204
-0.593020022	-0.0202580001	-1.08659995	41	16	204
-0.592090011	-0.0192189999	-1.0848	41	16	204
-0.592090011	-0.0181489997	-1.0848	41	16	204
-0.593729973	-0.018135	-1.08399999	41	16	204
-0.59254998	-0.0159460008	-1.08580005	41	16	204
-0.59254998	-0.0148459999	-1.08580005	41	16	204
-0.594659984	-0.0148470001	-1.08580005	41	16	204
-0.595130026	-0.0159590002	-1.08669996	41	16	204
-0.590900004	-0.015958	-1.08659995	41	16	204
-0.589720011	-0.0159840006	-1.08840001	41	16	204
-0.589250028	-0.0171889998	-1.08749998	41	16	204
-0.588060021	-0.0172169991	-1.08920002	41	16	204
-0.58851999	-0.0182370003	-1.09010005	41	16	204
-0.58851999	-0.0193119999	-1.09010005	41	16	204
-0.58851999	-0.0203230008	-1.09010005	41	16	204
-0.58851999	-0.0213740002	-1.09000003	41	16	204
-0.58851999	-0.0225220006	-1.09000003	41	16	204
-0.590640008	-0.0225220006	-1.09000003	41	16	204
-0.590640008	-0.0213750005	-1.09010005	41	16	204
-0.590640008	-0.0203230008	-1.09010005	41	16	204
-0.592289984	-0.0213580001	-1.08920002	41	16	204
-0.592760026	-0.0225230008	-1.09010005	41	16	204
-0.594410002	-0.0213580001	-1.08920002	41	16	204
-0.59653002	-0.0213590004	-1.08920002	41	16	204
-0.597459972	-0.0225419998	-1.09099996	41	16	204
-0.597930014	-0.0236920007	-1.09179997	41	16	204
-0.598399997	-0.0248169992	-1.0927	41	16	204
-0.597199976	-0.0248569995	-1.09449995	41	16	204
-0.596270025	-0.0259060003	-1.0927	41	16	204
-0.594150007	-0.0259060003	-1.09259999	41	16	204
-0.594609976	-0.0248370003	-1.09360003	41	16	204
-0.594609976	-0.0237300005	-1.09360003	41	16	204
-0.592949986	-0.0237479992	-1.09440005	41	16	204
-0.592490017	-0.0248360001	-1.09350002	41	16	204
-0.591279984	-0.0237670001	-1.09529996	41	16	204
-0.589619994	-0.0237860009	-1.09619999	41	16	204
-0.588699996	-0.0248550009	-1.09440005	41	16	204
-0.587040007	-0.0248750001	-1.09519994	41	16	204
-0.584919989	-0.0259659998	-1.09519994	41	16	204
-0.584010005	-0.0248339996	-1.0934	41	16	204
-0.585669994	-0.0237080008	-1.09259999	41	16	204
-0.584749997	-0.0258610006	-1.09080005	41	16	204
-0.586870015	-0.0258620009	-1.09080005	41	16	204
-0.588060021	-0.0258210003	-1.08899999	41	16	204
-0.59017998	-0.0258210003	-1.0891	41	16	204
-0.589900017	-0.0248160008	-1.09259999	41	16	204
-0.586409986	-0.0213740002	-1.09000003	41	16	204
-0.586409986	-0.0203220006	-1.09000003	41	16	204
-0.584299982	-0.0203210004	-1.09000003	41	16	204
-0.583379984	-0.0213380009	-1.08819997	41	16	204
-0.583840013	-0.0225019995	-1.0891	41	16	204
-0.585950017	-0.0225029998	-1.0891	41	16	204
-0.585030019	-0.0192639995	-1.08739996	41	16	204
-0.585489988	-0.0182070006	-1.08829999	41	16	204
-0.585030019	-0.0171879996	-1.08739996	41	16	204
-0.584569991	-0.0159569997	-1.08650005	41	16	204
-0.582920015	-0.0171879996	-1.08739996	41	16	204
-0.583379984	-0.0182060003	-1.08819997	41	16	204
-0.582920015	-0.0192639995	-1.08729994	41	16	204
-0.581269979	-0.0192789994	-1.08819997	41	16	204
-0.580820024	-0.0181910004	-1.08729994	41	16	204
-0.580820024	-0.0171869993	-1.08729994	41	16	204
-0.581269979	-0.0159820002	-1.08819997	41	16	204
-0.579620004	-0.0159939993	-1.0891	41	16	204
-0.579620004	-0.0172140002	-1.0891	41	16	204
-0.579620004	-0.01822	-1.08899999	41	16	204
-0.579620004	-0.0192939993	-1.08899999	41	16	204
-0.577970028	-0.0193080008	-1.08990002	41	16	204
-0.577970028	-0.0182339996	-1.08990002	41	16	204
-0.578419983	-0.0172419995	-1.09080005	41	16	204
-0.575860023	-0.0172269996	-1.0898	41	16	204
-0.575860023	-0.0182329994	-1.0898	41	16	204
-0.575410008	-0.0192920007	-1.08889997	41	16	204
-0.575860023	-0.0203179996	-1.0898	41	16	204
-0.576309979	-0.0213869996	-1.09070003	41	16	204
-0.575860023	-0.0225159992	-1.08969998	41	16	204
-0.575860023	-0.0236460008	-1.08969998	41	16	204
-0.577520013	-0.0236280002	-1.08889997	41	16	204
-0.577970028	-0.0225179996	-1.0898	41	16	204
-0.578419983	-0.0213879999	-1.09070003	41	16	204
-0.578419983	-0.0203360002	-1.09070003	41	16	204
-0.580079973	-0.0213709995	-1.08990002	41	16	204
-0.579620004	-0.0225000009	-1.08899999	41	16	204
-0.581730008	-0.0225009993	-1.08899999	41	16	204
-0.582180023	-0.0236489996	-1.08990002	41	16	204
-0.580529988	-0.0247719996	-1.09070003	41	16	204
-0.578869998	-0.0247910004	-1.09150004	41	16	204
-0.578419983	-0.0258579999	-1.09060001	41	16	204
-0.581439972	-0.0259009991	-1.09249997	41	16	204
-0.578119993	-0.0248509999	-1.09420002	41	16	204
-0.575999975	-0.0237419996	-1.0941	41	16	204
-0.573889971	-0.0248479992	-1.09399998	41	16	204
-0.573000014	-0.0237019993	-1.09230006	41	16	204
-0.570890009	-0.0237000007	-1.09220004	41	16	204
-0.570890009	-0.0225680005	-1.09220004	41	16	204
-0.56923002	-0.0225850008	-1.09309995	41	16	204
-0.56923002	-0.0237179995	-1.09300005	41	16	204
-0.56923002	-0.0248249993	-1.09300005	41	16	204
-0.570450008	-0.0247859992	-1.09130001	41	16	204
-0.571210027	-0.025812	-1.08870006	41	16	204
-0.572860003	-0.0257920008	-1.08780003	41	16	204
-0.574509978	-0.0257719997	-1.08700001	41	16	204
-0.575709999	-0.026788	-1.08519995	41	16	204
-0.578999996	-0.0267459992	-1.08360004	41	16	204
-0.580179989	-0.0267040003	-1.08179998	41	16	204
-0.58227998	-0.0267050005	-1.0819	41	16	204
-0.585300028	-0.0267500002	-1.08369994	41	16	204
-0.587870002	-0.0267719999	-1.08459997	41	16	204
-0.592329979	-0.0266869999	-1.0812	41	16	204
-0.590439975	-0.0181639995	-1.08570004	41	16	204
-0.587140024	-0.0159709994	-1.08749998	41	16	204
-0.583549976	-0.0203699991	-1.09259999	41	16	204
-0.581439972	-0.0203699991	-1.09259999	41	16	204
-0.581269979	-0.0213370007	-1.08809996	41	16	204
-0.57871002	-0.0235900003	-1.08720005	41	16	204
-0.574209988	-0.0225339998	-1.09060001	41	16	204
-0.574660003	-0.0214029998	-1.09150004	41	16	204
-0.574660003	-0.0203499999	-1.09150004	41	16	204
-0.572549999	-0.0203489996	-1.09150004	41	16	204
-0.572549999	-0.0214019995	-1.09140003	41	16	204
-0.572099984	-0.0225319993	-1.0905	41	16	204
-0.569999993	-0.0213830005	-1.0905	41	16	204
-0.569999993	-0.01932	-1.0905	41	16	204
-0.569999993	-0.0182450004	-1.0905	41	16	204
-0.569549978	-0.0172240008	-1.08969998	41	16	204
-0.569109976	-0.0159900002	-1.08879995	41	16	204
-0.568660021	-0.0148750003	-1.08790004	41	16	204
-0.567009985	-0.015989	-1.08870006	41	16	204
-0.566120028	-0.014862	-1.0869	41	16	204
-0.565670013	-0.0138879996	-1.08599997	41	16	204
-0.567319989	-0.013878	-1.08519995	41	16	204
-0.566879988	-0.01272	-1.08430004	41	16	204
-0.566879988	-0.0116280001	-1.08440006	41	16	204
-0.566879988	-0.0106140003	-1.08440006	41	16	204
-0.567319989	-0.00939999986	-1.08529997	41	16	204
-0.567319989	-0.00830120035	-1.08529997	41	16	204
-0.567319989	-0.00734040001	-1.08529997	41	16	204
-0.568970025	-0.00829489995	-1.08449996	41	16	204
-0.56941998	-0.00734090013	-1.08539999	41	16	204
-0.56941998	-0.0061941999	-1.08539999	41	16	204
-0.56941998	-0.00510929991	-1.08539999	41	16	204
-0.56941998	-0.00399619993	-1.08539999	41	16	204
-0.567770004	-0.00399929984	-1.0862	41	16	204
-0.566879988	-0.00510480022	-1.08440006	41	16	204
-0.565230012	-0.00510860002	-1.08519995	41	16	204
-0.563139975	-0.00510830013	-1.08510005	41	16	204
-0.563139975	-0.00619289977	-1.08510005	41	16	204
-0.562699974	-0.00733330008	-1.08420002	41	16	204
-0.563139975	-0.00829999987	-1.08510005	41	16	204
-0.56479001	-0.0073338002	-1.08430004	41	16	204
-0.564339995	-0.00618309993	-1.08340001	41	16	204
-0.565980017	-0.00617840001	-1.0826	41	16	204
-0.563449979	-0.00398250017	-1.08159995	41	16	204
-0.565090001	-0.0028880001	-1.08080006	41	16	204
-0.565540016	-0.00180920004	-1.08169997	41	16	204
-0.565980017	-0.000843569986	-1.0826	41	16	204
-0.567619979	-0.00180930004	-1.08179998	41	16	204
-0.567619979	-0.00289059989	-1.08179998	41	16	204
-0.569710016	-0.00289079989	-1.0819	41	16	204
-0.569710016	-0.00180940004	-1.0819	41	16	204
-0.571349978	-0.00180800003	-1.08109999	41	16	204
-0.571799994	-0.00289090001	-1.0819	41	16	204
-0.571349978	-0.00398029992	-1.08099997	41	16	204
-0.57299	-0.00397720002	-1.08019996	41	16	204
-0.573440015	-0.00288869999	-1.08109999	41	16	204
-0.575079978	-0.00288649998	-1.08029997	41	16	204
-0.575540006	-0.00180820003	-1.0812	41	16	204
-0.576439977	-0.000843819987	-1.08299994	41	16	204
-0.578540027	-0.000843869988	-1.08299994	41	16	204
-0.578999996	-0.00181279995	-1.08389997	41	16	204
-0.581099987	-0.00181289995	-1.08389997	41	16	204
-0.578540027	-0.00398749998	-1.08299994	41	16	204
-0.578540027	-0.00509809982	-1.08299994	41	16	204
-0.578079998	-0.00617549988	-1.08210003	41	16	204
-0.578540027	-0.0073247999	-1.08299994	41	16	204
-0.579450011	-0.00829709973	-1.0848	41	16	204
-0.578999996	-0.00938769989	-1.08389997	41	16	204
-0.578999996	-0.010609	-1.08379996	41	16	204
-0.578540027	-0.0116119999	-1.08290005	41	16	204
-0.576900005	-0.0116210002	-1.08379996	41	16	204
-0.57735002	-0.0106170001	-1.08469999	41	16	204
-0.575709999	-0.0106250001	-1.0855	41	16	204
-0.574060023	-0.0106340004	-1.08640003	41	16	204
-0.574060023	-0.00940950029	-1.08640003	41	16	204
-0.571959972	-0.00940889958	-1.08630002	41	16	204
-0.571510017	-0.0106239999	-1.08539999	41	16	204
-0.56941998	-0.00940059964	-1.08529997	41	16	204
-0.56852001	-0.0106060002	-1.08350003	41	16	204
-0.56852001	-0.0116189998	-1.08350003	41	16	204
-0.56941998	-0.0127309998	-1.08529997	41	16	204
-0.569859982	-0.0138900001	-1.0862	41	16	204
-0.570760012	-0.0159779992	-1.08800006	41	16	204
-0.570309997	-0.0171830002	-1.08700001	41	16	204
-0.571210027	-0.0182160009	-1.08879995	41	16	204
-0.570760012	-0.0192740001	-1.08790004	41	16	204
-0.569109976	-0.0202980004	-1.08870006	41	16	204
-0.567009985	-0.0202959999	-1.08860004	41	16	204
-0.564909995	-0.0202949997	-1.08860004	41	16	204
-0.564909995	-0.0213450007	-1.08850002	41	16	204
-0.562820017	-0.0213430002	-1.08850002	41	16	204
-0.563260019	-0.0203099996	-1.08940005	41	16	204
-0.562820017	-0.0192840006	-1.08850002	41	16	204
-0.562380016	-0.0181959998	-1.08759999	41	16	204
-0.560289979	-0.0181939993	-1.08749998	41	16	204
-0.559849977	-0.0171760004	-1.08659995	41	16	204
-0.559849977	-0.0159590002	-1.08669996	41	16	204
-0.561489999	-0.0159469992	-1.08589995	41	16	204
-0.561489999	-0.0171639994	-1.08580005	41	16	204
-0.563139975	-0.015935	-1.08500004	41	16	204
-0.564029992	-0.0148609998	-1.0869	41	16	204
-0.562380016	-0.0148719996	-1.08770001	41	16	204
-0.56072998	-0.0148830004	-1.08850002	41	16	204
-0.561169982	-0.0139309997	-1.08940005	41	16	204
-0.561609983	-0.0127900001	-1.09029996	41	16	204
-0.563260019	-0.0139319999	-1.08949995	41	16	204
-0.564909995	-0.0139220003	-1.08870006	41	16	204
-0.563579977	-0.0127389999	-1.08599997	41	16	204
-0.563579977	-0.0116450004	-1.08599997	41	16	204
-0.563139975	-0.0106210001	-1.08510005	41	16	204
-0.56479001	-0.010613	-1.08430004	41	16	204
-0.565230012	-0.0116360001	-1.08519995	41	16	204
-0.565230012	-0.00939930044	-1.08519995	41	16	204
-0.565670013	-0.00830740016	-1.08609998	41	16	204
-0.564469993	-0.00942189991	-1.08780003	41	16	204
-0.562820017	-0.00942900032	-1.08860004	41	16	204
-0.562380016	-0.0116630001	-1.08770001	41	16	204
-0.559849977	-0.0116529996	-1.08669996	41	16	204
-0.559409976	-0.0106279999	-1.08580005	41	16	204
-0.561049998	-0.0106199998	-1.08500004	41	16	204
-0.561049998	-0.00829930045	-1.08500004	41	16	204
-0.560609996	-0.00733269984	-1.08420002	41	16	204
-0.558969975	-0.00733820023	-1.08500004	41	16	204
-0.559409976	-0.00830550026	-1.08589995	41	16	204
-0.55776	-0.00831170008	-1.08669996	41	16	204
-0.556110024	-0.00831780024	-1.08749998	41	16	204
-0.556879997	-0.00939629972	-1.0848	41	16	204
-0.556879997	-0.0106189996	-1.0848	41	16	204
-0.55776	-0.0116520002	-1.08659995	41	16	204
-0.55776	-0.012747	-1.08659995	41	16	204
-0.558200002	-0.0139070004	-1.08749998	41	16	204
-0.55862999	-0.0148820002	-1.08840001	41	16	204
-0.559069991	-0.015997	-1.08930004	41	16	204
-0.559509993	-0.0172320008	-1.09010005	41	16	204
-0.55862999	-0.0182080008	-1.08829999	41	16	204
-0.55862999	-0.0192809999	-1.08829999	41	16	204
-0.559069991	-0.0203070007	-1.08920002	41	16	204
-0.557420015	-0.0203220006	-1.09000003	41	16	204
-0.557860017	-0.0193269998	-1.09089994	41	16	204
-0.558290005	-0.0182659999	-1.09179997	41	16	204
-0.558730006	-0.0172729995	-1.09280002	41	16	204
-0.557500005	-0.0183099993	-1.09440005	41	16	204
-0.557070017	-0.0193729997	-1.09350002	41	16	204
-0.555410028	-0.0204019994	-1.09430003	41	16	204
-0.555410028	-0.0214579999	-1.09430003	41	16	204
-0.557500005	-0.0214600004	-1.09440005	41	16	204
-0.557500005	-0.0237460006	-1.09430003	41	16	204
-0.559170008	-0.0237290002	-1.09350002	41	16	204
-0.559170008	-0.0248360001	-1.09350002	41	16	204
-0.559599996	-0.0259470008	-1.09440005	41	16	204
-0.560829997	-0.0248169992	-1.0927	41	16	204
-0.560389996	-0.0236920007	-1.09179997	41	16	204
-0.561609983	-0.0236549992	-1.09010005	41	16	204
-0.56072998	-0.0247169994	-1.08829999	41	16	204
-0.561609983	-0.0213769991	-1.09019995	41	16	204
-0.561609983	-0.0203249995	-1.09019995	41	16	204
-0.56072998	-0.0192830004	-1.08840001	41	16	204
-0.564469993	-0.0171930008	-1.08770001	41	16	204
-0.565800011	-0.0193169992	-1.09039998	41	16	204
-0.567900002	-0.0193189997	-1.09039998	41	16	204
-0.568340003	-0.0182579998	-1.09140003	41	16	204
-0.568340003	-0.0172509998	-1.09140003	41	16	204
-0.566680014	-0.0182719994	-1.09220004	41	16	204
-0.567900002	-0.0213820003	-1.09039998	41	16	204
-0.566680014	-0.0225649998	-1.09210002	41	16	204
-0.565029979	-0.0225820001	-1.09290004	41	16	204
-0.565029979	-0.0237150006	-1.09290004	41	16	204
-0.564580023	-0.0248009991	-1.09200001	41	16	204
-0.566680014	-0.0248029996	-1.09200001	41	16	204
-0.567569971	-0.0237360001	-1.09389997	41	16	204
-0.563809991	-0.0259509999	-1.09459996	41	16	204
-0.562929988	-0.0225799996	-1.09280002	41	16	204
-0.561699986	-0.0226150006	-1.09449995	41	16	204
-0.561699986	-0.0214629993	-1.09459996	41	16	204
-0.560039997	-0.0214789994	-1.09539998	41	16	204
-0.558730006	-0.0225760005	-1.0927	41	16	204
-0.556630015	-0.0225740001	-1.09259999	41	16	204
-0.554970026	-0.0237240009	-1.09329998	41	16	204
-0.552879989	-0.0237220004	-1.09319997	41	16	204
-0.552879989	-0.0214380007	-1.09329998	41	16	204
-0.552020013	-0.0203499999	-1.09150004	41	16	204
-0.551580012	-0.0193220004	-1.09060001	41	16	204
-0.551150024	-0.0182310008	-1.08969998	41	16	204
-0.552810013	-0.0182179995	-1.08889997	41	16	204
-0.552370012	-0.0159799997	-1.08809996	41	16	204
-0.551150024	-0.0160050001	-1.0898	41	16	204
-0.549929976	-0.014924	-1.09150004	41	16	204
-0.548269987	-0.0149349999	-1.09230006	41	16	204
-0.549130023	-0.0160680003	-1.0941	41	16	204
-0.548699975	-0.0172789991	-1.09309995	41	16	204
-0.548269987	-0.0182729997	-1.09220004	41	16	204
-0.547839999	-0.0193339996	-1.09130001	41	16	204
-0.549499989	-0.01932	-1.0905	41	16	204
-0.550360024	-0.0182750002	-1.09230006	41	16	204
-0.550790012	-0.0160559993	-1.09329998	41	16	204
-0.552450001	-0.0149379997	-1.09249997	41	16	204
-0.553669989	-0.0149149997	-1.09080005	41	16	204
-0.555329978	-0.0149039999	-1.09000003	41	16	204
-0.555760026	-0.0160210002	-1.09089994	41	16	204
-0.555760026	-0.0172429997	-1.09089994	41	16	204
-0.557860017	-0.0160220005	-1.09099996	41	16	204
-0.556980014	-0.014893	-1.08920002	41	16	204
-0.556540012	-0.013917	-1.08829999	41	16	204
-0.556110024	-0.0116600003	-1.08739996	41	16	204
-0.554019988	-0.0116590001	-1.08729994	41	16	204
-0.55359	-0.0106340004	-1.08640003	41	16	204
-0.551940024	-0.0106419995	-1.08720005	41	16	204
-0.550719976	-0.0106589999	-1.08889997	41	16	204
-0.550289989	-0.0094239004	-1.08800006	41	16	204
-0.548200011	-0.00942290016	-1.08790004	41	16	204
-0.548640013	-0.0106579997	-1.08879995	41	16	204
-0.548200011	-0.0116659999	-1.08790004	41	16	204
-0.548200011	-0.0127619999	-1.08790004	41	16	204
-0.547770023	-0.0138999997	-1.08700001	41	16	204
-0.549860001	-0.0139020002	-1.08710003	41	16	204
-0.551500022	-0.0138910003	-1.08630002	41	16	204
-0.55359	-0.0138929999	-1.08640003	41	16	204
-0.553149998	-0.0127339996	-1.0855	41	16	204
-0.555230021	-0.0127349999	-1.08560002	41	16	204
-0.554359972	-0.010609	-1.08379996	41	16	204
-0.553919971	-0.00937990006	-1.08299994	41	16	204
-0.551850021	-0.0093790004	-1.08280003	41	16	204
-0.551850021	-0.00732399989	-1.08290005	41	16	204
-0.551410019	-0.00617479999	-1.08200002	41	16	204
-0.551850021	-0.00509760017	-1.08290005	41	16	204
-0.552280009	-0.00399040012	-1.08379996	41	16	204
-0.553919971	-0.00398739986	-1.08299994	41	16	204
-0.553919971	-0.00289370003	-1.08299994	41	16	204
-0.553489983	-0.0050937999	-1.08210003	41	16	204
-0.553049982	-0.00617020018	-1.0812	41	16	204
-0.555130005	-0.00617079996	-1.08130002	41	16	204
-0.555130005	-0.00509010023	-1.08130002	41	16	204
-0.55765003	-0.00617650012	-1.08229995	41	16	204
-0.558089972	-0.00509899994	-1.08319998	41	16	204
-0.558089972	-0.00289419992	-1.08319998	41	16	204
-0.558529973	-0.00181309995	-1.08410001	41	16	204
-0.558529973	-0.000844699971	-1.08410001	41	16	204
-0.556879997	-0.000845330011	-1.08490002	41	16	204
-0.556439996	-0.00181289995	-1.08399999	41	16	204
-0.556439996	-0.00289639994	-1.08399999	41	16	204
-0.557319999	-0.00399769982	-1.08580005	41	16	204
-0.559409976	-0.00399809983	-1.08589995	41	16	204
-0.561489999	-0.00511209993	-1.08599997	41	16	204
-0.561489999	-0.00619750004	-1.08599997	41	16	204
-0.560169995	-0.00398850022	-1.08329999	41	16	204
-0.559289992	-0.0028897	-1.08150005	41	16	204
-0.559289992	-0.00180870004	-1.08150005	41	16	204
-0.559289992	-0.00084267999	-1.08150005	41	16	204
-0.561810017	-0.000843440008	-1.08249998	41	16	204
-0.561810017	-0.00181040005	-1.08249998	41	16	204
-0.563009977	-0.00180750003	-1.08080006	41	16	204
-0.562560022	-0.00288540008	-1.07990003	41	16	204
-0.56092	-0.00288749998	-1.08070004	41	16	204
-0.560479999	-0.0039756	-1.07980001	41	16	204
-0.563899994	-0.000843509973	-1.0826	41	16	204
-0.568069994	-0.000843629998	-1.08270001	41	16	204
-0.568359971	-0.0008409	-1.07920003	41	16	204
-0.569100022	-0.000838859996	-1.07659996	41	16	204
-0.572539985	-0.00180520001	-1.07930005	41	16	204
-0.57299	-0.000841700006	-1.08019996	41	16	204
-0.570159972	-0.00398659986	-1.08280003	41	16	204
-0.570159972	-0.00509699993	-1.08280003	41	16	204
-0.572250009	-0.00509729981	-1.08280003	41	16	204
-0.572709978	-0.00618469995	-1.08369994	41	16	204
-0.572250009	-0.0073237	-1.08280003	41	16	204
-0.572250009	-0.00828220043	-1.08280003	41	16	204
-0.570159972	-0.00828170031	-1.08270001	41	16	204
-0.571060002	-0.00733530009	-1.08449996	41	16	204
-0.571060002	-0.00618939986	-1.08449996	41	16	204
