-1.05900002	-0.543280005	-1.43719995	131	197	180
-1.05900002	-0.541880012	-1.43770003	131	197	180
-1.05649996	-0.542469978	-1.43929994	131	197	180
-1.05649996	-0.543869972	-1.43869996	131	197	180
-1.05540001	-0.544820011	-1.43659997	131	197	180
-1.05540001	-0.546310008	-1.43610001	131	197	180
-1.05729997	-0.546729982	-1.4332	131	197	180
-1.05610001	-0.547479987	-1.43120003	131	197	180
-1.05729997	-0.549570024	-1.43210006	131	197	180
-1.05970001	-0.548969984	-1.43060005	131	197	180
-1.05910003	-0.547169983	-1.43040001	131	197	180
-1.05970001	-0.546140015	-1.43169999	131	197	180
-1.06330001	-0.547450006	-1.43110001	131	197	180
-1.06330001	-0.54895997	-1.43050003	131	197	180
-1.06270003	-0.550170004	-1.42920005	131	197	180
-1.06570005	-0.549860001	-1.42840004	131	197	180
-1.06570005	-0.548349977	-1.42900002	131	197	180
-1.06630003	-0.547140002	-1.4303	131	197	180
-1.06400001	-0.550490022	-1.42550004	131	197	180
-1.06280005	-0.551370025	-1.42340004	131	197	180
-1.06229997	-0.552429974	-1.42209995	131	197	180
-1.06050003	-0.552919984	-1.41929996	131	197	180
-1.06110001	-0.554709971	-1.41949999	131	197	180
-1.06169999	-0.556460023	-1.41970003	131	197	180
-1.05760002	-0.553229988	-1.42009997	131	197	180
-1.05869997	-0.552439988	-1.42209995	131	197	180
-1.05869997	-0.551090002	-1.42270005	131	197	180
-1.05980003	-0.550209999	-1.42480004	131	197	180
-1.05739999	-0.549300015	-1.42690003	131	197	180
-1.05630004	-0.550230026	-1.42480004	131	197	180
-1.05680001	-0.551989973	-1.42499995	131	197	180
-1.05630004	-0.553049982	-1.42369998	131	197	180
-1.05509996	-0.553839982	-1.42159998	131	197	180
-1.0546	-0.555029988	-1.42030001	131	197	180
-1.05639994	-0.554130018	-1.41799998	131	197	180
-1.0553	-0.55497998	-1.41589999	131	197	180
-1.05410004	-0.555719972	-1.4138	131	197	180
-1.0517	-0.554989994	-1.41589999	131	197	180
-1.05060005	-0.555729985	-1.4138	131	197	180
-1.04820001	-0.556339979	-1.41540003	131	197	180
-1.04869998	-0.555289984	-1.41670001	131	197	180
-1.04990005	-0.554440022	-1.4188	131	197	180
-1.04990005	-0.552950025	-1.41939998	131	197	180
-1.04690003	-0.553250015	-1.42009997	131	197	180
-1.04690003	-0.554750025	-1.41960001	131	197	180
-1.04579997	-0.555599988	-1.41750002	131	197	180
-1.04519999	-0.556649983	-1.41620004	131	197	180
-1.04519999	-0.558009982	-1.41559994	131	197	180
-1.04460001	-0.559119999	-1.41429996	131	197	180
-1.04289997	-0.559620023	-1.41139996	131	197	180
-1.03999996	-0.559920013	-1.41219997	131	197	180
-1.04110003	-0.559119999	-1.41429996	131	197	180
-1.04110003	-0.557699978	-1.41489995	131	197	180
-1.04110003	-0.556339979	-1.41540003	131	197	180
-1.04170001	-0.555299997	-1.41670001	131	197	180
-1.04340005	-0.554750025	-1.41960001	131	197	180
-1.04390001	-0.553560019	-1.42089999	131	197	180
-1.04509997	-0.552770019	-1.42299998	131	197	180
-1.04509997	-0.551419973	-1.42349994	131	197	180
-1.04620004	-0.55053997	-1.42560005	131	197	180
-1.04680002	-0.549319983	-1.42700005	131	197	180
-1.04789996	-0.548399985	-1.42910004	131	197	180
-1.04789996	-0.546899974	-1.42970002	131	197	180
-1.04489994	-0.547200024	-1.43040001	131	197	180
-1.04429996	-0.545570016	-1.43019998	131	197	180
-1.04190004	-0.546159983	-1.43169999	131	197	180
-1.04130006	-0.547200024	-1.43040001	131	197	180
-1.04130006	-0.548699975	-1.42990005	131	197	180
-1.0402	-0.549619973	-1.42770004	131	197	180
-1.04209995	-0.548730016	-1.42540002	131	197	180
-1.04209995	-0.550249994	-1.42490005	131	197	180
-1.04260004	-0.55201	-1.42509997	131	197	180
-1.04209995	-0.553070009	-1.42379999	131	197	180
-1.03980005	-0.553250015	-1.42009997	131	197	180
-1.03559995	-0.553359985	-1.42449999	131	197	180
-1.03439999	-0.551410019	-1.42349994	131	197	180
-1.03390002	-0.54964	-1.42330003	131	197	180
-1.0309	-0.549929976	-1.42400002	131	197	180
-1.03149998	-0.551699996	-1.42420006	131	197	180
-1.03199995	-0.553349972	-1.42449999	131	197	180
-1.0309	-0.555630028	-1.42180002	131	197	180
-1.02980006	-0.55647999	-1.41970003	131	197	180
-1.02869999	-0.557229996	-1.41760004	131	197	180
-1.02989995	-0.556029975	-1.41460001	131	197	180
-1.03289998	-0.555729985	-1.4138	131	197	180
-1.03180003	-0.55647999	-1.41180003	131	197	180
-1.03120005	-0.557590008	-1.41040003	131	197	180
-1.03069997	-0.558700025	-1.40910006	131	197	180
-1.02769995	-0.557579994	-1.41040003	131	197	180
-1.02830005	-0.556469977	-1.41170001	131	197	180
-1.02639997	-0.557370007	-1.41400003	131	197	180
-1.02530003	-0.558179975	-1.41190004	131	197	180
-1.02419996	-0.558979988	-1.40980005	131	197	180
-1.0266	-0.558380008	-1.40830004	131	197	180
-1.02310002	-0.563979983	-1.40600002	131	197	180
-1.02139997	-0.561659992	-1.40429997	131	197	180
-1.02079999	-0.564100027	-1.40240002	131	197	180
-1.02489996	-0.564429998	-1.40320003	131	197	180
-1.02839994	-0.564440012	-1.40320003	131	197	180
-1.03079998	-0.563830018	-1.40170002	131	197	180
-1.03079998	-0.566569984	-1.40059996	131	197	180
-1.03380001	-0.56625998	-1.39989996	131	197	180
-1.03260005	-0.56427002	-1.39890003	131	197	180
-1.03209996	-0.566720009	-1.39699996	131	197	180
-1.0309	-0.567569971	-1.39489996	131	197	180
-1.03149998	-0.569339991	-1.3951	131	197	180
-1.0309	-0.570439994	-1.3937	131	197	180
-1.03040004	-0.571529984	-1.39240003	131	197	180
-1.02919996	-0.572300017	-1.39030004	131	197	180
-1.02810001	-0.57306999	-1.38820004	131	197	180
-1.02639997	-0.573559999	-1.38530004	131	197	180
-1.02579999	-0.574630022	-1.38399994	131	197	180
-1.02530003	-0.57555002	-1.38269997	131	197	180
-1.02419996	-0.576170027	-1.38069999	131	197	180
-1.02359998	-0.577269971	-1.3793	131	197	180
-1.02649999	-0.576960027	-1.3786	131	197	180
-1.02649999	-0.57555002	-1.37919998	131	197	180
-1.02820003	-0.575240016	-1.38199997	131	197	180
-1.02929997	-0.574630022	-1.38399994	131	197	180
-1.02929997	-0.573260009	-1.38460004	131	197	180
-1.0323	-0.574329972	-1.38329995	131	197	180
-1.03279996	-0.573260009	-1.38460004	131	197	180
-1.03579998	-0.572950006	-1.38380003	131	197	180
-1.03579998	-0.571510017	-1.38440001	131	197	180
-1.03460002	-0.573700011	-1.38170004	131	197	180
-1.03639996	-0.573989987	-1.37899995	131	197	180
-1.03530002	-0.574609995	-1.37689996	131	197	180
-1.03639996	-0.576659977	-1.37779999	131	197	180
-1.03699994	-0.578400016	-1.37800002	131	197	180
-1.03939998	-0.577759981	-1.37650001	131	197	180
-1.04170001	-0.577610016	-1.38010001	131	197	180
-1.04050004	-0.574310005	-1.37969995	131	197	180
-1.03989995	-0.573270023	-1.38460004	131	197	180
-1.03989995	-0.571829975	-1.38520002	131	197	180
-1.04279995	-0.571510017	-1.38440001	131	197	180
-1.04390001	-0.573580027	-1.38530004	131	197	180
-1.04449999	-0.575269997	-1.38549995	131	197	180
-1.04100001	-0.575269997	-1.38549995	131	197	180
-1.04209995	-0.571680009	-1.38880002	131	197	180
-1.04100001	-0.569670022	-1.38789999	131	197	180
-1.04040003	-0.567960024	-1.38769996	131	197	180
-1.0381	-0.568579972	-1.38919997	131	197	180
-1.03569996	-0.569199979	-1.39069998	131	197	180
-1.03680003	-0.568409979	-1.39279997	131	197	180
-1.03740001	-0.567269981	-1.39419997	131	197	180
-1.04030001	-0.566959977	-1.39339995	131	197	180
-1.04030001	-0.568419993	-1.39279997	131	197	180
-1.03980005	-0.570919991	-1.39090002	131	197	180
-1.03980005	-0.572309971	-1.39030004	131	197	180
-1.03740001	-0.572929978	-1.39180005	131	197	180
-1.03680003	-0.571229994	-1.39170003	131	197	180
-1.03390002	-0.571539998	-1.39240003	131	197	180
-1.03390002	-0.570129991	-1.39300001	131	197	180
-1.03439999	-0.569029987	-1.39429998	131	197	180
-1.03390002	-0.567269981	-1.39419997	131	197	180
-1.02909994	-0.567030013	-1.39779997	131	197	180
-1.02909994	-0.564260006	-1.39890003	131	197	180
-1.02559996	-0.564249992	-1.39890003	131	197	180
-1.02559996	-0.565630019	-1.39830005	131	197	180
-1.02559996	-0.567009985	-1.39769995	131	197	180
-1.02149999	-0.569620013	-1.39579999	131	197	180
-1.02170002	-0.571959972	-1.38950002	131	197	180
-1.02049994	-0.572730005	-1.38740003	131	197	180
-1.01760006	-0.573019981	-1.38810003	131	197	180
-1.01760006	-0.571630001	-1.38870001	131	197	180
-1.01820004	-0.570550025	-1.38999999	131	197	180
-1.0165	-0.573830009	-1.38600004	131	197	180
-1.01540005	-0.574580014	-1.38390005	131	197	180
-1.01830006	-0.574280024	-1.38310003	131	197	180
-1.01769996	-0.575200021	-1.38189995	131	197	180
-1.01890004	-0.573220015	-1.38450003	131	197	180
-1.02180004	-0.572920024	-1.38380003	131	197	180
-1.02119994	-0.575219989	-1.38189995	131	197	180
-1.02349997	-0.57525003	-1.38549995	131	197	180
-1.02349997	-0.572430015	-1.38660002	131	197	180
-1.0316	-0.57306999	-1.38820004	131	197	180
-1.03330004	-0.572619975	-1.39110005	131	197	180
-1.03569996	-0.573390007	-1.38900006	131	197	180
-1.04449999	-0.571049988	-1.38730001	131	197	180
-1.04449999	-0.569670022	-1.38779998	131	197	180
-1.04449999	-0.568260014	-1.38839996	131	197	180
-1.04390001	-0.568409979	-1.39279997	131	197	180
-1.04560006	-0.567889988	-1.39569998	131	197	180
-1.04560006	-0.566420019	-1.39629996	131	197	180
-1.04260004	-0.566730022	-1.39699996	131	197	180
-1.0438	-0.56595999	-1.39909995	131	197	180
-1.0438	-0.564580023	-1.39970005	131	197	180
-1.04729998	-0.565949976	-1.39909995	131	197	180
-1.04789996	-0.564880013	-1.40040004	131	197	180
-1.04900002	-0.564140022	-1.40250003	131	197	180
-1.04719996	-0.565069973	-1.40480006	131	197	180
-1.04830003	-0.564320028	-1.40690005	131	197	180
-1.05069995	-0.56370002	-1.40530002	131	197	180
-1.04960001	-0.561699986	-1.40439999	131	197	180
-1.05200005	-0.561079979	-1.40279996	131	197	180
-1.05309999	-0.563080013	-1.40380001	131	197	180
-1.05200005	-0.563830018	-1.40170002	131	197	180
-1.05019999	-0.564260006	-1.39890003	131	197	180
-1.04970002	-0.565330029	-1.39760005	131	197	180
-1.04910004	-0.566410005	-1.39629996	131	197	180
-1.05019999	-0.568499982	-1.39719999	131	197	180
-1.0474	-0.568409979	-1.39279997	131	197	180
-1.04719996	-0.560909986	-1.40649998	131	197	180
-1.04480004	-0.560119987	-1.40859997	131	197	180
-1.04649997	-0.559620023	-1.41139996	131	197	180
-1.04939997	-0.559310019	-1.41069996	131	197	180
-1.05060005	-0.558499992	-1.41270006	131	197	180
-1.05299997	-0.557889998	-1.41120005	131	197	180
-1.05130005	-0.558390021	-1.40830004	131	197	180
-1.05180001	-0.561510026	-1.40799999	131	197	180
-1.05060005	-0.56133002	-1.41159999	131	197	180
-1.05470002	-0.561619997	-1.41240001	131	197	180
-1.05649996	-0.559289992	-1.41059995	131	197	180
-1.05770004	-0.558480024	-1.41270006	131	197	180
-1.05879998	-0.557669997	-1.41480005	131	197	180
-1.05879998	-0.556309998	-1.41530001	131	197	180
-1.05579996	-0.557990015	-1.41559994	131	197	180
-1.05229998	-0.558000028	-1.41559994	131	197	180
-1.04929996	-0.558300018	-1.41639996	131	197	180
-1.04820001	-0.559109986	-1.41429996	131	197	180
-1.04750001	-0.552169979	-1.42139995	131	197	180
-1.04799998	-0.551119983	-1.42270005	131	197	180
-1.04920006	-0.55023998	-1.42480004	131	197	180
-1.04970002	-0.549019992	-1.42620003	131	197	180
-1.05270004	-0.548720002	-1.42540002	131	197	180
-1.05219996	-0.54993999	-1.42410004	131	197	180
-1.05330002	-0.551999986	-1.42499995	131	197	180
-1.05159998	-0.552460015	-1.42219996	131	197	180
-1.05139995	-0.548399985	-1.42910004	131	197	180
-1.05139995	-0.546899974	-1.42970002	131	197	180
-1.05260003	-0.546159983	-1.43169999	131	197	180
-1.04960001	-0.546459973	-1.4325	131	197	180
-1.05130005	-0.546019971	-1.43529999	131	197	180
-1.05180001	-0.544830024	-1.43659997	131	197	180
-1.04830003	-0.544830024	-1.43669999	131	197	180
-1.04770005	-0.546029985	-1.43529999	131	197	180
-1.04470003	-0.546320021	-1.43610001	131	197	180
-1.04470003	-0.544839978	-1.43669999	131	197	180
-1.04639995	-0.544179976	-1.43959999	131	197	180
-1.04700005	-0.543070018	-1.44089997	131	197	180
-1.04700005	-0.541679978	-1.44140005	131	197	180
-1.04340005	-0.541679978	-1.44140005	131	197	180
-1.04279995	-0.542779982	-1.44009995	131	197	180
-1.04170001	-0.543600023	-1.43799996	131	197	180
-1.03869998	-0.543889999	-1.43879998	131	197	180
-1.03929996	-0.541390002	-1.44060004	131	197	180
-1.04040003	-0.543359995	-1.44159997	131	197	180
-1.04120004	-0.546320021	-1.43610001	131	197	180
-1.03890002	-0.546459973	-1.4325	131	197	180
-1.03890002	-0.543659985	-1.43359995	131	197	180
-1.03649998	-0.544239998	-1.43509996	131	197	180
-1.03649998	-0.545729995	-1.43449998	131	197	180
-1.03480005	-0.546150029	-1.43169999	131	197	180
-1.03240001	-0.549570024	-1.43210006	131	197	180
-1.02939999	-0.549860001	-1.43289995	131	197	180
-1.02810001	-0.551039994	-1.43599999	131	197	180
-1.02289999	-0.547290027	-1.43470001	131	197	180
-1.02289999	-0.545979977	-1.43519998	131	197	180
-1.02289999	-0.54448998	-1.43570006	131	197	180
-1.02400005	-0.543550014	-1.43789995	131	197	180
-1.02559996	-0.543030024	-1.44070005	131	197	180
-1.02559996	-0.541639984	-1.44130003	131	197	180
-1.02670002	-0.54084003	-1.44330001	131	197	180
-1.02320004	-0.540820003	-1.44330001	131	197	180
-1.02320004	-0.542209983	-1.44280005	131	197	180
-1.02320004	-0.543600023	-1.44229996	131	197	180
-1.02079999	-0.542770028	-1.44430006	131	197	180
-1.02020001	-0.541090012	-1.44400001	131	197	180
-1.01960003	-0.543579996	-1.44219995	131	197	180
-1.01499999	-0.542970002	-1.44060004	131	197	180
-1.01499999	-0.544369996	-1.44009995	131	197	180
-1.01450002	-0.541279972	-1.44029999	131	197	180
-1.01559997	-0.540480018	-1.44239998	131	197	180
-1.01370001	-0.541339993	-1.4447	131	197	180
-1.01230001	-0.541100025	-1.4483	131	197	180
-1.01289999	-0.539910018	-1.44959998	131	197	180
-1.01390004	-0.538980007	-1.45169997	131	197	180
-1.01339996	-0.537220001	-1.45150006	131	197	180
-1.01450002	-0.536329985	-1.45360005	131	197	180
-1.01750004	-0.536059976	-1.45290005	131	197	180
-1.01689994	-0.537240028	-1.45159996	131	197	180
-1.01689994	-0.538720012	-1.45099998	131	197	180
-1.01590002	-0.539640009	-1.44889998	131	197	180
-1.01590002	-0.541119993	-1.4483	131	197	180
-1.0194	-0.541149974	-1.44840002	131	197	180
-1.0194	-0.539659977	-1.449	131	197	180
-1.0194	-0.538160026	-1.44949996	131	197	180
-1.02049994	-0.537259996	-1.45159996	131	197	180
-1.02160001	-0.536369979	-1.45369995	131	197	180
-1.02100003	-0.534640014	-1.45350003	131	197	180
-1.01859999	-0.5352	-1.45500004	131	197	180
-1.01610005	-0.535749972	-1.45650005	131	197	180
-1.01670003	-0.534600019	-1.45780003	131	197	180
-1.01779997	-0.533649981	-1.46000004	131	197	180
-1.02020001	-0.534619987	-1.45790005	131	197	180
-1.02129996	-0.533670008	-1.46000004	131	197	180
-1.01370001	-0.534870028	-1.45850003	131	197	180
-1.01310003	-0.536010027	-1.45720005	131	197	180
-1.01010001	-0.536279976	-1.45790005	131	197	180
-1.01010001	-0.534839988	-1.45850003	131	197	180
-1.00769997	-0.535390019	-1.46000004	131	197	180
-1.00660002	-0.536249995	-1.45790005	131	197	180
-1.00460005	-0.535640001	-1.46070004	131	197	180
-1.00220001	-0.536189973	-1.46210003	131	197	180
-1.00250006	-0.535920024	-1.45700002	131	197	180
-1.00189996	-0.532660007	-1.45729995	131	197	180
-0.999480009	-0.533200026	-1.45879996	131	197	180
-0.997020006	-0.535279989	-1.45969999	131	197	180
-0.995949984	-0.533169985	-1.45860004	131	197	180
-0.997870028	-0.535300016	-1.45529997	131	197	180
-1.00030005	-0.536199987	-1.4533	131	197	180
-1.00090003	-0.537959993	-1.45350003	131	197	180
-1.00390005	-0.537710011	-1.45280004	131	197	180
-1.00440001	-0.536530018	-1.45420003	131	197	180
-1.00689995	-0.535979986	-1.45270002	131	197	180
-1.00689995	-0.537450016	-1.45210004	131	197	180
-1.00689995	-0.538929999	-1.45159996	131	197	180
-1.01040006	-0.53895998	-1.45169997	131	197	180
-1.01040006	-0.537479997	-1.45220006	131	197	180
-1.00880003	-0.535139978	-1.45039999	131	197	180
-1.00769997	-0.538999975	-1.44719994	131	197	180
-1.00820005	-0.540769994	-1.44739997	131	197	180
-1.00520003	-0.541040003	-1.44809997	131	197	180
-1.00409997	-0.538969994	-1.44710004	131	197	180
-1.00220001	-0.538309991	-1.44990003	131	197	180
-0.998700023	-0.538269997	-1.44980001	131	197	180
-0.996789992	-0.537630022	-1.4526	131	197	180
-0.995710015	-0.535579979	-1.45159996	131	197	180
-0.993260026	-0.534680009	-1.45360005	131	197	180
-0.990800023	-0.535220027	-1.45510006	131	197	180
-0.991869986	-0.534359992	-1.45720005	131	197	180
-0.991339982	-0.532540023	-1.4569	131	197	180
-0.98834002	-0.532790005	-1.4576	131	197	180
-0.98834002	-0.534319997	-1.45710003	131	197	180
-0.986739993	-0.534879982	-1.45410001	131	197	180
-0.98427999	-0.535420001	-1.45560002	131	197	180
-0.984820008	-0.534269989	-1.4569	131	197	180
-0.985350013	-0.533029974	-1.45829999	131	197	180
-0.98289001	-0.533559978	-1.45969999	131	197	180
-0.981289983	-0.535660028	-1.45630002	131	197	180
-0.980229974	-0.533640027	-1.45519996	131	197	180
-0.977769971	-0.534169972	-1.45659995	131	197	180
-0.977769971	-0.53263998	-1.45720005	131	197	180
-0.977240026	-0.53530997	-1.45529997	131	197	180
-0.976710021	-0.536459982	-1.454	131	197	180
-0.973720014	-0.53670001	-1.45459998	131	197	180
-0.974250019	-0.535549998	-1.45599997	131	197	180
-0.97319001	-0.533529997	-1.45490003	131	197	180
-0.973720014	-0.532289982	-1.45630002	131	197	180
-0.971790016	-0.534640014	-1.45790005	131	197	180
-0.969680011	-0.53490001	-1.45420003	131	197	180
-0.968630016	-0.535759985	-1.45210004	131	197	180
-0.969680011	-0.537819982	-1.45309997	131	197	180
-0.972670019	-0.537580013	-1.45249999	131	197	180
-0.975120008	-0.537050009	-1.45109999	131	197	180
-0.977569997	-0.537989974	-1.44910002	131	197	180
-0.977569997	-0.539499998	-1.44850004	131	197	180
-0.977039993	-0.540679991	-1.44719994	131	197	180
-0.974059999	-0.540920019	-1.44780004	131	197	180
-0.973529994	-0.53915	-1.44760001	131	197	180
-0.970550001	-0.539380014	-1.44819999	131	197	180
-0.970550001	-0.540859997	-1.44770002	131	197	180
-0.968630016	-0.541689992	-1.44990003	131	197	180
-0.967050016	-0.539319992	-1.44799995	131	197	180
-0.967050016	-0.537819982	-1.44860005	131	197	180
-0.968970001	-0.536989987	-1.44640005	131	197	180
-0.971939981	-0.536759973	-1.44570005	131	197	180
-0.970350027	-0.540229976	-1.44169998	131	197	180
-0.965470016	-0.541299999	-1.44459999	131	197	180
-0.964940012	-0.543780029	-1.44270003	131	197	180
-0.964410007	-0.544879973	-1.44140005	131	197	180
-0.963360012	-0.541490018	-1.44089997	131	197	180
-0.960919976	-0.543410003	-1.4418	131	197	180
-0.960389972	-0.54452002	-1.4404	131	197	180
-0.959339976	-0.541119993	-1.43990004	131	197	180
-0.956900001	-0.543039978	-1.44079995	131	197	180
-0.95638001	-0.539969981	-1.44099998	131	197	180
-0.953760028	-0.539849997	-1.43649995	131	197	180
-0.952709973	-0.54203999	-1.4339	131	197	180
-0.956709981	-0.545419991	-1.43369997	131	197	180
-0.95618999	-0.546429992	-1.43239999	131	197	180
-0.958620012	-0.547230005	-1.43050003	131	197	180
-0.959140003	-0.55053997	-1.43019998	131	197	180
-0.960200012	-0.54964	-1.43229997	131	197	180
-0.956709981	-0.549570024	-1.43210006	131	197	180
-0.958289981	-0.544839978	-1.43669999	131	197	180
-0.961440027	-0.540929973	-1.44360006	131	197	180
-0.960049987	-0.540669978	-1.44710004	131	197	180
-0.960049987	-0.539189994	-1.44770002	131	197	180
-0.962499976	-0.537159979	-1.44679999	131	197	180
-0.963549972	-0.540740013	-1.44729996	131	197	180
-0.964600027	-0.539849997	-1.44949996	131	197	180
-0.965120018	-0.537159979	-1.45140004	131	197	180
-0.965120018	-0.53569001	-1.45190001	131	197	180
-0.964820027	-0.549520016	-1.42299998	131	197	180
-0.949039996	-0.542930007	-1.42719996	131	197	180
-0.97736001	-0.54035002	-1.44200003	131	197	180
-0.981400013	-0.542079985	-1.4425	131	197	180
-0.981400013	-0.543470025	-1.44190001	131	197	180
-0.98032999	-0.544279993	-1.43980002	131	197	180
-0.982230008	-0.544969976	-1.43700004	131	197	180
-0.98168999	-0.546159983	-1.43570006	131	197	180
-0.98627001	-0.546809971	-1.43739998	131	197	180
-0.98627001	-0.545319974	-1.43789995	131	197	180
-0.987349987	-0.544380009	-1.44009995	131	197	180
-0.987890005	-0.543269992	-1.44140005	131	197	180
-0.987890005	-0.541880012	-1.44190001	131	197	180
-0.988960028	-0.541090012	-1.44400001	131	197	180
-0.990040004	-0.540289998	-1.4461	131	197	180
-0.990040004	-0.538810015	-1.44669998	131	197	180
-0.987590015	-0.539359987	-1.44809997	131	197	180
-0.987049997	-0.54053998	-1.44679999	131	197	180
-0.984600008	-0.541079998	-1.44819999	131	197	180
-0.985140026	-0.539900005	-1.44959998	131	197	180
-0.985140026	-0.538389981	-1.45009995	131	197	180
-0.985140026	-0.535449982	-1.45120001	131	197	180
-0.983219981	-0.536279976	-1.45350003	131	197	180
-0.980229974	-0.536520004	-1.45410001	131	197	180
-0.978630006	-0.537109971	-1.45120001	131	197	180
-0.981090009	-0.536570013	-1.44980001	131	197	180
-0.980549991	-0.537750006	-1.44840002	131	197	180
-0.981620014	-0.539849997	-1.44949996	131	197	180
-0.981090009	-0.54102999	-1.44809997	131	197	180
-0.981930017	-0.540989995	-1.44379997	131	197	180
-0.984369993	-0.540449977	-1.44229996	131	197	180
-0.984910011	-0.542129993	-1.44260001	131	197	180
-0.985440016	-0.543820024	-1.44289994	131	197	180
-0.984910011	-0.544929981	-1.44149995	131	197	180
-0.989790022	-0.542429984	-1.43920004	131	197	180
-0.989790022	-0.541040003	-1.43970001	131	197	180
-0.993839979	-0.541379988	-1.44060004	131	197	180
-0.996280015	-0.540830016	-1.43910003	131	197	180
-0.997900009	-0.540329993	-1.44200003	131	197	180
-1.00030005	-0.539780021	-1.44050002	131	197	180
-1.00090003	-0.541459978	-1.44079995	131	197	180
-1.00199997	-0.543439984	-1.4418	131	197	180
-1.00090003	-0.544250011	-1.43970001	131	197	180
-0.998449981	-0.544809997	-1.44120002	131	197	180
-0.998449981	-0.54339999	-1.44169998	131	197	180
-0.995999992	-0.543959975	-1.44319999	131	197	180
-0.995459974	-0.545059979	-1.44190001	131	197	180
-0.991400003	-0.544719994	-1.44099998	131	197	180
-0.989790022	-0.545360029	-1.43799996	131	197	180
-0.989250004	-0.546549976	-1.43669999	131	197	180
-0.992760003	-0.546599984	-1.4368	131	197	180
-0.992760003	-0.545109987	-1.43739998	131	197	180
-0.995739996	-0.546339989	-1.43610001	131	197	180
-0.996280015	-0.545149982	-1.4375	131	197	180
-0.998170018	-0.544290006	-1.43519998	131	197	180
-0.998170018	-0.545780003	-1.43470001	131	197	180
-0.99763	-0.546790004	-1.43340003	131	197	180
-0.99763	-0.548120022	-1.43289995	131	197	180
-0.99950999	-0.547259986	-1.43060005	131	197	180
-1.00059998	-0.546530008	-1.43270004	131	197	180
-1.00059998	-0.549369991	-1.43159997	131	197	180
-1.00250006	-0.546999991	-1.42990005	131	197	180
-1.00170004	-0.544330001	-1.43529999	131	197	180
-1.00279999	-0.546410024	-1.43630004	131	197	180
-0.995999992	-0.548730016	-1.42990005	131	197	180
-0.995459974	-0.540880024	-1.44350004	131	197	180
-0.995459974	-0.538020015	-1.44449997	131	197	180
-0.99247998	-0.538269997	-1.44519997	131	197	180
-0.99247998	-0.53974998	-1.4447	131	197	180
-0.99247998	-0.541130006	-1.44410002	131	197	180
-0.993019998	-0.537060022	-1.44659996	131	197	180
-0.99217999	-0.538479984	-1.45039999	131	197	180
-0.99217999	-0.537010014	-1.45089996	131	197	180
-0.991649985	-0.535250008	-1.45070004	131	197	180
-0.989199996	-0.535790026	-1.45220006	131	197	180
-0.989199996	-0.537259996	-1.45159996	131	197	180
-0.986739993	-0.537800014	-1.45309997	131	197	180
-0.985979974	-0.536970019	-1.44630003	131	197	180
-0.997080028	-0.540380001	-1.44630003	131	197	180
-1.00010002	-0.538640022	-1.44620001	131	197	180
-1.00059998	-0.540409982	-1.44649994	131	197	180
-0.986010015	-0.54606998	-1.43149996	131	197	180
-0.985480011	-0.547089994	-1.43019998	131	197	180
-0.983860016	-0.550719976	-1.42610002	131	197	180
-0.98277998	-0.551580012	-1.42390001	131	197	180
-0.979830027	-0.551829994	-1.42460001	131	197	180
-0.980359972	-0.550670028	-1.42589998	131	197	180
-0.977410018	-0.55092001	-1.42659998	131	197	180
-0.974449992	-0.54964	-1.42780006	131	197	180
-0.973619998	-0.549600005	-1.43219995	131	197	180
-0.973619998	-0.548089981	-1.43280005	131	197	180
-0.97469002	-0.547360003	-1.43490005	131	197	180
-0.975759983	-0.546649992	-1.43690002	131	197	180
-0.975220025	-0.544860005	-1.43669999	131	197	180
-0.977680027	-0.551970005	-1.42089999	131	197	180
-0.977140009	-0.553040028	-1.41960001	131	197	180
-0.980090022	-0.552789986	-1.41890001	131	197	180
-0.980090022	-0.551410019	-1.41949999	131	197	180
-1.00549996	-0.532700002	-1.45739996	131	197	180
-1.00849998	-0.532440007	-1.45669997	131	197	180
-1.01310003	-0.533050001	-1.45829999	131	197	180
-1.02709997	-0.535539985	-1.45150006	131	197	180
-1.02709997	-0.537010014	-1.45099998	131	197	180
-1.02600002	-0.537909985	-1.44879997	131	197	180
-1.02900004	-0.540610015	-1.44700003	131	197	180
-1.02119994	-0.54922998	-1.43130004	131	197	180
-1.0201	-0.547129989	-1.4303	131	197	180
-1.01709998	-0.548910022	-1.43040001	131	197	180
-1.01600003	-0.549820006	-1.42830002	131	197	180
-1.01549995	-0.551050007	-1.42690003	131	197	180
-1.01839995	-0.550769985	-1.42620003	131	197	180
-1.01839995	-0.549250007	-1.42680001	131	197	180
-1.02139997	-0.550490022	-1.42550004	131	197	180
-1.02250004	-0.54956001	-1.42760003	131	197	180
-1.02250004	-0.552559972	-1.42649996	131	197	180
-1.0201	-0.553139985	-1.42799997	131	197	180
-1.01709998	-0.553420007	-1.42869997	131	197	180
-1.01300001	-0.55309999	-1.42780006	131	197	180
-1.01730001	-0.552990019	-1.42359996	131	197	180
-1.02030003	-0.552709997	-1.42279994	131	197	180
-1.01859999	-0.553189993	-1.41999996	131	197	180
-1.01919997	-0.55497998	-1.42019999	131	197	180
-1.01750004	-0.555530012	-1.41729999	131	197	180
-1.01750004	-0.556869984	-1.41670001	131	197	180
-1.01639998	-0.557630002	-1.41470003	131	197	180
-1.01639998	-0.55904001	-1.41410005	131	197	180
-1.01639998	-0.560450017	-1.41349995	131	197	180
-1.01479995	-0.560940027	-1.41069996	131	197	180
-1.01289999	-0.559019983	-1.41400003	131	197	180
-1.01289999	-0.557600021	-1.41460001	131	197	180
-1.01289999	-0.556240022	-1.41509998	131	197	180
-1.0151	-0.556110024	-1.4188	131	197	180
-1.01460004	-0.554359972	-1.41859996	131	197	180
-1.01460004	-0.552860022	-1.41910005	131	197	180
-1.00810003	-0.553110003	-1.41980004	131	197	180
-1.02380002	-0.552730024	-1.42289996	131	197	180
-1.0244	-0.550199986	-1.42470002	131	197	180
-1.02550006	-0.552269995	-1.42569995	131	197	180
-1.02789998	-0.551689982	-1.42420006	131	197	180
-1.02740002	-0.552739978	-1.42289996	131	197	180
-1.02680004	-0.549619973	-1.42320001	131	197	180
-1.02610004	-0.549579978	-1.42770004	131	197	180
-1.02960002	-0.549589992	-1.42770004	131	197	180
-1.03260005	-0.549310029	-1.42690003	131	197	180
-1.02960002	-0.556829989	-1.42490005	131	197	180
-1.03269994	-0.554740012	-1.41949999	131	197	180
-1.03219998	-0.555890024	-1.41820002	131	197	180
-1.03400004	-0.554989994	-1.41589999	131	197	180
-1.03219998	-0.552940011	-1.41929996	131	197	180
-1.02810001	-0.552630007	-1.41849995	131	197	180
-1.02460003	-0.552619994	-1.41849995	131	197	180
-1.03289998	-0.56133002	-1.41159999	131	197	180
-1.01310003	-0.564230025	-1.40670002	131	197	180
-1.01600003	-0.546809971	-1.42939997	131	197	180
-1.04429996	-0.548409998	-1.42910004	131	197	180
-1.04209995	-0.538590014	-1.4461	131	197	180
-1.0402	-0.537949979	-1.449	131	197	180
-1.04190004	-0.535870016	-1.45239997	131	197	180
-1.04299998	-0.537909985	-1.45340002	131	197	180
-1.04349995	-0.535290003	-1.45519996	131	197	180
-1.04110003	-0.534420013	-1.45729995	131	197	180
-1.04050004	-0.532599986	-1.45710003	131	197	180
-1.05879998	-0.542240024	-1.44289994	131	197	180
-1.06309998	-0.542159975	-1.43840003	131	197	180
-1.0625	-0.543269992	-1.43710005	131	197	180
-1.06669998	-0.543540001	-1.43789995	131	197	180
-1.06669998	-0.542140007	-1.43840003	131	197	180
-1.06840003	-0.541620016	-1.44120002	131	197	180
-1.06649995	-0.542500019	-1.44360006	131	197	180
-1.06599998	-0.540830016	-1.44330001	131	197	180
-1.06770003	-0.540300012	-1.44620001	131	197	180
-1.07009995	-0.538230002	-1.44509995	131	197	180
-1.06949997	-0.536450028	-1.44490004	131	197	180
-1.07309997	-0.537930012	-1.44430006	131	197	180
-1.05599999	-0.561800003	-1.40869999	131	197	180
-1.0582	-0.561609983	-1.41229999	131	197	180
-1.0237	-0.576789975	-1.37419999	131	197	180
-1.02190006	-0.580669999	-1.37520003	131	197	180
-1.02090001	-0.576699972	-1.36969995	131	197	180
-1.02380002	-0.579060018	-1.36790001	131	197	180
-1.01440001	-0.574549973	-1.37679994	131	197	180
-1.01189995	-0.574559987	-1.38380003	131	197	180
-1.01240003	-0.573490024	-1.38510001	131	197	180
-1.00899994	-0.573469996	-1.38510001	131	197	180
-1.00730002	-0.573889971	-1.3822	131	197	180
-1.00510001	-0.57385999	-1.3786	131	197	180
-1.00510001	-0.575110018	-1.37810004	131	197	180
-1.00619996	-0.577170014	-1.37909997	131	197	180
-1.00559998	-0.578270018	-1.37769997	131	197	180
-1.03709996	-0.57367003	-1.37469995	131	197	180
-1.00349998	-0.56625998	-1.39590001	131	197	180
-0.98842001	-0.583019972	-1.36989999	131	197	180
-0.986069977	-0.583630025	-1.37129998	131	197	180
-0.984969974	-0.584360003	-1.36919999	131	197	180
-0.983319998	-0.580609977	-1.36800003	131	197	180
-0.980970025	-0.581210017	-1.36950004	131	197	180
-0.981519997	-0.580280006	-1.37080002	131	197	180
-0.978619993	-0.577880025	-1.37249994	131	197	180
-0.978070021	-0.576049984	-1.37240005	131	197	180
-0.993789971	-0.583000004	-1.36210001	131	197	180
-0.991450012	-0.590439975	-1.36059999	131	197	180
-0.987569988	-0.593469977	-1.35290003	131	197	180
-0.98645997	-0.591499984	-1.35189998	131	197	180
-0.985899985	-0.58987999	-1.35169995	131	197	180
-0.98645997	-0.588850021	-1.35309994	131	197	180
-1.03540003	-0.582360029	-1.36829996	131	197	180
-1.01760006	-0.591099977	-1.34749997	131	197	180
-1.01989996	-0.590460002	-1.34599996	131	197	180
-1.00100005	-0.606739998	-1.32500005	131	197	180
-0.999890029	-0.604719996	-1.32420003	131	197	180
-0.999890029	-0.607360005	-1.32290006	131	197	180
-1.00329995	-0.606660008	-1.31799996	131	197	180
-0.957350016	-0.566429973	-1.39209998	131	197	180
-0.953909993	-0.566349983	-1.39189994	131	197	180
-0.96509999	-0.561829984	-1.41289997	131	197	180
-0.958440006	-0.559880018	-1.40799999	131	197	180
-0.954699993	-0.557380021	-1.41400003	131	197	180
-0.954169989	-0.555710018	-1.4138	131	197	180
-0.950179994	-0.552540004	-1.41390002	131	197	180
-0.952289999	-0.550899982	-1.41820002	131	197	180
-0.948080003	-0.545639992	-1.41289997	131	197	180
-0.941479981	-0.539250016	-1.40970004	131	197	180
-0.947030008	-0.559289992	-1.39429998	131	197	180
-0.961430013	-0.580250025	-1.3707	131	197	180
-0.951690018	-0.574769974	-1.37329996	131	197	180
-0.952069998	-0.583379984	-1.35909998	131	197	180
-0.951699972	-0.587909997	-1.35090005	131	197	180
-0.947220027	-0.584389985	-1.35039997	131	197	180
-0.949000001	-0.590160012	-1.34539998	131	197	180
-0.948459983	-0.595160007	-1.34220004	131	197	180
-0.948059976	-0.59552002	-1.33580005	131	197	180
-0.94698	-0.596170008	-1.33369994	131	197	180
-0.946439981	-0.597159982	-1.33229995	131	197	180
-0.950370014	-0.598919988	-1.33270001	131	197	180
-0.95144999	-0.598269999	-1.3348	131	197	180
-0.95144999	-0.596939981	-1.33539999	131	197	180
-0.954850018	-0.597010016	-1.33560002	131	197	180
-0.955940008	-0.599030018	-1.33650005	131	197	180
-0.957700014	-0.599409997	-1.33379996	131	197	180
-0.957700014	-0.600740016	-1.33319998	131	197	180
-0.957149982	-0.601729989	-1.33179998	131	197	180
-0.959450006	-0.60244	-1.32990003	131	197	180
-0.959999979	-0.604139984	-1.33000004	131	197	180
-0.958360016	-0.604439974	-1.32710004	131	197	180
-0.958909988	-0.606130004	-1.32729995	131	197	180
-0.958909988	-0.607469976	-1.32659996	131	197	180
-0.956610024	-0.608099997	-1.32799995	131	197	180
-0.95551002	-0.606060028	-1.32710004	131	197	180
-0.954970002	-0.604369998	-1.32690001	131	197	180
-0.95551002	-0.603370011	-1.3283	131	197	180
-0.95551002	-0.602029979	-1.32889998	131	197	180
-0.952669978	-0.602299988	-1.32949996	131	197	180
-0.953209996	-0.603990018	-1.32969999	131	197	180
-0.953760028	-0.601660013	-1.33169997	131	197	180
-0.954299986	-0.60066998	-1.33299994	131	197	180
-0.954299986	-0.599340022	-1.33360004	131	197	180
-0.95144999	-0.600939989	-1.33360004	131	197	180
-0.949819982	-0.601239979	-1.33070004	131	197	180
-0.949280024	-0.603569984	-1.32869995	131	197	180
-0.949400008	-0.602900028	-1.32369995	131	197	180
-0.953869998	-0.607659996	-1.32360005	131	197	180
-0.953760028	-0.608370006	-1.32860005	131	197	180
-0.958459973	-0.607710004	-1.32029998	131	197	180
-0.964129984	-0.608470023	-1.31840003	131	197	180
-0.965789974	-0.608200014	-1.32130003	131	197	180
-0.94265002	-0.608020008	-1.32099998	131	197	180
-0.940900028	-0.608990014	-1.32309997	131	197	180
-0.938600004	-0.610930026	-1.32379997	131	197	180
-0.935370028	-0.607490003	-1.31980002	131	197	180
-0.93483001	-0.605840027	-1.31959999	131	197	180
-0.937110007	-0.605229974	-1.31830001	131	197	180
-0.937650025	-0.608200014	-1.31789994	131	197	180
-0.936569989	-0.610159993	-1.31509995	131	197	180
-0.937650025	-0.612219989	-1.31599998	131	197	180
-0.939939976	-0.611599982	-1.31470001	131	197	180
-0.939939976	-0.612890005	-1.31410003	131	197	180
-0.939939976	-0.610249996	-1.31529999	131	197	180
-0.941129982	-0.608929992	-1.31239998	131	197	180
-0.940050006	-0.609560013	-1.31029999	131	197	180
-0.940590024	-0.611209989	-1.31040001	131	197	180
-0.940590024	-0.612500012	-1.30980003	131	197	180
-0.941129982	-0.614220023	-1.30999994	131	197	180
-0.940590024	-0.615209997	-1.30859995	131	197	180
-0.940590024	-0.616490006	-1.30799997	131	197	180
-0.941129982	-0.618120015	-1.30809999	131	197	180
-0.942860007	-0.617129982	-1.30599999	131	197	180
-0.942860007	-0.615859985	-1.30659997	131	197	180
-0.945140004	-0.615230024	-1.3053	131	197	180
-0.944589972	-0.616140008	-1.3039	131	197	180
-0.943499982	-0.616710007	-1.30180001	131	197	180
-0.941779971	-0.617699981	-1.3039	131	197	180
-0.940689981	-0.619560003	-1.30120003	131	197	180
-0.941229999	-0.621200025	-1.30130005	131	197	180
-0.94404	-0.620930016	-1.30069995	131	197	180
-0.942409992	-0.621119976	-1.29789996	131	197	180
-0.94186002	-0.622049987	-1.29649997	131	197	180
-0.939050019	-0.62233001	-1.29709995	131	197	180
-0.936240017	-0.622600019	-1.29760003	131	197	180
-0.934620023	-0.620220006	-1.296	131	197	180
-0.936869979	-0.619589984	-1.29470003	131	197	180
-0.93633002	-0.621890008	-1.29260004	131	197	180
-0.933529973	-0.622160017	-1.29320002	131	197	180
-0.930729985	-0.622430027	-1.29369998	131	197	180
-0.929650009	-0.623049974	-1.29159999	131	197	180
-0.931900024	-0.622409999	-1.29030001	131	197	180
-0.934689999	-0.62213999	-1.28970003	131	197	180
-0.938579977	-0.622600019	-1.29059994	131	197	180
-0.941380024	-0.620980024	-1.29069996	131	197	180
-0.942480028	-0.620329976	-1.29289997	131	197	180
-0.944729984	-0.618399978	-1.29219997	131	197	180
-0.94411999	-0.620119989	-1.29579997	131	197	180
-0.945219994	-0.619570017	-1.29789996	131	197	180
-0.94411999	-0.616289973	-1.29760003	131	197	180
-0.939599991	-0.617550015	-1.3003	131	197	180
-0.936789989	-0.617820024	-1.30079997	131	197	180
-0.937330008	-0.61947	-1.301	131	197	180
-0.937870026	-0.621110022	-1.30110002	131	197	180
-0.933979988	-0.619369984	-1.30079997	131	197	180
-0.932250023	-0.620360017	-1.30289996	131	197	180
-0.932250023	-0.619069993	-1.30350006	131	197	180
-0.931710005	-0.617429972	-1.30330002	131	197	180
-0.931710005	-0.616140008	-1.3039	131	197	180
-0.934520006	-0.617160022	-1.30280006	131	197	180
-0.937870026	-0.617259979	-1.30299997	131	197	180
-0.936689973	-0.616039991	-1.30700004	131	197	180
-0.937770009	-0.615480006	-1.30910003	131	197	180
-0.938310027	-0.614489973	-1.31050003	131	197	180
-0.938310027	-0.613129973	-1.31120002	131	197	180
-0.935490012	-0.613390028	-1.31169999	131	197	180
-0.935490012	-0.614750028	-1.31110001	131	197	180
-0.934949994	-0.615740001	-1.30970001	131	197	180
-0.933870018	-0.616299987	-1.30760002	131	197	180
-0.937770009	-0.618030012	-1.30789995	131	197	180
-0.932669997	-0.615019977	-1.31169999	131	197	180
-0.933210015	-0.614009976	-1.31309998	131	197	180
-0.934289992	-0.61342001	-1.31519997	131	197	180
-0.934289992	-0.612119973	-1.31579995	131	197	180
-0.931469977	-0.613680005	-1.31579995	131	197	180
-0.930930018	-0.612030029	-1.31560004	131	197	180
-0.932669997	-0.608370006	-1.31480002	131	197	180
-0.931599975	-0.609009981	-1.31260002	131	197	180
-0.934949994	-0.607749999	-1.31340003	131	197	180
-0.937770009	-0.607490003	-1.31289995	131	197	180
-0.936029971	-0.612450004	-1.31309998	131	197	180
-0.943409979	-0.612240016	-1.30929995	131	197	180
-0.940689981	-0.611810029	-1.30480003	131	197	180
-0.940140009	-0.612800002	-1.30340004	131	197	180
-0.946229994	-0.619790018	-1.30499995	131	197	180
-0.945680022	-0.620720029	-1.30359995	131	197	180
-0.95194	-0.613330007	-1.30130005	131	197	180
-0.956409991	-0.616670012	-1.3017	131	197	180
-0.955850005	-0.61759001	-1.30040002	131	197	180
-0.955299973	-0.618520021	-1.29900002	131	197	180
-0.955900013	-0.61936003	-1.29419994	131	197	180
-0.958119988	-0.622080028	-1.29659998	131	197	180
-0.95927	-0.622089982	-1.29299998	131	197	180
-0.960969985	-0.622420013	-1.29030001	131	197	180
-0.964330018	-0.622489989	-1.29040003	131	197	180
-0.968819976	-0.623269975	-1.29200006	131	197	180
-0.955380023	-0.620909989	-1.28709996	131	197	180
-0.96371001	-0.619729996	-1.30149996	131	197	180
-0.96371001	-0.618449986	-1.30219996	131	197	180
-0.96371001	-0.617160022	-1.30280006	131	197	180
-0.968760014	-0.616999984	-1.30579996	131	197	180
-0.952419996	-0.613129973	-1.30760002	131	197	180
-0.951870024	-0.611410022	-1.3075	131	197	180
-0.944589972	-0.603009999	-1.31009996	131	197	180
-0.944500029	-0.601109982	-1.31630003	131	197	180
-0.939279974	-0.603990018	-1.32260001	131	197	180
-0.936980009	-0.604600012	-1.32389998	131	197	180
-0.932539999	-0.605139971	-1.32159996	131	197	180
-0.933210015	-0.603479981	-1.31789994	131	197	180
-0.933210015	-0.600820005	-1.31910002	131	197	180
-0.933329999	-0.601469994	-1.31350005	131	197	180
-0.93344003	-0.603359997	-1.30739999	131	197	180
-0.936240017	-0.596560001	-1.30980003	131	197	180
-0.935060024	-0.593890011	-1.31449997	131	197	180
-0.935599983	-0.592920005	-1.31579995	131	197	180
-0.92663002	-0.602580011	-1.3125	131	197	180
-0.928240001	-0.607559979	-1.31299996	131	197	180
-0.927709997	-0.608550012	-1.31159997	131	197	180
-0.929859996	-0.607299984	-1.31589997	131	197	180
-0.926090002	-0.611410022	-1.3075	131	197	180
-0.926090002	-0.612770021	-1.30690002	131	197	180
-0.929440022	-0.61421001	-1.30649996	131	197	180
-0.927820027	-0.614409983	-1.30359995	131	197	180
-0.928359985	-0.616039991	-1.30369997	131	197	180
-0.927820027	-0.616970003	-1.30239999	131	197	180
-0.925559998	-0.616299987	-1.30429995	131	197	180
-0.923290014	-0.616919994	-1.30560005	131	197	180
-0.923940003	-0.612680018	-1.30320001	131	197	180
-0.922330022	-0.615419984	-1.29910004	131	197	180
-0.924589992	-0.61609	-1.29719996	131	197	180
-0.926209986	-0.619729996	-1.29820001	131	197	180
-0.924589992	-0.619920015	-1.29540002	131	197	180
-0.924589992	-0.621209979	-1.29470003	131	197	180
-0.924049973	-0.622229993	-1.29330003	131	197	180
-0.922980011	-0.622839987	-1.29110003	131	197	180
-0.921259999	-0.622479975	-1.29390001	131	197	180
-0.920180023	-0.620379984	-1.29299998	131	197	180
-0.917389989	-0.620630026	-1.29349995	131	197	180
-0.917389989	-0.622009993	-1.29289997	131	197	180
-0.917930007	-0.62371999	-1.29299998	131	197	180
-0.915669978	-0.624350011	-1.29429996	131	197	180
-0.913529992	-0.621529996	-1.29190004	131	197	180
-0.912460029	-0.619419992	-1.29100001	131	197	180
-0.910210013	-0.620039999	-1.29229999	131	197	180
-0.910210013	-0.621410012	-1.29159999	131	197	180
-0.911279976	-0.62349999	-1.29250002	131	197	180
-0.907949984	-0.623380005	-1.29229999	131	197	180
-0.906889975	-0.621290028	-1.29139996	131	197	180
-0.90741998	-0.620280027	-1.29279995	131	197	180
-0.912339985	-0.620209992	-1.296	131	197	180
-0.91286999	-0.619300008	-1.29729998	131	197	180
-0.911809981	-0.61729002	-1.29639995	131	197	180
-0.915130019	-0.616119981	-1.29729998	131	197	180
-0.917389989	-0.615509987	-1.296	131	197	180
-0.920180023	-0.615260005	-1.29540002	131	197	180
-0.919529974	-0.618239999	-1.29840004	131	197	180
-0.917810023	-0.619220018	-1.30050004	131	197	180
-0.915669978	-0.619050026	-1.29680002	131	197	180
-0.915130019	-0.61996001	-1.29540002	131	197	180
-0.926850021	-0.621959984	-1.29279995	131	197	180
-0.926850021	-0.62331003	-1.29209995	131	197	180
-0.93009001	-0.622770011	-1.29799998	131	197	180
-0.93009001	-0.621479988	-1.29859996	131	197	180
-0.929549992	-0.619830012	-1.29849994	131	197	180
-0.931810021	-0.619210005	-1.29709995	131	197	180
-0.93234998	-0.620850027	-1.29729998	131	197	180
-0.932900012	-0.622500002	-1.2974	131	197	180
-0.931270003	-0.616289973	-1.29760003	131	197	180
-0.92997998	-0.620989978	-1.30420005	131	197	180
-0.927709997	-0.621609986	-1.30550003	131	197	180
-0.940219998	-0.622340024	-1.29359996	131	197	180
-0.94303	-0.62342	-1.29229999	131	197	180
-0.945280015	-0.622770011	-1.29100001	131	197	180
-0.94253999	-0.619610012	-1.28789997	131	197	180
-0.94253999	-0.618239999	-1.28849995	131	197	180
-0.943679988	-0.619589984	-1.28439999	131	197	180
-0.944280028	-0.614440024	-1.27709997	131	197	180
-0.939740002	-0.614690006	-1.29100001	131	197	180
-0.906229973	-0.612670004	-1.29990005	131	197	180
-0.906080008	-0.612100005	-1.30540001	131	197	180
-0.907140017	-0.614160001	-1.30630004	131	197	180
-0.906610012	-0.615079999	-1.30499995	131	197	180
-0.903810024	-0.615320027	-1.30550003	131	197	180
-0.902059972	-0.61500001	-1.30809999	131	197	180
-0.902059972	-0.613659978	-1.30879998	131	197	180
-0.902059972	-0.612299979	-1.30939996	131	197	180
-0.899789989	-0.612890005	-1.31070006	131	197	180
-0.899789989	-0.614250004	-1.30999994	131	197	180
-0.899789989	-0.61559999	-1.30939996	131	197	180
-0.896990001	-0.614489973	-1.31050003	131	197	180
-0.896459997	-0.615469992	-1.30910003	131	197	180
-0.893660009	-0.614350021	-1.31019998	131	197	180
-0.893140018	-0.615329981	-1.30879998	131	197	180
-0.892620027	-0.617529988	-1.30690002	131	197	180
-0.892620027	-0.618820012	-1.30630004	131	197	180
-0.895420015	-0.617299974	-1.30639994	131	197	180
-0.895940006	-0.618950009	-1.30649996	131	197	180
-0.897689998	-0.616699994	-1.30509996	131	197	180
-0.897170007	-0.615059972	-1.30490005	131	197	180
-0.894370019	-0.615289986	-1.30540001	131	197	180
-0.891059995	-0.615159988	-1.30519998	131	197	180
-0.889310002	-0.614830017	-1.30780005	131	197	180
-0.890349984	-0.614220023	-1.30999994	131	197	180
-0.890349984	-0.612860024	-1.31060004	131	197	180
-0.893140018	-0.61263001	-1.31009996	131	197	180
-0.894900024	-0.611679971	-1.30809999	131	197	180
-0.895229995	-0.612770021	-1.31379998	131	197	180
-0.896269977	-0.612200022	-1.31599998	131	197	180
-0.895229995	-0.610130012	-1.31500006	131	197	180
-0.895229995	-0.608780026	-1.31570005	131	197	180
-0.892419994	-0.609009981	-1.3161	131	197	180
-0.892939985	-0.608049989	-1.3175	131	197	180
-0.890659988	-0.609950006	-1.31819999	131	197	180
-0.891690016	-0.609350026	-1.32029998	131	197	180
-0.892210007	-0.60838002	-1.32169998	131	197	180
-0.895539999	-0.608519971	-1.32200003	131	197	180
-0.897310019	-0.608900011	-1.31939995	131	197	180
-0.90012002	-0.608669996	-1.31889999	131	197	180
-0.900640011	-0.607710004	-1.32029998	131	197	180
-0.898869991	-0.608650029	-1.32229996	131	197	180
-0.899399996	-0.606389999	-1.32430005	131	197	180
-0.899399996	-0.605050027	-1.32490003	131	197	180
-0.900439978	-0.604420006	-1.32710004	131	197	180
-0.900960028	-0.602079988	-1.32910001	131	197	180
-0.90200001	-0.60413003	-1.33000004	131	197	180
-0.904299974	-0.604900002	-1.32809997	131	197	180
-0.905350029	-0.604260027	-1.33029997	131	197	180
-0.904820025	-0.602559984	-1.33010006	131	197	180
-0.902520001	-0.601809978	-1.33200002	131	197	180
-0.903559983	-0.601180017	-1.33410001	131	197	180
-0.904079974	-0.600189984	-1.3355	131	197	180
-0.905130029	-0.599550009	-1.33770001	131	197	180
-0.90565002	-0.598569989	-1.3391	131	197	180
-0.90565002	-0.597230017	-1.33969998	131	197	180
-0.903850019	-0.598150015	-1.34169996	131	197	180
-0.902819991	-0.59878999	-1.33959997	131	197	180
-0.9023	-0.599780023	-1.33819997	131	197	180
-0.901780009	-0.600769997	-1.33679998	131	197	180
-0.900219977	-0.601050019	-1.33389997	131	197	180
-0.899699986	-0.602029979	-1.33249998	131	197	180
-0.896870017	-0.602259994	-1.33299994	131	197	180
-0.89635998	-0.603240013	-1.33159995	131	197	180
-0.898140013	-0.602310002	-1.32959998	131	197	180
-0.897620022	-0.603299975	-1.32819998	131	197	180
-0.897099972	-0.604290009	-1.32679999	131	197	180
-0.897099972	-0.605639994	-1.32620001	131	197	180
-0.897620022	-0.607330024	-1.32630002	131	197	180
-0.897099972	-0.608280003	-1.32500005	131	197	180
-0.895319998	-0.609220028	-1.32700002	131	197	180
-0.894280016	-0.607200027	-1.32599998	131	197	180
-0.893769979	-0.605499983	-1.32589996	131	197	180
-0.894280016	-0.604520023	-1.32729995	131	197	180
-0.894280016	-0.603169978	-1.32790005	131	197	180
-0.891990006	-0.60374999	-1.32910001	131	197	180
-0.890950024	-0.604380012	-1.32700002	131	197	180
-0.889919996	-0.605009973	-1.32480001	131	197	180
-0.889919996	-0.606350005	-1.32420003	131	197	180
-0.888369977	-0.606589973	-1.32130003	131	197	180
-0.887849987	-0.608850002	-1.31930006	131	197	180
-0.887849987	-0.610170007	-1.31869996	131	197	180
-0.885049999	-0.609070003	-1.3197	131	197	180
-0.884019971	-0.609669983	-1.31760001	131	197	180
-0.88578999	-0.610080004	-1.31490004	131	197	180
-0.884750009	-0.610710025	-1.31280005	131	197	180
-0.88527	-0.612360001	-1.31289995	131	197	180
-0.88578999	-0.614030004	-1.31309998	131	197	180
-0.888069987	-0.614799976	-1.31120002	131	197	180
-0.889100015	-0.614170015	-1.31340003	131	197	180
-0.889620006	-0.61322999	-1.31480002	131	197	180
-0.888589978	-0.611209989	-1.31379998	131	197	180
-0.889100015	-0.610220015	-1.31519997	131	197	180
-0.891390026	-0.609640002	-1.31400001	131	197	180
-0.892419994	-0.611699998	-1.31490004	131	197	180
-0.892419994	-0.612999976	-1.31429994	131	197	180
-0.898029983	-0.61255002	-1.31330001	131	197	180
-0.900829971	-0.612309992	-1.31280005	131	197	180
-0.903639972	-0.612079978	-1.31229997	131	197	180
-0.90644002	-0.61184001	-1.3118	131	197	180
-0.90486002	-0.61206001	-1.3089	131	197	180
-0.905390024	-0.613780022	-1.30900002	131	197	180
-0.905390024	-0.615130007	-1.30840003	131	197	180
-0.907140017	-0.61145997	-1.30760002	131	197	180
-0.90941	-0.609570026	-1.30690002	131	197	180
-0.908349991	-0.61014998	-1.30480003	131	197	180
-0.910080016	-0.60394001	-1.30519998	131	197	180
-0.911670029	-0.603690028	-1.30809999	131	197	180
-0.913269997	-0.607410014	-1.30920005	131	197	180
-0.912590027	-0.610430002	-1.31219995	131	197	180
-0.913649976	-0.609799981	-1.31429994	131	197	180
-0.913649976	-0.608449996	-1.31490004	131	197	180
-0.911360025	-0.607729971	-1.3168	131	197	180
-0.908550024	-0.607969999	-1.31739998	131	197	180
-0.908029974	-0.606289983	-1.31719995	131	197	180
-0.905740023	-0.608200014	-1.31789994	131	197	180
-0.904690027	-0.606169999	-1.31690001	131	197	180
-0.902409971	-0.606760025	-1.31819999	131	197	180
-0.902930021	-0.608439982	-1.31840003	131	197	180
-0.901880026	-0.609040022	-1.31620002	131	197	180
-0.901359975	-0.610029995	-1.31480002	131	197	180
-0.902409971	-0.612100005	-1.31570005	131	197	180
-0.90012002	-0.612689972	-1.31700003	131	197	180
-0.898549974	-0.61026001	-1.31529999	131	197	180
-0.898029983	-0.608560026	-1.31519997	131	197	180
-0.905219972	-0.610520005	-1.31589997	131	197	180
-0.905219972	-0.611859977	-1.31519997	131	197	180
-0.908029974	-0.611620009	-1.31470001	131	197	180
-0.908550024	-0.610639989	-1.3161	131	197	180
-0.911360025	-0.610400021	-1.31560004	131	197	180
-0.910839975	-0.611379981	-1.31420004	131	197	180
-0.910839975	-0.612680018	-1.31359994	131	197	180
-0.910660028	-0.610710025	-1.31980002	131	197	180
-0.908370018	-0.611310005	-1.3211	131	197	180
-0.907840014	-0.606999993	-1.32219994	131	197	180
-0.908890009	-0.606410027	-1.32430005	131	197	180
-0.909950018	-0.605780005	-1.32650006	131	197	180
-0.909950018	-0.60443002	-1.32710004	131	197	180
-0.909950018	-0.603089988	-1.32770002	131	197	180
-0.911000013	-0.602450013	-1.32990003	131	197	180
-0.908699989	-0.603030026	-1.33109999	131	197	180
-0.906910002	-0.602630019	-1.33379996	131	197	180
-0.907959998	-0.601999998	-1.33599997	131	197	180
-0.906910002	-0.599960029	-1.33500004	131	197	180
-0.907959998	-0.599330008	-1.33720005	131	197	180
