0.606639981	-0.683229983	-1.20570004	13	56	104
0.606639981	-0.681659997	-1.20659995	13	56	104
0.606639981	-0.681110024	-1.2069	13	56	104
0.607129991	-0.681050003	-1.20790005	13	56	104
0.607129991	-0.680559993	-1.20819998	13	56	104
0.606639981	-0.678309977	-1.20850003	13	56	104
0.607129991	-0.678120017	-1.20959997	13	56	104
0.604950011	-0.678719997	-1.21070004	13	56	104
0.604950011	-0.677550018	-1.21130002	13	56	104
0.602779984	-0.678149998	-1.21239996	13	56	104
0.603760004	-0.68017	-1.21319997	13	56	104
0.604250014	-0.680010021	-1.21430004	13	56	104
0.604250014	-0.678709984	-1.21510005	13	56	104
0.604250014	-0.677980006	-1.2155	13	56	104
0.604250014	-0.677380025	-1.21580005	13	56	104
0.604250014	-0.676779985	-1.21609998	13	56	104
0.606429994	-0.676779985	-1.21469998	13	56	104
0.607410014	-0.678229988	-1.21589994	13	56	104
0.607900023	-0.679390013	-1.21630001	13	56	104
0.608389974	-0.677879989	-1.21809995	13	56	104
0.609369993	-0.677990019	-1.22000003	13	56	104
0.609369993	-0.677240014	-1.22049999	13	56	104
0.608879983	-0.676069975	-1.22010005	13	56	104
0.609369993	-0.675029993	-1.22169995	13	56	104
0.610350013	-0.675159991	-1.22360003	13	56	104
0.610350013	-0.674369991	-1.22399998	13	56	104
0.610840023	-0.673269987	-1.2256	13	56	104
0.610350013	-0.672119975	-1.22529995	13	56	104
0.610350013	-0.671220005	-1.22580004	13	56	104
0.607670009	-0.672290027	-1.2256	13	56	104
0.607179999	-0.670970023	-1.22529995	13	56	104
0.607179999	-0.670050025	-1.22580004	13	56	104
0.607670009	-0.668889999	-1.22739995	13	56	104
0.608650029	-0.670520008	-1.22850001	13	56	104
0.606459975	-0.67031002	-1.23010004	13	56	104
0.605480015	-0.667649984	-1.22950006	13	56	104
0.602800012	-0.667810023	-1.22979999	13	56	104
0.603770018	-0.667770028	-1.23179996	13	56	104
0.603770018	-0.669570029	-1.23090005	13	56	104
0.601090014	-0.670650005	-1.23070002	13	56	104
0.600120008	-0.670599997	-1.22870004	13	56	104
0.599629998	-0.668479979	-1.22889996	13	56	104
0.600600004	-0.66839999	-1.23090005	13	56	104
0.601090014	-0.667930007	-1.23210001	13	56	104
0.601090014	-0.666109979	-1.23310006	13	56	104
0.600600004	-0.66474998	-1.23290002	13	56	104
0.597920001	-0.664910018	-1.23319995	13	56	104
0.598399997	-0.666270018	-1.23339999	13	56	104
0.597440004	-0.666379988	-1.23140001	13	56	104
0.597440004	-0.667259991	-1.23090005	13	56	104
0.596960008	-0.668649971	-1.22920001	13	56	104
0.596960008	-0.669560015	-1.22870004	13	56	104
0.597440004	-0.670769989	-1.22899997	13	56	104
0.594760001	-0.670130014	-1.22969997	13	56	104
0.594760001	-0.669219971	-1.23020005	13	56	104
0.594760001	-0.66742003	-1.23119998	13	56	104
0.595239997	-0.666960001	-1.23249996	13	56	104
0.595719993	-0.666429996	-1.23370004	13	56	104
0.595719993	-0.665489972	-1.2342	13	56	104
0.593519986	-0.666059971	-1.23529994	13	56	104
0.592079997	-0.665750027	-1.23249996	13	56	104
0.591600001	-0.666279972	-1.23119998	13	56	104
0.591600001	-0.667159975	-1.23070002	13	56	104
0.591600001	-0.668959975	-1.22969997	13	56	104
0.591600001	-0.669870019	-1.22920001	13	56	104
0.592079997	-0.671079993	-1.22959995	13	56	104
0.591600001	-0.671450019	-1.22839999	13	56	104
0.589410007	-0.672029972	-1.22940004	13	56	104
0.589410007	-0.671239972	-1.2299	13	56	104
0.588930011	-0.669120014	-1.23000002	13	56	104
0.588450015	-0.669610023	-1.22880006	13	56	104
0.586730003	-0.671389997	-1.23010004	13	56	104
0.58721	-0.672599971	-1.23049998	13	56	104
0.586730003	-0.669690013	-1.23109996	13	56	104
0.58721	-0.669179976	-1.23230004	13	56	104
0.587679982	-0.668720007	-1.23360002	13	56	104
0.586730003	-0.666999996	-1.23249996	13	56	104
0.58721	-0.666469991	-1.23380005	13	56	104
0.587679982	-0.66595	-1.23510003	13	56	104
0.588159978	-0.665400028	-1.23640001	13	56	104
0.587679982	-0.664020002	-1.23609996	13	56	104
0.588639975	-0.663869977	-1.23819995	13	56	104
0.586430013	-0.664439976	-1.23930001	13	56	104
0.587379992	-0.664290011	-1.24129999	13	56	104
0.587859988	-0.663649976	-1.24269998	13	56	104
0.587379992	-0.66219002	-1.24249995	13	56	104
0.586910009	-0.660830021	-1.24220002	13	56	104
0.585169971	-0.661800027	-1.24399996	13	56	104
0.585169971	-0.662750006	-1.24349999	13	56	104
0.584699988	-0.663380027	-1.24220002	13	56	104
0.584699988	-0.664430022	-1.24160004	13	56	104
0.58375001	-0.664579988	-1.23950005	13	56	104
0.58375001	-0.665570021	-1.23899996	13	56	104
0.58375001	-0.666530013	-1.2385	13	56	104
0.582799971	-0.666660011	-1.23640001	13	56	104
0.582329988	-0.667190015	-1.23510003	13	56	104
0.582799971	-0.668550014	-1.23539996	13	56	104
0.585009992	-0.668869972	-1.23389995	13	56	104
0.585479975	-0.668410003	-1.23510003	13	56	104
0.585009992	-0.66703999	-1.2349	13	56	104
0.585009992	-0.666100025	-1.23539996	13	56	104
0.585959971	-0.665970027	-1.23740005	13	56	104
0.585479975	-0.664590001	-1.23720002	13	56	104
0.584060013	-0.668910027	-1.23189998	13	56	104
0.585009992	-0.670679986	-1.23290002	13	56	104
0.584060013	-0.671540022	-1.23039997	13	56	104
0.583100021	-0.6699	-1.22930002	13	56	104
0.583100021	-0.671490014	-1.22839999	13	56	104
0.580429971	-0.670840025	-1.22909999	13	56	104
0.579959989	-0.669629991	-1.22880006	13	56	104
0.579959989	-0.667800009	-1.22979999	13	56	104
0.580429971	-0.667339981	-1.23099995	13	56	104
0.579180002	-0.667859972	-1.23409998	13	56	104
0.579649985	-0.667330027	-1.23539996	13	56	104
0.578239977	-0.665130019	-1.23360002	13	56	104
0.580600023	-0.665289998	-1.2385	13	56	104
0.580600023	-0.664309978	-1.23899996	13	56	104
0.581070006	-0.663749993	-1.24030006	13	56	104
0.582019985	-0.663529992	-1.24240005	13	56	104
0.582490027	-0.662899971	-1.24380004	13	56	104
0.58296001	-0.662360013	-1.24510002	13	56	104
0.583429992	-0.661819994	-1.2464	13	56	104
0.583429992	-0.660709977	-1.24689996	13	56	104
0.584379971	-0.660409987	-1.24909997	13	56	104
0.583909988	-0.659049988	-1.24880004	13	56	104
0.582629979	-0.659259975	-1.25199997	13	56	104
0.585650027	-0.660149992	-1.24590003	13	56	104
0.586120009	-0.661670029	-1.24609995	13	56	104
0.588339984	-0.661109984	-1.245	13	56	104
0.587859988	-0.659590006	-1.24479997	13	56	104
0.590070009	-0.661090016	-1.24269998	13	56	104
0.590070009	-0.662039995	-1.24220002	13	56	104
0.590550005	-0.663500011	-1.24240005	13	56	104
0.590550005	-0.664550006	-1.24179995	13	56	104
0.593230009	-0.664399981	-1.24150002	13	56	104
0.592760026	-0.662930012	-1.24129999	13	56	104
0.592760026	-0.66188997	-1.24189997	13	56	104
0.592760026	-0.660939991	-1.24240005	13	56	104
0.59543997	-0.662779987	-1.24100006	13	56	104
0.59543997	-0.663829982	-1.24049997	13	56	104
0.597649992	-0.663259983	-1.23940003	13	56	104
0.597169995	-0.663829982	-1.23810005	13	56	104
0.600340009	-0.664080024	-1.23860002	13	56	104
0.600340009	-0.663100004	-1.23909998	13	56	104
0.603030026	-0.663919985	-1.23829997	13	56	104
0.603510022	-0.665310025	-1.2385	13	56	104
0.602540016	-0.665449977	-1.23650002	13	56	104
0.600820005	-0.66644001	-1.23829997	13	56	104
0.601300001	-0.665889978	-1.23959994	13	56	104
0.599099994	-0.666459978	-1.24070001	13	56	104
0.59957999	-0.667850018	-1.24090004	13	56	104
0.596400023	-0.666620016	-1.24100006	13	56	104
0.595920026	-0.667169988	-1.23969996	13	56	104
0.592760026	-0.666909993	-1.2392	13	56	104
0.592760026	-0.66595	-1.23969996	13	56	104
0.592279971	-0.664550006	-1.23950005	13	56	104
0.593999982	-0.663569987	-1.23759997	13	56	104
0.599099994	-0.663450003	-1.24230003	13	56	104
0.601790011	-0.663290024	-1.24199998	13	56	104
0.603510022	-0.663349986	-1.23959994	13	56	104
0.605229974	-0.663339972	-1.23720002	13	56	104
0.605229974	-0.665279984	-1.23619998	13	56	104
0.60619998	-0.665139973	-1.23819995	13	56	104
0.60668999	-0.663590014	-1.24000001	13	56	104
0.604969978	-0.663529992	-1.24249995	13	56	104
0.605939984	-0.663309991	-1.24460006	13	56	104
0.605449975	-0.661949992	-1.24430001	13	56	104
0.605449975	-0.66099	-1.24479997	13	56	104
0.604969978	-0.659479976	-1.24460006	13	56	104
0.602270007	-0.659640014	-1.24489999	13	56	104
0.602750003	-0.661159992	-1.24510002	13	56	104
0.603240013	-0.662519991	-1.24539995	13	56	104
0.603240013	-0.663479984	-1.24489999	13	56	104
0.601019979	-0.664049983	-1.24590003	13	56	104
0.601019979	-0.663100004	-1.24650002	13	56	104
0.600059986	-0.661319971	-1.24539995	13	56	104
0.59957999	-0.659799993	-1.24520004	13	56	104
0.597360015	-0.660369992	-1.24629998	13	56	104
0.597360015	-0.66148001	-1.2457	13	56	104
0.596880019	-0.662020028	-1.24440002	13	56	104
0.596880019	-0.662970006	-1.24389994	13	56	104
0.607659996	-0.660420001	-1.24370003	13	56	104
0.607169986	-0.660960019	-1.24240005	13	56	104
0.609380007	-0.660380006	-1.2414	13	56	104
0.609870017	-0.659839988	-1.24259996	13	56	104
0.610360026	-0.662159979	-1.24240005	13	56	104
0.610849977	-0.663609982	-1.24259996	13	56	104
0.609870017	-0.663839996	-1.24049997	13	56	104
0.609380007	-0.665390015	-1.23870003	13	56	104
0.609380007	-0.666350007	-1.23819995	13	56	104
0.611100018	-0.666320026	-1.23580003	13	56	104
0.610610008	-0.666849971	-1.23450005	13	56	104
0.610119998	-0.667379975	-1.23319995	13	56	104
0.609139979	-0.667429984	-1.23119998	13	56	104
0.608160019	-0.667479992	-1.22920001	13	56	104
0.610840023	-0.667299986	-1.22889996	13	56	104
0.611339986	-0.669550002	-1.22870004	13	56	104
0.612320006	-0.67118001	-1.22979999	13	56	104
0.612320006	-0.67197001	-1.22930002	13	56	104
0.61451	-0.671370029	-1.22819996	13	56	104
0.61352998	-0.671459973	-1.22619998	13	56	104
0.61352998	-0.672360003	-1.22570002	13	56	104
0.612540007	-0.672980011	-1.2234	13	56	104
0.612540007	-0.67377001	-1.22300005	13	56	104
0.61352998	-0.675409973	-1.22399998	13	56	104
0.61473	-0.672379971	-1.22230005	13	56	104
0.616919994	-0.67177999	-1.22119999	13	56	104
0.611559987	-0.674440026	-1.22060001	13	56	104
0.611559987	-0.675149977	-1.22019994	13	56	104
0.611559987	-0.675899982	-1.2198	13	56	104
0.611559987	-0.676639974	-1.21940005	13	56	104
0.610570014	-0.676540017	-1.21739995	13	56	104
0.610570014	-0.677280009	-1.21700001	13	56	104
0.609589994	-0.677030027	-1.21519995	13	56	104
0.609589994	-0.677630007	-1.2148	13	56	104
0.610080004	-0.678789973	-1.21519995	13	56	104
0.610080004	-0.679499984	-1.2148	13	56	104
0.609589994	-0.679660022	-1.21370006	13	56	104
0.609099984	-0.681050003	-1.2119	13	56	104
0.60860002	-0.681240022	-1.21080005	13	56	104
0.605939984	-0.681410015	-1.21109998	13	56	104
0.604950011	-0.679939985	-1.21000004	13	56	104
0.604950011	-0.681649983	-1.20899999	13	56	104
0.603969991	-0.680299997	-1.20780003	13	56	104
0.603969991	-0.681289971	-1.20720005	13	56	104
0.602989972	-0.680970013	-1.20539999	13	56	104
0.602989972	-0.682030022	-1.20480001	13	56	104
0.602989972	-0.683030009	-1.20420003	13	56	104
0.603969991	-0.684369981	-1.20550001	13	56	104
0.604460001	-0.683830023	-1.20679998	13	56	104
0.602289975	-0.685400009	-1.20729995	13	56	104
0.601800025	-0.684490025	-1.20679998	13	56	104
0.601310015	-0.683579981	-1.20630002	13	56	104
0.600820005	-0.682630002	-1.20580006	13	56	104
0.601310015	-0.681999981	-1.20720005	13	56	104
0.601800025	-0.681890011	-1.20829999	13	56	104
0.601800025	-0.680899978	-1.20879996	13	56	104
0.602289975	-0.681819975	-1.20930004	13	56	104
0.602779984	-0.681159973	-1.21070004	13	56	104
0.603269994	-0.680970013	-1.21179998	13	56	104
0.600600004	-0.679910004	-1.21280003	13	56	104
0.601090014	-0.679759979	-1.21389997	13	56	104
0.600600004	-0.678749979	-1.21340001	13	56	104
0.600600004	-0.676699996	-1.21459997	13	56	104
0.600600004	-0.676100016	-1.21490002	13	56	104
0.601580024	-0.678149998	-1.21580005	13	56	104
0.60206002	-0.679310024	-1.21609998	13	56	104
0.60206002	-0.676639974	-1.21759999	13	56	104
0.59938997	-0.676060021	-1.21829998	13	56	104
0.598909974	-0.676379979	-1.21710002	13	56	104
0.598420024	-0.676689982	-1.21599996	13	56	104
0.598909974	-0.67772001	-1.21640003	13	56	104
0.598909974	-0.678319991	-1.21609998	13	56	104
0.598909974	-0.679050028	-1.21570003	13	56	104
0.59671998	-0.678910017	-1.21710002	13	56	104
0.595749974	-0.677460015	-1.21589994	13	56	104
0.595269978	-0.678359985	-1.21440005	13	56	104
0.597450018	-0.678489983	-1.21300006	13	56	104
0.596960008	-0.678640008	-1.2119	13	56	104
0.595990002	-0.678369999	-1.21000004	13	56	104
0.595990002	-0.678979993	-1.20969999	13	56	104
0.595499992	-0.680379987	-1.20790005	13	56	104
0.595499992	-0.682449996	-1.20669997	13	56	104
0.595990002	-0.683399975	-1.20720005	13	56	104
0.595499992	-0.683969975	-1.20589995	13	56	104
0.595499992	-0.684870005	-1.20539999	13	56	104
0.596480012	-0.685310006	-1.20710003	13	56	104
0.598649979	-0.684710026	-1.20609999	13	56	104
0.598160028	-0.684700012	-1.20510006	13	56	104
0.597190022	-0.684260011	-1.2033	13	56	104
0.597190022	-0.684669971	-1.20309997	13	56	104
0.597190022	-0.685479999	-1.2026	13	56	104
0.596700013	-0.68463999	-1.20210004	13	56	104
0.596700013	-0.686649978	-1.20089996	13	56	104
0.596700013	-0.687300026	-1.20060003	13	56	104
0.596700013	-0.687889993	-1.20019996	13	56	104
0.597190022	-0.687430024	-1.20150006	13	56	104
0.599349976	-0.687129974	-1.20029998	13	56	104
0.599349976	-0.686829984	-1.20039999	13	56	104
0.599349976	-0.687420011	-1.20009995	13	56	104
0.599839985	-0.686909974	-1.20140004	13	56	104
0.599839985	-0.686550021	-1.20159996	13	56	104
0.600329995	-0.685329974	-1.2033	13	56	104
0.599839985	-0.684499979	-1.20280004	13	56	104
0.599839985	-0.684090018	-1.20299995	13	56	104
0.600820005	-0.68453002	-1.20480001	13	56	104
0.600820005	-0.686169982	-1.20379996	13	56	104
0.600820005	-0.686580002	-1.20360005	13	56	104
0.602989972	-0.686399996	-1.20229995	13	56	104
0.603479981	-0.68641001	-1.2033	13	56	104
0.603969991	-0.686429977	-1.20430005	13	56	104
0.602989972	-0.685159981	-1.20299995	13	56	104
0.602500021	-0.684329987	-1.20249999	13	56	104
0.601520002	-0.682640016	-1.20140004	13	56	104
0.601029992	-0.682630002	-1.20039999	13	56	104
0.604170024	-0.682889998	-1.20089996	13	56	104
0.604170024	-0.682470024	-1.20109999	13	56	104
0.605159998	-0.684149981	-1.20220006	13	56	104
0.605650008	-0.68186003	-1.20449996	13	56	104
0.604170024	-0.680060029	-1.20249999	13	56	104
0.602010012	-0.680660009	-1.20360005	13	56	104
0.599839985	-0.68125999	-1.20459998	13	56	104
0.597190022	-0.681429982	-1.20490003	13	56	104
0.596700013	-0.682020009	-1.20360005	13	56	104
0.594529986	-0.682619989	-1.20459998	13	56	104
0.592850029	-0.683130026	-1.20669997	13	56	104
0.592850029	-0.682609975	-1.20700002	13	56	104
0.59236002	-0.681640029	-1.20659995	13	56	104
0.589709997	-0.681800008	-1.2069	13	56	104
0.589709997	-0.68125999	-1.20720005	13	56	104
0.589709997	-0.680270016	-1.20770001	13	56	104
0.590189993	-0.678879976	-1.20949996	13	56	104
0.590189993	-0.678269982	-1.2098	13	56	104
0.59066999	-0.678110003	-1.21089995	13	56	104
0.59066999	-0.677529991	-1.21130002	13	56	104
0.588500023	-0.678110003	-1.21229994	13	56	104
0.588500023	-0.67869997	-1.21200001	13	56	104
0.588020027	-0.678849995	-1.21089995	13	56	104
0.588020027	-0.679470003	-1.2105	13	56	104
0.588500023	-0.681720018	-1.21029997	13	56	104
0.588980019	-0.681550026	-1.21140003	13	56	104
0.589460015	-0.68137002	-1.21249998	13	56	104
0.589460015	-0.683080018	-1.21150005	13	56	104
0.588980019	-0.68313998	-1.2105	13	56	104
0.586799979	-0.683229983	-1.21179998	13	56	104
0.586319983	-0.683300018	-1.21080005	13	56	104
0.585839987	-0.681280017	-1.21089995	13	56	104
0.585839987	-0.680660009	-1.2112	13	56	104
0.585839987	-0.680050015	-1.21159995	13	56	104
0.585839987	-0.679440022	-1.2119	13	56	104
0.586319983	-0.679279983	-1.21300006	13	56	104
0.586319983	-0.67869997	-1.21340001	13	56	104
0.586799979	-0.678409994	-1.21449995	13	56	104
0.587279975	-0.678110003	-1.21570003	13	56	104
0.587279975	-0.677510023	-1.21599996	13	56	104
0.586799979	-0.675000012	-1.21640003	13	56	104
0.585099995	-0.677479982	-1.21739995	13	56	104
0.585099995	-0.679419994	-1.21630001	13	56	104
0.584140003	-0.677829981	-1.21519995	13	56	104
0.583660007	-0.678849995	-1.21360004	13	56	104
0.584140003	-0.679859996	-1.2141	13	56	104
0.583660007	-0.680019975	-1.21300006	13	56	104
0.58318001	-0.680199981	-1.2119	13	56	104
0.582229972	-0.679960012	-1.21000004	13	56	104
0.581749976	-0.680140018	-1.20889997	13	56	104
0.579569995	-0.680100024	-1.21029997	13	56	104
0.579100013	-0.680289984	-1.20910001	13	56	104
0.579100013	-0.681379974	-1.20850003	13	56	104
0.576919973	-0.682449996	-1.20930004	13	56	104
0.576919973	-0.680859983	-1.21019995	13	56	104
0.576919973	-0.680249989	-1.2105	13	56	104
0.577400029	-0.680069983	-1.21159995	13	56	104
0.577870011	-0.67930001	-1.21309996	13	56	104
0.57881999	-0.680750012	-1.21430004	13	56	104
0.575689971	-0.680459976	-1.21379995	13	56	104
0.574739993	-0.680209994	-1.2119	13	56	104
0.574739993	-0.681439996	-1.2112	13	56	104
0.574739993	-0.683030009	-1.21029997	13	56	104
0.573319972	-0.68226999	-1.20770001	13	56	104
0.572849989	-0.682380021	-1.20659995	13	56	104
0.572369993	-0.682470024	-1.20560002	13	56	104
0.572369993	-0.682980001	-1.20529997	13	56	104
0.571430027	-0.682600021	-1.20350003	13	56	104
0.571430027	-0.683070004	-1.20319998	13	56	104
0.570949972	-0.68305999	-1.20220006	13	56	104
0.570949972	-0.684289992	-1.20150006	13	56	104
0.570479989	-0.685090005	-1.20000005	13	56	104
0.570949972	-0.685940027	-1.20050001	13	56	104
0.570949972	-0.686950028	-1.20000005	13	56	104
0.570949972	-0.687240005	-1.19980001	13	56	104
0.569999993	-0.685779989	-1.19860005	13	56	104
0.569999993	-0.685419977	-1.19879997	13	56	104
0.569999993	-0.683830023	-1.1997	13	56	104
0.56783998	-0.684809983	-1.20050001	13	56	104
0.568310022	-0.685670018	-1.20099998	13	56	104
0.568310022	-0.684840024	-1.20150006	13	56	104
0.568790019	-0.68651998	-1.20159996	13	56	104
0.568790019	-0.684059978	-1.20299995	13	56	104
0.568310022	-0.683200002	-1.20239997	13	56	104
0.569260001	-0.683650017	-1.20420003	13	56	104
0.569729984	-0.683610022	-1.20519996	13	56	104
0.570200026	-0.68355	-1.20630002	13	56	104
0.569260001	-0.682169974	-1.20500004	13	56	104
0.569260001	-0.681659997	-1.20529997	13	56	104
0.569260001	-0.681119978	-1.20560002	13	56	104
0.570200026	-0.681439996	-1.20749998	13	56	104
0.570200026	-0.680450022	-1.20799994	13	56	104
0.570680022	-0.681379974	-1.20850003	13	56	104
0.571150005	-0.680719972	-1.20990002	13	56	104
0.570680022	-0.679669976	-1.20949996	13	56	104
0.570200026	-0.678629994	-1.20910001	13	56	104
0.570680022	-0.677869976	-1.2105	13	56	104
0.570200026	-0.676850021	-1.21010005	13	56	104
0.567560017	-0.676989973	-1.21029997	13	56	104
0.565859973	-0.679149985	-1.21140003	13	56	104
0.566330016	-0.678420007	-1.21280003	13	56	104
0.567260027	-0.679859996	-1.2141	13	56	104
0.567260027	-0.678560019	-1.2148	13	56	104
0.568199992	-0.678690016	-1.21669996	13	56	104
0.568199992	-0.676750004	-1.21780002	13	56	104
0.56773001	-0.675580025	-1.21749997	13	56	104
0.567260027	-0.67663002	-1.21589994	13	56	104
0.566330016	-0.676370025	-1.21399999	13	56	104
0.564149976	-0.67632997	-1.21529996	13	56	104
0.565079987	-0.67839998	-1.21619999	13	56	104
0.565550029	-0.676890016	-1.21809995	13	56	104
0.565550029	-0.67614001	-1.21850002	13	56	104
0.566020012	-0.675819993	-1.21969998	13	56	104
0.566489995	-0.675509989	-1.22080004	13	56	104
0.566489995	-0.674790025	-1.22119999	13	56	104
0.568669975	-0.67422998	-1.22019994	13	56	104
0.568669975	-0.674950004	-1.2198	13	56	104
0.568669975	-0.675689995	-1.21940005	13	56	104
0.570079982	-0.674799979	-1.22290003	13	56	104
0.570550025	-0.673640013	-1.22459996	13	56	104
0.571020007	-0.673340023	-1.22580004	13	56	104
0.57148999	-0.673030019	-1.22689998	13	56	104
0.574150026	-0.672890007	-1.22669995	13	56	104
0.573210001	-0.670220017	-1.22609997	13	56	104
0.572269976	-0.670300007	-1.22409999	13	56	104
0.570079982	-0.670859993	-1.22510004	13	56	104
0.570079982	-0.669939995	-1.2256	13	56	104
0.567889988	-0.670490026	-1.22660005	13	56	104
0.566950023	-0.670570016	-1.22459996	13	56	104
0.564300001	-0.670700014	-1.22479999	13	56	104
0.564300001	-0.671599984	-1.22430003	13	56	104
0.564300001	-0.672320008	-1.22389996	13	56	104
0.566489995	-0.672490001	-1.22249997	13	56	104
0.567420006	-0.674139977	-1.22360003	13	56	104
0.567889988	-0.675360024	-1.22399998	13	56	104
0.567889988	-0.673039973	-1.22520006	13	56	104
0.568359971	-0.672739983	-1.22640002	13	56	104
0.565699995	-0.671050012	-1.22759998	13	56	104
0.566160023	-0.670679986	-1.22889996	13	56	104
0.566630006	-0.670319974	-1.23010004	13	56	104
0.566160023	-0.668980002	-1.22979999	13	56	104
0.566630006	-0.668479979	-1.23109996	13	56	104
0.564429998	-0.667270005	-1.23300004	13	56	104
0.564429998	-0.66632998	-1.2335	13	56	104
0.564899981	-0.665799975	-1.23479998	13	56	104
0.565829992	-0.664719999	-1.23740005	13	56	104
0.56536001	-0.663320005	-1.23720002	13	56	104
0.564899981	-0.661920011	-1.23689997	13	56	104
0.564899981	-0.660870016	-1.23749995	13	56	104
0.563160002	-0.661830008	-1.23930001	13	56	104
0.563619971	-0.661210001	-1.24059999	13	56	104
0.564549983	-0.661090016	-1.24269998	13	56	104
0.567219973	-0.660960019	-1.24240005	13	56	104
0.567219973	-0.661920011	-1.24189997	13	56	104
0.569429994	-0.662410021	-1.24039996	13	56	104
0.571630001	-0.661859989	-1.23930001	13	56	104
0.568499982	-0.663609982	-1.23769999	13	56	104
0.569429994	-0.665419996	-1.23870003	13	56	104
0.569890022	-0.666809976	-1.23899996	13	56	104
0.568960011	-0.667879999	-1.23640001	13	56	104
0.56803	-0.666090012	-1.23539996	13	56	104
0.56803	-0.667980015	-1.23430002	13	56	104
0.57069999	-0.667850018	-1.23409998	13	56	104
0.570230007	-0.666490018	-1.23380005	13	56	104
0.569760025	-0.667890012	-1.23210001	13	56	104
0.570230007	-0.66918999	-1.23239994	13	56	104
0.572899997	-0.669059992	-1.23210001	13	56	104
0.572899997	-0.668179989	-1.23259997	13	56	104
0.57336998	-0.66772002	-1.23389995	13	56	104
0.572430015	-0.665929973	-1.23280001	13	56	104
0.571169972	-0.666379988	-1.23590004	13	56	104
0.571959972	-0.669139981	-1.23010004	13	56	104
0.571959972	-0.670050025	-1.22959995	13	56	104
0.574150026	-0.66948998	-1.22850001	13	56	104
0.574620008	-0.66900003	-1.22979999	13	56	104
0.575100005	-0.671130002	-1.22969997	13	56	104
0.57336998	-0.672110021	-1.23150003	13	56	104
0.569760025	-0.671400011	-1.23020005	13	56	104
0.568830013	-0.669759989	-1.22899997	13	56	104
0.567420006	-0.667580009	-1.22720003	13	56	104
0.565230012	-0.666339993	-1.22920001	13	56	104
0.563040018	-0.666890025	-1.23020005	13	56	104
0.563040018	-0.667770028	-1.22969997	13	56	104
0.563040018	-0.668690026	-1.22920001	13	56	104
0.563040018	-0.66960001	-1.22870004	13	56	104
0.562569976	-0.669969976	-1.22749996	13	56	104
0.563040018	-0.67118001	-1.22790003	13	56	104
0.562569976	-0.671679974	-1.22660005	13	56	104
0.562569976	-0.672580004	-1.22609997	13	56	104
0.561640024	-0.672450006	-1.22420001	13	56	104
0.560710013	-0.672330022	-1.22220004	13	56	104
0.560710013	-0.673120022	-1.22179997	13	56	104
0.561640024	-0.674769998	-1.22290003	13	56	104
0.563830018	-0.674210012	-1.22189999	13	56	104
0.563369989	-0.672990024	-1.22150004	13	56	104
0.562900007	-0.671769977	-1.22119999	13	56	104
0.562430024	-0.673640013	-1.21920002	13	56	104
0.562430024	-0.674350023	-1.21879995	13	56	104
0.562430024	-0.675100029	-1.2184	13	56	104
0.562430024	-0.67584002	-1.21790004	13	56	104
0.562430024	-0.676590025	-1.21749997	13	56	104
0.560249984	-0.676400006	-1.21889997	13	56	104
0.560249984	-0.675650001	-1.21940005	13	56	104
0.560249984	-0.674910009	-1.2198	13	56	104
0.559780002	-0.67377001	-1.21940005	13	56	104
0.557600021	-0.674319983	-1.22039998	13	56	104
0.557600021	-0.675040007	-1.22000003	13	56	104
0.557600021	-0.675779998	-1.21959996	13	56	104
0.557600021	-0.67651999	-1.21920002	13	56	104
0.555410028	-0.677079976	-1.22019994	13	56	104
0.554949999	-0.675899982	-1.2198	13	56	104
0.554949999	-0.675159991	-1.22019994	13	56	104
0.555410028	-0.674870014	-1.22140002	13	56	104
0.554949999	-0.672940016	-1.22140002	13	56	104
0.55448997	-0.671720028	-1.22109997	13	56	104
0.551840007	-0.671840012	-1.22130001	13	56	104
0.551379979	-0.672200024	-1.22010005	13	56	104
0.551379979	-0.672990024	-1.21969998	13	56	104
0.55092001	-0.673280001	-1.21850002	13	56	104
0.551379979	-0.674419999	-1.21889997	13	56	104
0.551379979	-0.675159991	-1.21850002	13	56	104
0.551840007	-0.676339984	-1.21879995	13	56	104
0.551840007	-0.677089989	-1.2184	13	56	104
0.551379979	-0.677990019	-1.21689999	13	56	104
0.551379979	-0.67859	-1.21659994	13	56	104
0.55092001	-0.676959991	-1.21650004	13	56	104
0.550459981	-0.678460002	-1.21459997	13	56	104
0.550459981	-0.679170012	-1.21420002	13	56	104
0.549539983	-0.679470003	-1.21200001	13	56	104
0.549080014	-0.678460002	-1.21159995	13	56	104
0.549080014	-0.679650009	-1.21089995	13	56	104
0.548619986	-0.679830015	-1.2098	13	56	104
0.549539983	-0.681309998	-1.21099997	13	56	104
0.552179992	-0.681190014	-1.21080005	13	56	104
0.552179992	-0.679970026	-1.21140003	13	56	104
0.552179992	-0.679359972	-1.21179998	13	56	104
0.551720023	-0.678340018	-1.21130002	13	56	104
0.552640021	-0.678619981	-1.21319997	13	56	104
0.552640021	-0.67790997	-1.21360004	13	56	104
0.554820001	-0.678070009	-1.21220005	13	56	104
0.554359972	-0.678219974	-1.21109998	13	56	104
0.554820001	-0.679229975	-1.21159995	13	56	104
0.55388999	-0.678979993	-1.20969999	13	56	104
0.554359972	-0.680639982	-1.2098	13	56	104
0.553430021	-0.680369973	-1.20790005	13	56	104
0.552969992	-0.680429995	-1.20679998	13	56	104
0.552969992	-0.680920005	-1.20659995	13	56	104
0.55250001	-0.681029975	-1.20550001	13	56	104
0.553430021	-0.682439983	-1.20669997	13	56	104
0.553430021	-0.683470011	-1.20609999	13	56	104
0.55250001	-0.683080018	-1.20430005	13	56	104
0.55250001	-0.683560014	-1.204	13	56	104
0.55250001	-0.684809983	-1.2033	13	56	104
0.55250001	-0.686450005	-1.20239997	13	56	104
0.551580012	-0.685150027	-1.20109999	13	56	104
0.551580012	-0.684740007	-1.20130002	13	56	104
0.551580012	-0.683529973	-1.20200002	13	56	104
0.551580012	-0.683109999	-1.20229995	13	56	104
0.553740025	-0.682550013	-1.20130002	13	56	104
0.554210007	-0.683399975	-1.20179999	13	56	104
0.554210007	-0.684210002	-1.20130002	13	56	104
0.554210007	-0.685029984	-1.20089996	13	56	104
0.554210007	-0.685450017	-1.20060003	13	56	104
0.554210007	-0.685859978	-1.20039999	13	56	104
0.554210007	-0.68621999	-1.20019996	13	56	104
0.554210007	-0.686569989	-1.20000005	13	56	104
0.554210007	-0.686869979	-1.19980001	13	56	104
0.554669976	-0.687609971	-1.20039999	13	56	104
0.554210007	-0.688530028	-1.19889998	13	56	104
0.554210007	-0.689350009	-1.19840002	13	56	104
0.554210007	-0.689989984	-1.19799995	13	56	104
0.553740025	-0.689700007	-1.19719994	13	56	104
0.553740025	-0.689610004	-1.19719994	13	56	104
0.553740025	-0.688899994	-1.19760001	13	56	104
0.553279996	-0.688459992	-1.19690001	13	56	104
0.553279996	-0.689040005	-1.19649994	13	56	104
0.553279996	-0.689050019	-1.19649994	13	56	104
0.553279996	-0.689350009	-1.19640005	13	56	104
0.552810013	-0.688610017	-1.19579995	13	56	104
0.552810013	-0.688269973	-1.19599998	13	56	104
0.552810013	-0.688019991	-1.1961	13	56	104
0.552810013	-0.687460005	-1.19640005	13	56	104
0.552349985	-0.687579989	-1.19529998	13	56	104
0.552349985	-0.687629998	-1.19529998	13	56	104
0.552349985	-0.688030005	-1.19509995	13	56	104
0.552349985	-0.688199997	-1.19500005	13	56	104
0.552349985	-0.688610017	-1.1947	13	56	104
0.552349985	-0.689109981	-1.19449997	13	56	104
0.552349985	-0.689230025	-1.19439995	13	56	104
0.552349985	-0.68927002	-1.19439995	13	56	104
0.552349985	-0.689440012	-1.19430006	13	56	104
0.552349985	-0.689469993	-1.19420004	13	56	104
0.551880002	-0.688979983	-1.19350004	13	56	104
0.551880002	-0.688740015	-1.19360006	13	56	104
0.551880002	-0.688549995	-1.19379997	13	56	104
0.551880002	-0.688300014	-1.19389999	13	56	104
0.551880002	-0.687730014	-1.19420004	13	56	104
0.551880002	-0.687730014	-1.19420004	13	56	104
0.551880002	-0.687669992	-1.19430006	13	56	104
0.551880002	-0.687399983	-1.19439995	13	56	104
0.551880002	-0.687139988	-1.19459999	13	56	104
0.551419973	-0.685639977	-1.19439995	13	56	104
0.54926002	-0.687259972	-1.19480002	13	56	104
0.54926002	-0.687849998	-1.19439995	13	56	104
0.54926002	-0.688049972	-1.19430006	13	56	104
0.54926002	-0.688059986	-1.19430006	13	56	104
0.54926002	-0.688149989	-1.19430006	13	56	104
0.54926002	-0.68829	-1.19420004	13	56	104
0.54926002	-0.689029992	-1.19379997	13	56	104
0.54926002	-0.689100027	-1.19369996	13	56	104
0.54926002	-0.689119995	-1.19369996	13	56	104
0.54926002	-0.689149976	-1.19369996	13	56	104
0.549719989	-0.689520001	-1.19449997	13	56	104
0.549719989	-0.689559996	-1.19449997	13	56	104
0.549719989	-0.68957001	-1.19449997	13	56	104
0.550189972	-0.689830005	-1.19529998	13	56	104
0.550189972	-0.689939976	-1.19529998	13	56	104
0.550189972	-0.689970016	-1.19529998	13	56	104
0.550189972	-0.690039992	-1.19519997	13	56	104
0.550189972	-0.688769996	-1.19599998	13	56	104
0.550189972	-0.688730001	-1.19599998	13	56	104
0.550189972	-0.688139975	-1.19630003	13	56	104
0.550189972	-0.687579989	-1.19659996	13	56	104
0.550189972	-0.687330008	-1.19679999	13	56	104
0.550189972	-0.687080026	-1.19690001	13	56	104
0.550189972	-0.686550021	-1.19719994	13	56	104
0.549719989	-0.685819983	-1.19659996	13	56	104
0.549719989	-0.687699974	-1.19560003	13	56	104
0.549719989	-0.688229978	-1.19519997	13	56	104
0.549719989	-0.68829	-1.19519997	13	56	104
0.549719989	-0.68829	-1.19519997	13	56	104
0.549719989	-0.688409984	-1.19509995	13	56	104
0.548799992	-0.687269986	-1.19379997	13	56	104
0.548799992	-0.687080026	-1.19389999	13	56	104
0.548799992	-0.687070012	-1.19389999	13	56	104
0.548799992	-0.686869979	-1.19400001	13	56	104
0.548799992	-0.686819971	-1.19400001	13	56	104
0.548799992	-0.686569989	-1.19420004	13	56	104
0.548799992	-0.687919974	-1.19340003	13	56	104
0.548799992	-0.688229978	-1.19319999	13	56	104
0.548799992	-0.688419998	-1.19309998	13	56	104
0.548799992	-0.688579977	-1.19299996	13	56	104
0.548799992	-0.688679993	-1.19289994	13	56	104
0.547100008	-0.689620018	-1.1947	13	56	104
0.547100008	-0.689639986	-1.1947	13	56	104
0.547100008	-0.68967998	-1.1947	13	56	104
0.547100008	-0.689710021	-1.1947	13	56	104
0.547100008	-0.689239979	-1.19490004	13	56	104
0.547100008	-0.688709974	-1.19519997	13	56	104
0.547100008	-0.688610017	-1.19529998	13	56	104
0.547100008	-0.688530028	-1.1954	13	56	104
0.547100008	-0.688440025	-1.1954	13	56	104
0.547100008	-0.688409984	-1.1954	13	56	104
0.547100008	-0.688069999	-1.19560003	13	56	104
0.547100008	-0.687820017	-1.19579995	13	56	104
0.547100008	-0.68700999	-1.19620001	13	56	104
0.547100008	-0.686500013	-1.19649994	13	56	104
0.547100008	-0.685940027	-1.19679999	13	56	104
0.547559977	-0.686670005	-1.19739997	13	56	104
0.547559977	-0.687699974	-1.19679999	13	56	104
0.547559977	-0.688260019	-1.19649994	13	56	104
0.547559977	-0.688719988	-1.19630003	13	56	104
0.548020005	-0.689350009	-1.19690001	13	56	104
0.548020005	-0.689999998	-1.19659996	13	56	104
0.548020005	-0.690540016	-1.19620001	13	56	104
0.548020005	-0.69058001	-1.19620001	13	56	104
0.547559977	-0.690129995	-1.19550002	13	56	104
0.548489988	-0.691039979	-1.19700003	13	56	104
0.548489988	-0.689149976	-1.19809997	13	56	104
0.548950016	-0.689589977	-1.19879997	13	56	104
0.548020005	-0.688709974	-1.19729996	13	56	104
0.545859993	-0.68927002	-1.1983	13	56	104
0.545859993	-0.689909995	-1.19790006	13	56	104
0.545400023	-0.689450026	-1.19710004	13	56	104
0.545400023	-0.689279974	-1.19719994	13	56	104
0.545400023	-0.688820004	-1.19749999	13	56	104
0.546320021	-0.689710021	-1.199	13	56	104
0.546320021	-0.691609979	-1.19790006	13	56	104
0.545400023	-0.690699995	-1.19640005	13	56	104
0.546639979	-0.687430024	-1.19500005	13	56	104
0.546639979	-0.687380016	-1.19500005	13	56	104
0.546639979	-0.687129974	-1.19509995	13	56	104
0.546639979	-0.686320007	-1.19560003	13	56	104
0.544019997	-0.68562001	-1.19630003	13	56	104
0.544019997	-0.684729993	-1.19679999	13	56	104
0.544480026	-0.685469985	-1.19739997	13	56	104
0.545400023	-0.686640024	-1.19879997	13	56	104
0.545859993	-0.686140001	-1.20009995	13	56	104
0.545859993	-0.685370028	-1.20050001	13	56	104
0.546320021	-0.685389996	-1.20150006	13	56	104
0.54677999	-0.685419977	-1.20249999	13	56	104
0.54677999	-0.685010016	-1.20280004	13	56	104
0.547240019	-0.685050011	-1.20379996	13	56	104
0.548160017	-0.684679985	-1.20599997	13	56	104
0.548619986	-0.68362999	-1.2076	13	56	104
0.548160017	-0.682139993	-1.20739996	13	56	104
0.548160017	-0.681590021	-1.20780003	13	56	104
0.547699988	-0.680660009	-1.20729995	13	56	104
0.547699988	-0.68017	-1.20749998	13	56	104
0.547699988	-0.682240009	-1.20640004	13	56	104
0.54677999	-0.682399988	-1.20420003	13	56	104
0.545859993	-0.682009995	-1.20239997	13	56	104
0.545400023	-0.682470024	-1.20109999	13	56	104
0.545400023	-0.682889998	-1.20089996	13	56	104
0.547559977	-0.681909978	-1.20019996	13	56	104
0.548950016	-0.683650017	-1.20220006	13	56	104
0.548950016	-0.684459984	-1.20179999	13	56	104
0.548950016	-0.684859991	-1.20150006	13	56	104
0.548489988	-0.68483001	-1.20050001	13	56	104
0.548020005	-0.685580015	-1.19910002	13	56	104
0.548489988	-0.686380029	-1.1997	13	56	104
0.548489988	-0.686670005	-1.19949996	13	56	104
0.548489988	-0.686969995	-1.19930005	13	56	104
0.549409986	-0.686550021	-1.20159996	13	56	104
0.549870014	-0.686569989	-1.2026	13	56	104
0.550329983	-0.685370028	-1.20430005	13	56	104
0.550800025	-0.684560001	-1.20580006	13	56	104
0.550329983	-0.683640003	-1.20529997	13	56	104
0.550329983	-0.683149993	-1.20560002	13	56	104
0.550800025	-0.683080018	-1.20659995	13	56	104
0.550800025	-0.682560027	-1.2069	13	56	104
0.550329983	-0.681580007	-1.20650005	13	56	104
0.550800025	-0.681469977	-1.20749998	13	56	104
0.549870014	-0.680109978	-1.20630002	13	56	104
0.549870014	-0.679620028	-1.20659995	13	56	104
0.550800025	-0.679279983	-1.20879996	13	56	104
0.552969992	-0.678719997	-1.20780003	13	56	104
0.555599988	-0.679809988	-1.2069	13	56	104
0.555599988	-0.681339979	-1.20599997	13	56	104
0.556060016	-0.682829976	-1.2062	13	56	104
0.556060016	-0.683350027	-1.20589995	13	56	104
0.556990027	-0.683189988	-1.20799994	13	56	104
0.556990027	-0.682099998	-1.20869994	13	56	104
0.556529999	-0.681169987	-1.20819998	13	56	104
0.556990027	-0.680509984	-1.20949996	13	56	104
0.556529999	-0.679470003	-1.20910001	13	56	104
0.556529999	-0.678860009	-1.20949996	13	56	104
0.55746001	-0.679109991	-1.21130002	13	56	104
0.55746001	-0.678529978	-1.21169996	13	56	104
0.55746001	-0.677940011	-1.21200001	13	56	104
0.560100019	-0.677820027	-1.21179998	13	56	104
0.560570002	-0.679419994	-1.2119	13	56	104
0.560100019	-0.680209994	-1.21039999	13	56	104
0.560570002	-0.681249976	-1.21089995	13	56	104
0.562740028	-0.680689991	-1.20990002	13	56	104
0.562740028	-0.680079997	-1.21019995	13	56	104
0.562269986	-0.679030001	-1.2098	13	56	104
0.563210011	-0.679289997	-1.21169996	13	56	104
0.562740028	-0.677690029	-1.21150005	13	56	104
0.563210011	-0.677399993	-1.21270001	13	56	104
0.562740028	-0.675639987	-1.21270001	13	56	104
0.561029971	-0.67663002	-1.21449995	13	56	104
0.561029971	-0.67602998	-1.2148	13	56	104
0.55884999	-0.675859988	-1.21619999	13	56	104
0.558390021	-0.676760018	-1.21469998	13	56	104
0.557919979	-0.67572999	-1.21430004	13	56	104
0.555750012	-0.675549984	-1.21570003	13	56	104
0.556209981	-0.676720023	-1.21599996	13	56	104
0.55667001	-0.677749991	-1.21650004	13	56	104
0.557139993	-0.678780019	-1.21689999	13	56	104
0.556209981	-0.678650022	-1.21490002	13	56	104
0.554030001	-0.678470016	-1.21630001	13	56	104
0.554030001	-0.677869976	-1.21669996	13	56	104
0.554030001	-0.677269995	-1.21700001	13	56	104
0.55448997	-0.676970005	-1.21819997	13	56	104
0.55884999	-0.678520024	-1.21469998	13	56	104
0.559780002	-0.678659976	-1.21669996	13	56	104
0.561969995	-0.678830028	-1.21529996	13	56	104
0.562430024	-0.680559993	-1.21529996	13	56	104
0.563369989	-0.679390013	-1.21800005	13	56	104
0.565550029	-0.680859983	-1.21580005	13	56	104
0.564920008	-0.678900003	-1.20949996	13	56	104
0.565389991	-0.679949999	-1.21000004	13	56	104
0.565859973	-0.680989981	-1.21039999	13	56	104
0.564920008	-0.681710005	-1.20799994	13	56	104
0.564450026	-0.680779994	-1.20749998	13	56	104
0.564920008	-0.682799995	-1.20729995	13	56	104
0.564450026	-0.682879984	-1.20630002	13	56	104
0.564450026	-0.683879972	-1.20570004	13	56	104
0.564450026	-0.684360027	-1.20539999	13	56	104
0.563979983	-0.682959974	-1.20519996	13	56	104
0.561339974	-0.683089972	-1.20550001	13	56	104
0.562269986	-0.684449971	-1.20669997	13	56	104
0.562269986	-0.684930027	-1.20640004	13	56	104
0.562269986	-0.683449984	-1.20729995	13	56	104
0.563210011	-0.683799982	-1.20910001	13	56	104
0.563679993	-0.683149993	-1.2105	13	56	104
0.562269986	-0.681349993	-1.20850003	13	56	104
0.560100019	-0.683499992	-1.20860004	13	56	104
0.560100019	-0.684010029	-1.20829999	13	56	104
0.559170008	-0.681540012	-1.20770001	13	56	104
0.558700025	-0.680610001	-1.20720005	13	56	104
0.558239996	-0.681209981	-1.20580006	13	56	104
0.558239996	-0.682780027	-1.20490003	13	56	104
0.558239996	-0.683269978	-1.20459998	13	56	104
0.558700025	-0.684180021	-1.20510006	13	56	104
0.559170008	-0.686680019	-1.20469999	13	56	104
0.555599988	-0.685940027	-1.20340002	13	56	104
0.554669976	-0.684249997	-1.20229995	13	56	104
0.554669976	-0.683000028	-1.20309997	13	56	104
0.554669976	-0.682519972	-1.2033	13	56	104
0.556840003	-0.682860017	-1.20179999	13	56	104
0.55637002	-0.68283999	-1.20079994	13	56	104
0.55637002	-0.68325001	-1.20060003	13	56	104
0.557299972	-0.68453002	-1.20190001	13	56	104
0.557299972	-0.685339987	-1.20140004	13	56	104
0.556840003	-0.68532002	-1.20039999	13	56	104
0.556840003	-0.685739994	-1.20019996	13	56	104
0.556840003	-0.686089993	-1.20000005	13	56	104
0.55637002	-0.686010003	-1.199	13	56	104
0.55637002	-0.68629998	-1.19879997	13	56	104
0.55637002	-0.686890006	-1.19850004	13	56	104
0.55637002	-0.687189996	-1.1983	13	56	104
0.555899978	-0.68700999	-1.19739997	13	56	104
0.555440009	-0.686829984	-1.19649994	13	56	104
0.555440009	-0.687080026	-1.19640005	13	56	104
0.555440009	-0.687900007	-1.19589996	13	56	104
0.555440009	-0.688149989	-1.19570005	13	56	104
0.555440009	-0.688489974	-1.19550002	13	56	104
0.555440009	-0.688790023	-1.1954	13	56	104
0.555440009	-0.68900001	-1.19529998	13	56	104
0.555440009	-0.689760029	-1.19480002	13	56	104
0.555440009	-0.68979001	-1.19480002	13	56	104
0.555899978	-0.690140009	-1.19560003	13	56	104
0.555899978	-0.69016999	-1.19560003	13	56	104
0.555899978	-0.690209985	-1.19560003	13	56	104
0.555899978	-0.690029979	-1.19570005	13	56	104
0.555899978	-0.689629972	-1.19589996	13	56	104
0.555899978	-0.689130008	-1.19620001	13	56	104
0.555899978	-0.688960016	-1.19630003	13	56	104
0.555899978	-0.688920021	-1.19630003	13	56	104
0.555899978	-0.688910007	-1.19630003	13	56	104
0.555899978	-0.688790023	-1.19640005	13	56	104
0.555899978	-0.688340008	-1.19669998	13	56	104
0.55637002	-0.68878001	-1.19739997	13	56	104
0.55637002	-0.689369977	-1.19710004	13	56	104
0.55637002	-0.689419985	-1.19700003	13	56	104
0.55637002	-0.68949002	-1.19700003	13	56	104
0.556840003	-0.689220011	-1.19819999	13	56	104
0.557299972	-0.689660013	-1.199	13	56	104
0.557299972	-0.687479973	-1.20019996	13	56	104
0.559469998	-0.6875	-1.19889998	13	56	104
0.559939981	-0.687349975	-1.20000005	13	56	104
0.562569976	-0.686269999	-1.20029998	13	56	104
0.563040018	-0.686349988	-1.20130002	13	56	104
0.563510001	-0.686380029	-1.20229995	13	56	104
0.563510001	-0.685949981	-1.20249999	13	56	104
0.563979983	-0.685980022	-1.20350003	13	56	104
0.561160028	-0.687829971	-1.19630003	13	56	104
0.561160028	-0.688080013	-1.19620001	13	56	104
0.561160028	-0.688130021	-1.19620001	13	56	104
0.561160028	-0.688530028	-1.19589996	13	56	104
0.561160028	-0.68866998	-1.19589996	13	56	104
0.561160028	-0.68866998	-1.19589996	13	56	104
0.561160028	-0.68870002	-1.19579995	13	56	104
0.560689986	-0.686819971	-1.19589996	13	56	104
0.560220003	-0.686140001	-1.19529998	13	56	104
0.559750021	-0.686760008	-1.19389999	13	56	104
0.559750021	-0.687290013	-1.19360006	13	56	104
0.559750021	-0.687460005	-1.19350004	13	56	104
0.559750021	-0.687860012	-1.19330001	13	56	104
0.559750021	-0.688619971	-1.19280005	13	56	104
0.559750021	-0.688650012	-1.19280005	13	56	104
0.559279978	-0.688180029	-1.19210005	13	56	104
0.559279978	-0.688160002	-1.19210005	13	56	104
0.559279978	-0.687820017	-1.19229996	13	56	104
0.559279978	-0.687259972	-1.19260001	13	56	104
0.559279978	-0.687110007	-1.19270003	13	56	104
0.559279978	-0.686959982	-1.19280005	13	56	104
0.559279978	-0.686320007	-1.19309998	13	56	104
0.558809996	-0.68690002	-1.1918	13	56	104
0.558340013	-0.687139988	-1.19060004	13	56	104
0.558340013	-0.68720001	-1.19060004	13	56	104
0.558340013	-0.685440004	-1.19159997	13	56	104
0.561439991	-0.685739994	-1.19210005	13	56	104
0.561909974	-0.686179996	-1.19289994	13	56	104
0.561439991	-0.686689973	-1.19159997	13	56	104
0.561909974	-0.68769002	-1.19200003	13	56	104
0.554970026	-0.689100027	-1.19420004	13	56	104
0.554970026	-0.688989997	-1.19420004	13	56	104
0.554970026	-0.689230025	-1.19410002	13	56	104
0.554970026	-0.689320028	-1.19400001	13	56	104
0.552810013	-0.689880013	-1.19500005	13	56	104
0.552810013	-0.689890027	-1.19500005	13	56	104
0.552810013	-0.689849973	-1.19509995	13	56	104
0.552810013	-0.689310014	-1.1954	13	56	104
0.553279996	-0.690259993	-1.19579995	13	56	104
0.553279996	-0.690339983	-1.19579995	13	56	104
0.551580012	-0.691349983	-1.19749999	13	56	104
0.552039981	-0.690559983	-1.199	13	56	104
0.552039981	-0.689909995	-1.19939995	13	56	104
0.551110029	-0.689029992	-1.19790006	13	56	104
0.551110029	-0.689599991	-1.19749999	13	56	104
0.550650001	-0.68858999	-1.19710004	13	56	104
0.551110029	-0.687699974	-1.19860005	13	56	104
0.551110029	-0.686850011	-1.19910002	13	56	104
0.551580012	-0.686990023	-1.20000005	13	56	104
0.551580012	-0.685989976	-1.20060003	13	56	104
0.551110029	-0.685899973	-1.19959998	13	56	104
0.550650001	-0.685819983	-1.19869995	13	56	104
0.552810013	-0.686140001	-1.19719994	13	56	104
0.553279996	-0.686869979	-1.19780004	13	56	104
0.553279996	-0.687139988	-1.19760001	13	56	104
0.550650001	-0.683459997	-1.20000005	13	56	104
0.558529973	-0.682680011	-1.19959998	13	56	104
0.559000015	-0.682709992	-1.20060003	13	56	104
0.559000015	-0.682290018	-1.20079994	13	56	104
0.560869992	-0.681079984	-1.20560002	13	56	104
0.560869992	-0.679560006	-1.20640004	13	56	104
0.563510001	-0.679430008	-1.2062	13	56	104
0.563040018	-0.680519998	-1.20459998	13	56	104
0.565680027	-0.678860009	-1.20519996	13	56	104
0.566619992	-0.680220008	-1.20650005	13	56	104
0.557770014	-0.679250002	-1.20589995	13	56	104
0.558700025	-0.678300023	-1.20850003	13	56	104
0.554359972	-0.683830023	-1.20799994	13	56	104
0.545400023	-0.685339987	-1.19949996	13	56	104
0.544149995	-0.68554002	-1.20270002	13	56	104
0.544610023	-0.687579989	-1.2026	13	56	104
0.544149995	-0.690270007	-1.20000005	13	56	104
0.54369998	-0.68155998	-1.204	13	56	104
0.544149995	-0.68147999	-1.20500004	13	56	104
0.54369998	-0.680509984	-1.20459998	13	56	104
0.541530013	-0.681050003	-1.20550001	13	56	104
0.541069984	-0.68167001	-1.20420003	13	56	104
0.538900018	-0.682219982	-1.20510006	13	56	104
0.537989974	-0.680289984	-1.20420003	13	56	104
0.536279976	-0.681270003	-1.20589995	13	56	104
0.536729991	-0.680180013	-1.20749998	13	56	104
0.53719002	-0.680019975	-1.20869994	13	56	104
0.537639976	-0.679840028	-1.2098	13	56	104
0.538089991	-0.679669976	-1.21089995	13	56	104
0.538089991	-0.679050028	-1.2112	13	56	104
0.538550019	-0.678900003	-1.21239996	13	56	104
0.538999975	-0.678759992	-1.21350002	13	56	104
0.539460003	-0.678470016	-1.21459997	13	56	104
0.539910018	-0.677579999	-1.21619999	13	56	104
0.540359974	-0.678610027	-1.21659994	13	56	104
0.542550027	-0.678070009	-1.21560001	13	56	104
0.542550027	-0.677470028	-1.21599996	13	56	104
0.542550027	-0.676869988	-1.21630001	13	56	104
0.542550027	-0.676129997	-1.21669996	13	56	104
0.542550027	-0.675390005	-1.21710002	13	56	104
0.543460011	-0.675509989	-1.2191	13	56	104
0.541270018	-0.675300002	-1.22049999	13	56	104
0.541729987	-0.675019979	-1.22160006	13	56	104
0.541729987	-0.674310029	-1.222	13	56	104
0.544369996	-0.674199998	-1.22179997	13	56	104
0.54527998	-0.675769985	-1.22300005	13	56	104
0.54527998	-0.676479995	-1.22259998	13	56	104
0.547469974	-0.675230026	-1.222	13	56	104
0.547010005	-0.675509989	-1.22090006	13	56	104
0.546559989	-0.675819993	-1.21969998	13	56	104
0.549199998	-0.675710022	-1.21949995	13	56	104
0.549660027	-0.675400019	-1.22060001	13	56	104
0.548740029	-0.673820019	-1.21949995	13	56	104
0.548280001	-0.67268002	-1.2191	13	56	104
0.547819972	-0.671459973	-1.21879995	13	56	104
0.548740029	-0.671530008	-1.22080004	13	56	104
0.549660027	-0.671660006	-1.2227	13	56	104
0.550119996	-0.671360016	-1.22389996	13	56	104
0.549660027	-0.670029998	-1.22360003	13	56	104
0.547469974	-0.671469986	-1.22409999	13	56	104
0.547469974	-0.672200024	-1.22370005	13	56	104
0.546559989	-0.669719994	-1.22300005	13	56	104
0.544369996	-0.670260012	-1.22399998	13	56	104
0.544820011	-0.671589971	-1.22430003	13	56	104
0.544369996	-0.671880007	-1.22309995	13	56	104
0.542999983	-0.671320021	-1.22039998	13	56	104
0.542550027	-0.671679974	-1.21920002	13	56	104
0.540359974	-0.672219992	-1.22010005	13	56	104
0.540359974	-0.671429992	-1.22060001	13	56	104
0.540820003	-0.671130002	-1.22179997	13	56	104
0.538630009	-0.670939982	-1.22309995	13	56	104
0.538179994	-0.671239972	-1.22189999	13	56	104
0.538179994	-0.67197001	-1.22150004	13	56	104
0.537729979	-0.672330022	-1.22029996	13	56	104
0.538179994	-0.67355001	-1.22070003	13	56	104
0.538630009	-0.674690008	-1.22109997	13	56	104
0.538630009	-0.675409973	-1.22070003	13	56	104
0.537729979	-0.675289989	-1.21870005	13	56	104
0.537280023	-0.675599992	-1.21749997	13	56	104
0.536819994	-0.675909996	-1.21630001	13	56	104
0.537280023	-0.678279996	-1.21599996	13	56	104
0.536819994	-0.678579986	-1.2148	13	56	104
0.536819994	-0.67930001	-1.21440005	13	56	104
0.535920024	-0.679589987	-1.21220005	13	56	104
0.535470009	-0.678569973	-1.21179998	13	56	104
0.535470009	-0.679769993	-1.21109998	13	56	104
0.53500998	-0.680559993	-1.20959997	13	56	104
0.534560025	-0.679509997	-1.20920002	13	56	104
0.53500998	-0.681649983	-1.20899999	13	56	104
0.53500998	-0.682150006	-1.20869994	13	56	104
0.534560025	-0.682789981	-1.20729995	13	56	104
0.53500998	-0.683749974	-1.20780003	13	56	104
0.537639976	-0.683130026	-1.20790005	13	56	104
0.538089991	-0.684080005	-1.20840001	13	56	104
0.537639976	-0.682039976	-1.20850003	13	56	104
0.538550019	-0.682420015	-1.21039999	13	56	104
0.539810002	-0.681490004	-1.2076	13	56	104
0.539359987	-0.680069983	-1.20739996	13	56	104
0.539359987	-0.679470003	-1.20770001	13	56	104
0.542439997	-0.679799974	-1.20829999	13	56	104
0.542439997	-0.680400014	-1.20790005	13	56	104
0.542439997	-0.681379974	-1.20739996	13	56	104
0.542439997	-0.682470024	-1.20679998	13	56	104
0.540269971	-0.683019996	-1.20770001	13	56	104
0.543359995	-0.681770027	-1.20920002	13	56	104
0.54381001	-0.680499971	-1.21089995	13	56	104
0.54381001	-0.679880023	-1.21130002	13	56	104
0.544269979	-0.679700017	-1.21239996	13	56	104
0.54381001	-0.678690016	-1.21200001	13	56	104
0.54381001	-0.67809999	-1.21229994	13	56	104
0.544730008	-0.678260028	-1.21420002	13	56	104
0.545180023	-0.677959979	-1.21539998	13	56	104
0.545180023	-0.677359998	-1.21580005	13	56	104
0.545639992	-0.677190006	-1.21689999	13	56	104
0.545180023	-0.675270021	-1.21689999	13	56	104
0.544730008	-0.675589979	-1.21570003	13	56	104
0.546909988	-0.676379979	-1.21399999	13	56	104
0.546909988	-0.676980019	-1.21370006	13	56	104
0.547360003	-0.679440022	-1.21329999	13	56	104
0.546909988	-0.679589987	-1.21220005	13	56	104
0.546909988	-0.680199981	-1.2119	13	56	104
0.546909988	-0.680819988	-1.21150005	13	56	104
0.54598999	-0.680559993	-1.20959997	13	56	104
0.545530021	-0.680719972	-1.20850003	13	56	104
0.54598999	-0.681649983	-1.20899999	13	56	104
0.54598999	-0.682150006	-1.20869994	13	56	104
0.548280001	-0.679009974	-1.21560001	13	56	104
0.548740029	-0.680159986	-1.21599996	13	56	104
0.548280001	-0.677070022	-1.21669996	13	56	104
0.548740029	-0.676769972	-1.21790004	13	56	104
0.548280001	-0.675589979	-1.21749997	13	56	104
0.542550027	-0.678799987	-1.21519995	13	56	104
0.542089999	-0.679080009	-1.21399999	13	56	104
0.542089999	-0.680249989	-1.21340001	13	56	104
0.541180015	-0.678799987	-1.21220005	13	56	104
0.540719986	-0.679560006	-1.21070004	13	56	104
