0.118550003	-0.626190007	-1.30159998	112	91	24
0.116439998	-0.626779974	-1.30280006	112	91	24
0.116439998	-0.625389993	-1.30340004	112	91	24
0.116120003	-0.627279997	-1.3003	112	91	24
0.118220001	-0.62668997	-1.29910004	112	91	24
0.12066	-0.626950026	-1.29970002	112	91	24
0.120990001	-0.625060022	-1.30280006	112	91	24
0.120820001	-0.623340011	-1.30250001	112	91	24
0.123089999	-0.624469995	-1.30149996	112	91	24
0.123429999	-0.624029994	-1.3039	112	91	24
0.125870004	-0.624289989	-1.30449998	112	91	24
0.125530005	-0.624729991	-1.30209994	112	91	24
0.128319994	-0.625840008	-1.30439997	112	91	24
0.128490001	-0.627659976	-1.3046	112	91	24
0.128319994	-0.628589988	-1.30309999	112	91	24
0.126039997	-0.62875998	-1.30340004	112	91	24
0.126210004	-0.627830029	-1.30499995	112	91	24
0.1241	-0.628419995	-1.30620003	112	91	24
0.121320002	-0.627309978	-1.3039	112	91	24
0.123429999	-0.628069997	-1.30200005	112	91	24
0.130250007	-0.627560019	-1.30089998	112	91	24
0.130590007	-0.627059996	-1.30340004	112	91	24
0.130769998	-0.626100004	-1.30490005	112	91	24
0.130940005	-0.625220001	-1.30639994	112	91	24
0.128659993	-0.625400007	-1.30680001	112	91	24
0.128999993	-0.624949992	-1.30920005	112	91	24
0.128999993	-0.623660028	-1.30980003	112	91	24
0.129339993	-0.623210013	-1.31219995	112	91	24
0.12951	-0.622340024	-1.31369996	112	91	24
0.127389997	-0.62292999	-1.31490004	112	91	24
0.125100002	-0.623099983	-1.31529999	112	91	24
0.124930002	-0.623969972	-1.31379998	112	91	24
0.127049997	-0.623380005	-1.3125	112	91	24
0.127049997	-0.624679983	-1.31190002	112	91	24
0.126709998	-0.625119984	-1.30949998	112	91	24
0.124260001	-0.624870002	-1.30900002	112	91	24
0.124430001	-0.624000013	-1.31050003	112	91	24
0.122139998	-0.624159992	-1.31089997	112	91	24
0.122139998	-0.622870028	-1.31149995	112	91	24
0.121809997	-0.624610007	-1.30850005	112	91	24
0.119369999	-0.624350011	-1.30789995	112	91	24
0.119369999	-0.623049974	-1.30850005	112	91	24
0.117080003	-0.623220026	-1.3089	112	91	24
0.117080003	-0.62191999	-1.30949998	112	91	24
0.11496	-0.62379998	-1.31009996	112	91	24
0.11496	-0.625090003	-1.30949998	112	91	24
0.117250003	-0.624930024	-1.30910003	112	91	24
0.119039997	-0.620920002	-1.30739999	112	91	24
0.112520002	-0.623529971	-1.30949998	112	91	24
0.112520002	-0.624830008	-1.3089	112	91	24
0.110079996	-0.624559999	-1.30830002	112	91	24
0.110079996	-0.623269975	-1.30900002	112	91	24
0.107799999	-0.62342	-1.30929995	112	91	24
0.107799999	-0.624710023	-1.30869997	112	91	24
0.107799999	-0.625999987	-1.30809999	112	91	24
0.105360001	-0.625729978	-1.3075	112	91	24
0.105360001	-0.624440014	-1.30809999	112	91	24
0.104900002	-0.625750005	-1.30420005	112	91	24
0.109449998	-0.625440001	-1.30350006	112	91	24
0.10977	-0.624989986	-1.30599999	112	91	24
0.131109998	-0.623070002	-1.30859995	112	91	24
0.131280005	-0.624779999	-1.30879998	112	91	24
0.133560002	-0.624610007	-1.30850005	112	91	24
0.133389995	-0.625479996	-1.30700004	112	91	24
0.133039996	-0.625919998	-1.3046	112	91	24
0.135319993	-0.625750005	-1.30420005	112	91	24
0.135499999	-0.624880016	-1.30569994	112	91	24
0.137950003	-0.625129998	-1.30620003	112	91	24
0.137600005	-0.625569999	-1.30379999	112	91	24
0.139870003	-0.626779974	-1.30280006	112	91	24
0.139689997	-0.627719998	-1.30120003	112	91	24
0.137239993	-0.627470016	-1.30069995	112	91	24
0.136889994	-0.625259995	-1.29960001	112	91	24
0.134440005	-0.625010014	-1.29910004	112	91	24
0.134619996	-0.626789987	-1.29929996	112	91	24
0.132180005	-0.626529992	-1.29879999	112	91	24
0.132349998	-0.625609994	-1.3003	112	91	24
0.133220002	-0.622470021	-1.30729997	112	91	24
0.133220002	-0.621179998	-1.30789995	112	91	24
0.135499999	-0.622300029	-1.30690002	112	91	24
0.136020005	-0.624859989	-1.30900002	112	91	24
0.13831	-0.624689996	-1.30859995	112	91	24
0.13831	-0.623390019	-1.30920005	112	91	24
0.138479993	-0.62252003	-1.31070006	112	91	24
0.136199996	-0.622699976	-1.31110001	112	91	24
0.136549994	-0.622250021	-1.31350005	112	91	24
0.136549994	-0.620949984	-1.31410003	112	91	24
0.139009997	-0.621200025	-1.31459999	112	91	24
0.139009997	-0.622489989	-1.31400001	112	91	24
0.141299993	-0.622319996	-1.31359994	112	91	24
0.141479999	-0.621439993	-1.31509995	112	91	24
0.141660005	-0.620570004	-1.31659997	112	91	24
0.139190003	-0.620329976	-1.3161	112	91	24
0.144130006	-0.622099996	-1.31649995	112	91	24
0.144309998	-0.621230006	-1.31799996	112	91	24
0.146610007	-0.62105	-1.31770003	112	91	24
0.146789998	-0.622759998	-1.31789994	112	91	24
0.149269998	-0.623000026	-1.31840003	112	91	24
0.149269998	-0.621710002	-1.31910002	112	91	24
0.151380002	-0.622399986	-1.31719995	112	91	24
0.153860003	-0.62263	-1.31770003	112	91	24
0.153490007	-0.623090029	-1.31529999	112	91	24
0.153109998	-0.623539984	-1.31289995	112	91	24
0.152740002	-0.623989999	-1.31050003	112	91	24
0.152549997	-0.624859989	-1.30900002	112	91	24
0.155019999	-0.625100017	-1.30949998	112	91	24
0.155019999	-0.62379998	-1.31009996	112	91	24
0.154650003	-0.621670008	-1.3089	112	91	24
0.155019999	-0.621219993	-1.31130004	112	91	24
0.157309994	-0.622319996	-1.31029999	112	91	24
0.157690004	-0.621869981	-1.31270003	112	91	24
0.157879993	-0.620989978	-1.31420004	112	91	24
0.155589998	-0.621179998	-1.31459999	112	91	24
0.155210003	-0.61905998	-1.31340003	112	91	24
0.153300002	-0.620079994	-1.31560004	112	91	24
0.153300002	-0.618799984	-1.31620002	112	91	24
0.153679997	-0.618279994	-1.31860006	112	91	24
0.155970007	-0.618099988	-1.31819999	112	91	24
0.155780002	-0.619029999	-1.31669998	112	91	24
0.158260003	-0.619260013	-1.31719995	112	91	24
0.158260003	-0.620540023	-1.31659997	112	91	24
0.160359994	-0.619939983	-1.31529999	112	91	24
0.160359994	-0.618650019	-1.31589997	112	91	24
0.160170004	-0.61688	-1.31560004	112	91	24
0.157879993	-0.617070019	-1.31599998	112	91	24
0.160750002	-0.616760015	-1.31889999	112	91	24
0.163230002	-0.61698997	-1.31939995	112	91	24
0.163230002	-0.618359983	-1.31879997	112	91	24
0.163039997	-0.619289994	-1.31729996	112	91	24
0.165329993	-0.619099975	-1.3168	112	91	24
0.165529996	-0.618160009	-1.31840003	112	91	24
0.165920004	-0.617630005	-1.32079995	112	91	24
0.168410003	-0.619220018	-1.32060003	112	91	24
0.168610007	-0.618260026	-1.32210004	112	91	24
0.168610007	-0.616949975	-1.32280004	112	91	24
0.171110004	-0.617169976	-1.32319999	112	91	24
0.170910001	-0.618059993	-1.32169998	112	91	24
0.170910001	-0.619440019	-1.3211	112	91	24
0.173409998	-0.619650006	-1.32149994	112	91	24
0.173409998	-0.618279994	-1.32219994	112	91	24
0.173409998	-0.616970003	-1.32280004	112	91	24
0.173610002	-0.616079986	-1.32430005	112	91	24
0.175909996	-0.615880013	-1.32389998	112	91	24
0.175709993	-0.616770029	-1.32239997	112	91	24
0.175909996	-0.618489981	-1.32260001	112	91	24
0.175909996	-0.619870007	-1.32200003	112	91	24
0.178210005	-0.618290007	-1.32219994	112	91	24
0.178010002	-0.616569996	-1.32190001	112	91	24
0.1778	-0.614849985	-1.32169998	112	91	24
0.180299997	-0.616360009	-1.32149994	112	91	24
0.180509999	-0.615469992	-1.32299995	112	91	24
0.180920005	-0.614939988	-1.32539999	112	91	24
0.183219999	-0.614740014	-1.32500005	112	91	24
0.185729995	-0.614939988	-1.32539999	112	91	24
0.185530007	-0.615880013	-1.32389998	112	91	24
0.185530007	-0.613170028	-1.32509995	112	91	24
0.188040003	-0.613370001	-1.32560003	112	91	24
0.188250005	-0.615140021	-1.32579994	112	91	24
0.188250005	-0.61650002	-1.32519996	112	91	24
0.188250005	-0.617810011	-1.32459998	112	91	24
0.190549999	-0.617600024	-1.32410002	112	91	24
0.190549999	-0.616289973	-1.32480001	112	91	24
0.190760002	-0.615350008	-1.32630002	112	91	24
0.190549999	-0.613569975	-1.32599998	112	91	24
0.190549999	-0.61224997	-1.32659996	112	91	24
0.192849994	-0.614719987	-1.32490003	112	91	24
0.192420006	-0.615249991	-1.32249999	112	91	24
0.192420006	-0.616559982	-1.32190001	112	91	24
0.192210004	-0.617449999	-1.3204	112	91	24
0.191780001	-0.617999971	-1.31799996	112	91	24
0.191780001	-0.619350016	-1.31739998	112	91	24
0.191780001	-0.620630026	-1.3168	112	91	24
0.191780001	-0.62191999	-1.31620002	112	91	24
0.191349998	-0.622380018	-1.31379998	112	91	24
0.191129997	-0.623260021	-1.31229997	112	91	24
0.191349998	-0.624970019	-1.31260002	112	91	24
0.193419993	-0.624339998	-1.31120002	112	91	24
0.193849996	-0.623880029	-1.31359994	112	91	24
0.193639994	-0.622169971	-1.31330001	112	91	24
0.193849996	-0.621290028	-1.31480002	112	91	24
0.194069996	-0.620419979	-1.31630003	112	91	24
0.194069996	-0.619130015	-1.31690001	112	91	24
0.196360007	-0.618910015	-1.31649995	112	91	24
0.195930004	-0.619369984	-1.31410003	112	91	24
0.195490003	-0.619819999	-1.31169999	112	91	24
0.19777	-0.619599998	-1.31130004	112	91	24
0.200059995	-0.619379997	-1.31079996	112	91	24
0.200499997	-0.621510029	-1.31190002	112	91	24
0.198210001	-0.62173003	-1.31239998	112	91	24
0.198210001	-0.623019993	-1.3118	112	91	24
0.195930004	-0.623239994	-1.31229997	112	91	24
0.195930004	-0.621949971	-1.31289995	112	91	24
0.195930004	-0.624539971	-1.31159997	112	91	24
0.19777	-0.623480022	-1.30939996	112	91	24
0.200059995	-0.623260021	-1.3089	112	91	24
0.200059995	-0.621959984	-1.3096	112	91	24
0.202120006	-0.621320009	-1.3082	112	91	24
0.202120006	-0.622609973	-1.30760002	112	91	24
0.202340007	-0.624319971	-1.30789995	112	91	24
0.202120006	-0.62519002	-1.30639994	112	91	24
0.201890007	-0.626070023	-1.30490005	112	91	24
0.201890007	-0.627460003	-1.30420005	112	91	24
0.204390004	-0.627659976	-1.3046	112	91	24
0.204390004	-0.629019976	-1.3039	112	91	24
0.206670001	-0.628790021	-1.30350006	112	91	24
0.208949998	-0.628560007	-1.30299997	112	91	24
0.208949998	-0.627200007	-1.30359995	112	91	24
0.209409997	-0.626649976	-1.30610001	112	91	24
0.20713	-0.62687999	-1.30649996	112	91	24
0.20713	-0.625580013	-1.30719995	112	91	24
0.20758	-0.625129998	-1.30949998	112	91	24
0.20781	-0.624249995	-1.31099999	112	91	24
0.20781	-0.622959971	-1.31169999	112	91	24
0.20781	-0.621670008	-1.31229997	112	91	24
0.20758	-0.61996001	-1.31200004	112	91	24
0.20781	-0.619090021	-1.31350005	112	91	24
0.205520004	-0.619310021	-1.31400001	112	91	24
0.205290005	-0.620180011	-1.3125	112	91	24
0.205290005	-0.621479988	-1.31190002	112	91	24
0.205070004	-0.622349977	-1.31040001	112	91	24
0.205290005	-0.624059975	-1.31060004	112	91	24
0.205290005	-0.625360012	-1.30999994	112	91	24
0.204620004	-0.625389993	-1.30680001	112	91	24
0.204170004	-0.625840008	-1.30439997	112	91	24
0.20713	-0.62826997	-1.30589998	112	91	24
0.211689994	-0.627810001	-1.30490005	112	91	24
0.211689994	-0.626420021	-1.30560005	112	91	24
0.213730007	-0.625760019	-1.30420005	112	91	24
0.213730007	-0.627149999	-1.30359995	112	91	24
0.213499993	-0.628090024	-1.30200005	112	91	24
0.211229995	-0.628319979	-1.30250001	112	91	24
0.210999995	-0.623860002	-1.30359995	112	91	24
0.208719999	-0.624090016	-1.30410004	112	91	24
0.213970006	-0.624880016	-1.30569994	112	91	24
0.214430004	-0.624430001	-1.30809999	112	91	24
0.212149993	-0.624670029	-1.30859995	112	91	24
0.212149993	-0.623380005	-1.30920005	112	91	24
0.212380007	-0.622500002	-1.31070006	112	91	24
0.212380007	-0.621209979	-1.31130004	112	91	24
0.210089996	-0.621439993	-1.3118	112	91	24
0.210089996	-0.622730017	-1.31120002	112	91	24
0.210089996	-0.624029994	-1.31060004	112	91	24
0.210089996	-0.625320017	-1.30990005	112	91	24
0.215120003	-0.62440002	-1.31130004	112	91	24
0.215360001	-0.623520017	-1.31280005	112	91	24
0.217639998	-0.623290002	-1.31229997	112	91	24
0.217409998	-0.621569991	-1.31210005	112	91	24
0.217879996	-0.621110022	-1.31439996	112	91	24
0.220170006	-0.620869994	-1.31400001	112	91	24
0.219929993	-0.621749997	-1.3125	112	91	24
0.220170006	-0.623470008	-1.31270003	112	91	24
0.222690001	-0.623640001	-1.31309998	112	91	24
0.222929999	-0.622759998	-1.31459999	112	91	24
0.223159999	-0.621879995	-1.3161	112	91	24
0.223159999	-0.620599985	-1.31669998	112	91	24
0.223159999	-0.619310021	-1.31729996	112	91	24
0.222929999	-0.617540002	-1.31710005	112	91	24
0.220870003	-0.618189991	-1.31840003	112	91	24
0.220870003	-0.61954999	-1.31780005	112	91	24
0.220870003	-0.620829999	-1.31719995	112	91	24
0.218579993	-0.621070027	-1.31770003	112	91	24
0.218579993	-0.619780004	-1.31830001	112	91	24
0.218810007	-0.618839979	-1.31980002	112	91	24
0.219040006	-0.617879987	-1.32130003	112	91	24
0.219280005	-0.616980016	-1.32280004	112	91	24
0.219740003	-0.61650002	-1.32519996	112	91	24
0.219980001	-0.615549982	-1.32669997	112	91	24
0.219740003	-0.613780022	-1.32650006	112	91	24
0.217209995	-0.613610029	-1.32609999	112	91	24
0.217209995	-0.614970028	-1.32539999	112	91	24
0.217209995	-0.616320014	-1.32480001	112	91	24
0.214680001	-0.616140008	-1.32439995	112	91	24
0.214220002	-0.616620004	-1.32210004	112	91	24
0.214220002	-0.617929995	-1.32140005	112	91	24
0.214220002	-0.619310021	-1.32079995	112	91	24
0.213990003	-0.620249987	-1.31930006	112	91	24
0.213530004	-0.620710015	-1.31690001	112	91	24
0.21582	-0.620469987	-1.31640005	112	91	24
0.216049999	-0.619599998	-1.31789994	112	91	24
0.216509998	-0.619069993	-1.32029998	112	91	24
0.216509998	-0.617699981	-1.32099998	112	91	24
0.216509998	-0.61638999	-1.32159996	112	91	24
0.211689994	-0.616439998	-1.32169998	112	91	24
0.211919993	-0.615549982	-1.32319999	112	91	24
0.212149993	-0.614600003	-1.3247	112	91	24
0.209849998	-0.614830017	-1.32519996	112	91	24
0.210069999	-0.613879979	-1.32669997	112	91	24
0.207540005	-0.612370014	-1.32690001	112	91	24
0.205239996	-0.612590015	-1.32739997	112	91	24
0.204789996	-0.613099992	-1.32500005	112	91	24
0.204569995	-0.614049971	-1.32350004	112	91	24
0.204349995	-0.614989996	-1.32200003	112	91	24
0.204569995	-0.616699994	-1.32219994	112	91	24
0.204569995	-0.618009984	-1.32159996	112	91	24
0.206870005	-0.617789984	-1.3211	112	91	24
0.206870005	-0.616479993	-1.32179999	112	91	24
0.206870005	-0.615180016	-1.32239997	112	91	24
0.207090005	-0.614229977	-1.32389998	112	91	24
0.207090005	-0.612879992	-1.32449996	112	91	24
0.20939	-0.615360022	-1.32280004	112	91	24
0.20939	-0.616670012	-1.32219994	112	91	24
0.20939	-0.617980003	-1.32149994	112	91	24
0.208939999	-0.618520021	-1.31910002	112	91	24
0.20871	-0.619459987	-1.31760001	112	91	24
0.206420004	-0.619690001	-1.31809998	112	91	24
0.206640005	-0.618749976	-1.31959999	112	91	24
0.204349995	-0.620329976	-1.31949997	112	91	24
0.202270001	-0.620970011	-1.32079995	112	91	24
0.20183	-0.621420026	-1.31840003	112	91	24
0.199090004	-0.620809972	-1.31719995	112	91	24
0.199090004	-0.619530022	-1.31780005	112	91	24
0.198870003	-0.617760003	-1.3175	112	91	24
0.199090004	-0.61680001	-1.31900001	112	91	24
0.199090004	-0.615499973	-1.31959999	112	91	24
0.196799994	-0.61571002	-1.32009995	112	91	24
0.196799994	-0.614409983	-1.32070005	112	91	24
0.196799994	-0.617020011	-1.31949997	112	91	24
0.19472	-0.616339982	-1.32149994	112	91	24
0.194940001	-0.615450025	-1.32299995	112	91	24
0.197889999	-0.61510998	-1.32579994	112	91	24
0.195800006	-0.615740001	-1.32710004	112	91	24
0.193709999	-0.61500001	-1.32910001	112	91	24
0.193709999	-0.613669991	-1.32969999	112	91	24
0.196239993	-0.613870025	-1.33010006	112	91	24
0.196239993	-0.612540007	-1.33080006	112	91	24
0.198760003	-0.612730026	-1.3312	112	91	24
0.198540002	-0.613650024	-1.32969999	112	91	24
0.198760003	-0.615390003	-1.32990003	112	91	24
0.196449995	-0.615610003	-1.33039999	112	91	24
0.200849995	-0.614769995	-1.32860005	112	91	24
0.200849995	-0.613430023	-1.32920003	112	91	24
0.201069996	-0.612510026	-1.33070004	112	91	24
0.201069996	-0.611199975	-1.33130002	112	91	24
0.204040006	-0.612200022	-1.33350003	112	91	24
0.204040006	-0.613520026	-1.33290005	112	91	24
0.206359997	-0.613300025	-1.33239996	112	91	24
0.206129998	-0.611570001	-1.33210003	112	91	24
0.206359997	-0.610669971	-1.33360004	112	91	24
0.208890006	-0.610849977	-1.33399999	112	91	24
0.208220005	-0.610949993	-1.33080006	112	91	24
0.208440006	-0.612670004	-1.33099997	112	91	24
0.210529998	-0.612039983	-1.32969999	112	91	24
0.210529998	-0.610719979	-1.33029997	112	91	24
0.213060006	-0.612219989	-1.33010006	112	91	24
0.213290006	-0.611310005	-1.33159995	112	91	24
0.215829998	-0.612810016	-1.33130002	112	91	24
0.215369999	-0.613319993	-1.329	112	91	24
0.21514	-0.614239991	-1.32749999	112	91	24
0.21514	-0.61559999	-1.32679999	112	91	24
0.212830007	-0.614470005	-1.32799995	112	91	24
0.210749999	-0.613770008	-1.32990003	112	91	24
0.213520005	-0.614359975	-1.3312	112	91	24
0.216289997	-0.612299979	-1.33369994	112	91	24
0.218600005	-0.612070024	-1.33319998	112	91	24
0.218600005	-0.610759974	-1.33379996	112	91	24
0.218600005	-0.609409988	-1.33440006	112	91	24
0.216289997	-0.609640002	-1.33490002	112	91	24
0.216749996	-0.609089971	-1.33729994	112	91	24
0.219300002	-0.609269977	-1.33770001	112	91	24
0.221849993	-0.609440029	-1.33809996	112	91	24
0.224160001	-0.609210014	-1.33759999	112	91	24
0.223930001	-0.607450008	-1.33729994	112	91	24
0.226480007	-0.60898	-1.33710003	112	91	24
0.226720005	-0.608030021	-1.33860004	112	91	24
0.226950005	-0.607070029	-1.34010005	112	91	24
0.229509994	-0.607240021	-1.34039998	112	91	24
0.229269996	-0.60819	-1.33889997	112	91	24
0.229029998	-0.609149992	-1.33739996	112	91	24
0.228560001	-0.609690011	-1.33500004	112	91	24
0.228560001	-0.611039996	-1.33440006	112	91	24
0.228320003	-0.61194998	-1.33290005	112	91	24
0.225769997	-0.611779988	-1.3326	112	91	24
0.225529999	-0.610059977	-1.33229995	112	91	24
0.225769997	-0.609120011	-1.33379996	112	91	24
0.223460004	-0.609350026	-1.33430004	112	91	24
0.221149996	-0.60957998	-1.3348	112	91	24
0.221149996	-0.610930026	-1.33420002	112	91	24
0.221379995	-0.612649977	-1.33449996	112	91	24
0.223690003	-0.612420022	-1.33399999	112	91	24
0.223460004	-0.614660025	-1.3319	112	91	24
0.225529999	-0.61401999	-1.33050001	112	91	24
0.227840006	-0.613780022	-1.33000004	112	91	24
0.227599993	-0.614709973	-1.32850003	112	91	24
0.229670003	-0.612730026	-1.32770002	112	91	24
0.229670003	-0.611410022	-1.3283	112	91	24
0.227359995	-0.611639977	-1.32879996	112	91	24
0.224820003	-0.611469984	-1.32840002	112	91	24
0.222519994	-0.611710012	-1.329	112	91	24
0.220449999	-0.613680005	-1.32969999	112	91	24
0.220909998	-0.613160014	-1.33210003	112	91	24
0.218600005	-0.613390028	-1.3326	112	91	24
0.217669994	-0.613089979	-1.32850003	112	91	24
0.222519994	-0.614369988	-1.32770002	112	91	24
0.222279996	-0.615320027	-1.32620001	112	91	24
0.222049996	-0.616259992	-1.3247	112	91	24
0.222049996	-0.617569983	-1.32410002	112	91	24
0.224350005	-0.617330015	-1.32360005	112	91	24
0.224590003	-0.616439998	-1.32509995	112	91	24
0.224350005	-0.614669979	-1.32480001	112	91	24
0.22665	-0.614440024	-1.32430005	112	91	24
0.22665	-0.615790009	-1.32369995	112	91	24
0.22665	-0.6171	-1.32309997	112	91	24
0.226410002	-0.617999971	-1.32159996	112	91	24
0.223879993	-0.617820024	-1.32120001	112	91	24
0.221579999	-0.618059993	-1.32169998	112	91	24
0.225700006	-0.618130028	-1.31830001	112	91	24
0.227990001	-0.61789	-1.31780005	112	91	24
0.22823	-0.61966002	-1.31799996	112	91	24
0.228469998	-0.621360004	-1.31830001	112	91	24
0.230759993	-0.621110022	-1.31780005	112	91	24
0.230759993	-0.619830012	-1.31840003	112	91	24
0.231010005	-0.618889987	-1.31990004	112	91	24
0.231010005	-0.617510021	-1.32060003	112	91	24
0.231010005	-0.616209984	-1.32120001	112	91	24
0.228709996	-0.616450012	-1.32169998	112	91	24
0.228469998	-0.617349982	-1.32019997	112	91	24
0.233549997	-0.617680013	-1.32089996	112	91	24
0.233549997	-0.616370022	-1.32149994	112	91	24
0.236090004	-0.616540015	-1.32190001	112	91	24
0.236090004	-0.615230024	-1.32249999	112	91	24
0.236330003	-0.614289999	-1.324	112	91	24
0.234029993	-0.614530027	-1.32449996	112	91	24
0.234520003	-0.616699994	-1.32560003	112	91	24
0.231969997	-0.616540015	-1.32529998	112	91	24
0.231969997	-0.615180016	-1.32589996	112	91	24
0.231969997	-0.613820016	-1.32659996	112	91	24
0.231729999	-0.612089992	-1.32630002	112	91	24
0.232219994	-0.611570001	-1.32869995	112	91	24
0.230149999	-0.610899985	-1.33070004	112	91	24
0.232940003	-0.611469984	-1.3319	112	91	24
0.235249996	-0.61255002	-1.33080006	112	91	24
0.235009998	-0.613470018	-1.32930005	112	91	24
0.234520003	-0.613990009	-1.32690001	112	91	24
0.237310007	-0.614560008	-1.32809997	112	91	24
0.23962	-0.614310026	-1.3276	112	91	24
0.240109995	-0.613789976	-1.33000004	112	91	24
0.237800002	-0.614040017	-1.33050001	112	91	24
0.237800002	-0.612709999	-1.33109999	112	91	24
0.238289997	-0.612200022	-1.33350003	112	91	24
0.238539994	-0.611289978	-1.33500004	112	91	24
0.238289997	-0.609539986	-1.33469999	112	91	24
0.238289997	-0.60819	-1.33529997	112	91	24
0.240850002	-0.608349979	-1.33570004	112	91	24
0.240610003	-0.609300017	-1.33420002	112	91	24
0.240610003	-0.611959994	-1.33299994	112	91	24
0.240610003	-0.613269985	-1.33239996	112	91	24
0.242919996	-0.611710012	-1.33239996	112	91	24
0.245230004	-0.61145997	-1.3319	112	91	24
0.245729998	-0.610960007	-1.33420002	112	91	24
0.248040006	-0.610710025	-1.33369994	112	91	24
0.248040006	-0.612020016	-1.33309996	112	91	24
0.247539997	-0.612529993	-1.33070004	112	91	24
0.250099987	-0.612680018	-1.33109999	112	91	24
0.249589995	-0.613200009	-1.32869995	112	91	24
0.249850005	-0.614939988	-1.329	112	91	24
0.249589995	-0.615890026	-1.32739997	112	91	24
0.249339998	-0.616840005	-1.32589996	112	91	24
0.251639992	-0.616590023	-1.32539999	112	91	24
0.251899987	-0.615639985	-1.32690001	112	91	24
0.251899987	-0.614279985	-1.32749999	112	91	24
0.254200011	-0.61401999	-1.32700002	112	91	24
0.254200011	-0.615379989	-1.32630002	112	91	24
0.25395	-0.616330028	-1.32480001	112	91	24
0.253690004	-0.617229998	-1.32340002	112	91	24
0.253690004	-0.618539989	-1.32270002	112	91	24
0.253430009	-0.619499981	-1.32120001	112	91	24
0.255730003	-0.619239986	-1.32070005	112	91	24
0.255730003	-0.617869973	-1.32130003	112	91	24
0.255989999	-0.616970003	-1.32280004	112	91	24
0.256249994	-0.616069973	-1.32430005	112	91	24
0.25650999	-0.615119994	-1.32579994	112	91	24
0.257019997	-0.614570022	-1.32819998	112	91	24
0.259330004	-0.615670025	-1.32700002	112	91	24
0.259849995	-0.615119994	-1.32939994	112	91	24
0.260109991	-0.614199996	-1.33089995	112	91	24
0.260369986	-0.613269985	-1.33229995	112	91	24
0.260109991	-0.611549973	-1.33210003	112	91	24
0.257800013	-0.611810029	-1.3326	112	91	24
0.257800013	-0.613120019	-1.33200002	112	91	24
0.257800013	-0.614459991	-1.33140004	112	91	24
0.254970014	-0.613900006	-1.33019996	112	91	24
0.254970014	-0.612569988	-1.33080006	112	91	24
0.252409995	-0.613759995	-1.32990003	112	91	24
0.253430009	-0.614040017	-1.33399999	112	91	24
0.253690004	-0.613129973	-1.3355	112	91	24
0.253690004	-0.611810029	-1.33609998	112	91	24
0.253430009	-0.610059977	-1.33589995	112	91	24
0.253690004	-0.609109998	-1.33729994	112	91	24
0.256000012	-0.608850002	-1.33679998	112	91	24
0.256000012	-0.610210001	-1.3362	112	91	24
0.256000012	-0.611559987	-1.33560002	112	91	24
0.25575	-0.612469971	-1.33410001	112	91	24
0.258060008	-0.610899985	-1.33410001	112	91	24
0.258320004	-0.609950006	-1.33560002	112	91	24
0.258320004	-0.60860002	-1.3362	112	91	24
0.258579999	-0.607640028	-1.33770001	112	91	24
0.260890007	-0.607389987	-1.33720005	112	91	24
0.260630012	-0.608340025	-1.33570004	112	91	24
0.260890007	-0.610090017	-1.33589995	112	91	24
0.263209999	-0.609830022	-1.33539999	112	91	24
0.262950003	-0.608080029	-1.33510005	112	91	24
0.263469994	-0.607529998	-1.33749998	112	91	24
0.263990015	-0.606970012	-1.3398	112	91	24
0.261409998	-0.606830001	-1.33949995	112	91	24
0.259090006	-0.607089996	-1.34010005	112	91	24
0.259350002	-0.606140018	-1.34159994	112	91	24
0.256770015	-0.606000006	-1.34130001	112	91	24
0.25703001	-0.607739985	-1.34150004	112	91	24
0.257550001	-0.609899998	-1.3427	112	91	24
0.254449993	-0.608950019	-1.34060001	112	91	24
0.254449993	-0.60759002	-1.34119999	112	91	24
0.254709989	-0.606649995	-1.3427	112	91	24
0.254960001	-0.60571003	-1.34420002	112	91	24
0.254960001	-0.604359984	-1.3448	112	91	24
0.252640009	-0.604610026	-1.34539998	112	91	24
0.252640009	-0.605960011	-1.3448	112	91	24
0.252380013	-0.606899977	-1.34329998	112	91	24
0.252380013	-0.608250022	-1.3427	112	91	24
0.252130002	-0.609210014	-1.34119999	112	91	24
0.25187999	-0.610159993	-1.33969998	112	91	24
0.249300003	-0.610010028	-1.33930004	112	91	24
0.248799995	-0.607860029	-1.33819997	112	91	24
0.246230006	-0.609059989	-1.33720005	112	91	24
0.246230006	-0.610409975	-1.33659995	112	91	24
0.248549998	-0.610159993	-1.33609998	112	91	24
0.251120001	-0.610310018	-1.33640003	112	91	24
0.251120001	-0.611660004	-1.33580005	112	91	24
0.250860006	-0.612580001	-1.33430004	112	91	24
0.247539997	-0.615190029	-1.32949996	112	91	24
0.247789994	-0.616959989	-1.32980001	112	91	24
0.247030005	-0.6171	-1.32650006	112	91	24
0.246529996	-0.61759001	-1.32410002	112	91	24
0.244479999	-0.618250012	-1.32550001	112	91	24
0.244479999	-0.616940022	-1.32620001	112	91	24
0.244479999	-0.615580022	-1.32679999	112	91	24
0.244729996	-0.614629984	-1.3283	112	91	24
0.244230002	-0.612489998	-1.32720006	112	91	24
0.244479999	-0.611559987	-1.32860005	112	91	24
0.242170006	-0.611810029	-1.32920003	112	91	24
0.241679996	-0.612330019	-1.32679999	112	91	24
0.241679996	-0.613659978	-1.32620001	112	91	24
0.241679996	-0.615019977	-1.32560003	112	91	24
0.242170006	-0.617190003	-1.32669997	112	91	24
0.241679996	-0.617680013	-1.32430005	112	91	24
0.239869997	-0.618749976	-1.32659996	112	91	24
0.238879994	-0.615800023	-1.32369995	112	91	24
0.238879994	-0.614449978	-1.32430005	112	91	24
0.23838	-0.617600024	-1.32070005	112	91	24
0.23838	-0.618969977	-1.32009995	112	91	24
0.238629997	-0.620739996	-1.32029998	112	91	24
0.240930006	-0.620490015	-1.31980002	112	91	24
0.240679994	-0.621360004	-1.31830001	112	91	24
0.242980003	-0.621110022	-1.31780005	112	91	24
0.242730007	-0.619409978	-1.3175	112	91	24
0.242219999	-0.617240012	-1.31640005	112	91	24
0.244770005	-0.617399991	-1.31669998	112	91	24
0.245269999	-0.619570017	-1.31789994	112	91	24
0.245269999	-0.620859981	-1.31719995	112	91	24
0.245020002	-0.62173003	-1.31579995	112	91	24
0.247309998	-0.621479988	-1.31519997	112	91	24
0.247060001	-0.622359991	-1.31369996	112	91	24
0.246800005	-0.623239994	-1.31219995	112	91	24
0.246549994	-0.624119997	-1.31079996	112	91	24
0.246289998	-0.625	-1.30929995	112	91	24
0.245790005	-0.625450015	-1.30690002	112	91	24
0.246040002	-0.627170026	-1.30719995	112	91	24
0.246040002	-0.628560007	-1.30649996	112	91	24
0.248319998	-0.628300011	-1.30589998	112	91	24
0.248070002	-0.626489997	-1.30569994	112	91	24
0.248070002	-0.62519002	-1.30639994	112	91	24
0.248319998	-0.624319971	-1.30789995	112	91	24
0.25060001	-0.624059975	-1.30729997	112	91	24
0.250090003	-0.62450999	-1.30490005	112	91	24
0.250090003	-0.625810027	-1.30429995	112	91	24
0.250349998	-0.627619982	-1.30449998	112	91	24
0.252620012	-0.627359986	-1.30400002	112	91	24
0.252620012	-0.625970006	-1.3046	112	91	24
0.252880007	-0.625090003	-1.30610001	112	91	24
0.255160004	-0.624819994	-1.30560005	112	91	24
0.254900008	-0.625699997	-1.30410004	112	91	24
0.255419999	-0.627929986	-1.30519998	112	91	24
0.255160004	-0.62887001	-1.30359995	112	91	24
0.252880007	-0.629140019	-1.30420005	112	91	24
0.249829993	-0.628139973	-1.30209994	112	91	24
0.247559994	-0.628400028	-1.30270004	112	91	24
0.245279998	-0.628660023	-1.30320001	112	91	24
0.242750004	-0.628499985	-1.30289996	112	91	24
0.243249997	-0.627979994	-1.3053	112	91	24
0.243249997	-0.626590014	-1.30589998	112	91	24
0.243249997	-0.625289977	-1.30659997	112	91	24
0.243509993	-0.624419987	-1.30809999	112	91	24
0.243760005	-0.623539984	-1.30949998	112	91	24
0.244010001	-0.622669995	-1.31099999	112	91	24
0.244259998	-0.621789992	-1.3125	112	91	24
0.241720006	-0.621630013	-1.31219995	112	91	24
0.241720006	-0.622919977	-1.31159997	112	91	24
0.241219997	-0.623380005	-1.30920005	112	91	24
0.240970001	-0.624260008	-1.30770004	112	91	24
0.240970001	-0.625549972	-1.30710006	112	91	24
0.240720004	-0.626429975	-1.30560005	112	91	24
0.240470007	-0.627399981	-1.30410004	112	91	24
0.240219995	-0.628340006	-1.30250001	112	91	24
0.237949997	-0.627229989	-1.30369997	112	91	24
0.238189995	-0.626259983	-1.3053	112	91	24
0.238440007	-0.62537998	-1.30680001	112	91	24
0.238690004	-0.62450999	-1.30830002	112	91	24
0.238690004	-0.623220026	-1.3089	112	91	24
0.236410007	-0.623470008	-1.30939996	112	91	24
0.236159995	-0.624339998	-1.30789995	112	91	24
0.236410007	-0.626049995	-1.3082	112	91	24
0.233879998	-0.62458998	-1.30840003	112	91	24
0.233630002	-0.622889996	-1.3082	112	91	24
0.231350005	-0.623130023	-1.30869997	112	91	24
0.231350005	-0.62184	-1.30929995	112	91	24
0.23184	-0.621379972	-1.31169999	112	91	24
0.229550004	-0.621619999	-1.31219995	112	91	24
0.227029994	-0.621450007	-1.3118	112	91	24
0.227270007	-0.620570004	-1.31330001	112	91	24
0.225219995	-0.621230006	-1.31470001	112	91	24
0.225219995	-0.62252003	-1.31410003	112	91	24
0.224739999	-0.622990012	-1.31169999	112	91	24
0.22631	-0.621500015	-1.30859995	112	91	24
0.226070002	-0.622370005	-1.30710006	112	91	24
0.223790005	-0.622609973	-1.30760002	112	91	24
0.224030003	-0.624319971	-1.30789995	112	91	24
0.221740007	-0.624559999	-1.30840003	112	91	24
0.221740007	-0.625850022	-1.30770004	112	91	24
0.221509993	-0.626730025	-1.30620003	112	91	24
0.223550007	-0.626070023	-1.30490005	112	91	24
0.223309994	-0.627040029	-1.30330002	112	91	24
0.221029997	-0.627279997	-1.30379999	112	91	24
0.221269995	-0.62905997	-1.30400002	112	91	24
0.218759999	-0.628880024	-1.30369997	112	91	24
0.218520001	-0.627099991	-1.30340004	112	91	24
0.218989998	-0.626550019	-1.30589998	112	91	24
0.219229996	-0.625670016	-1.30739999	112	91	24
0.218759999	-0.623539984	-1.30620003	112	91	24
0.216480002	-0.623780012	-1.30669999	112	91	24
0.216480002	-0.625069976	-1.30610001	112	91	24
0.216940001	-0.627210021	-1.30719995	112	91	24
0.216710001	-0.628180027	-1.30569994	112	91	24
0.216710001	-0.629540026	-1.30499995	112	91	24
0.223790005	-0.629239976	-1.30439997	112	91	24
0.225830004	-0.628579974	-1.30299997	112	91	24
0.226070002	-0.627640009	-1.3046	112	91	24
0.22631	-0.626670003	-1.30610001	112	91	24
0.226549998	-0.62579	-1.30760002	112	91	24
0.226549998	-0.624499977	-1.3082	112	91	24
0.228829995	-0.624249995	-1.30770004	112	91	24
0.228589997	-0.622539997	-1.3075	112	91	24
0.228829995	-0.621670008	-1.3089	112	91	24
0.231110007	-0.624010026	-1.30719995	112	91	24
0.231110007	-0.62529999	-1.30659997	112	91	24
0.230619997	-0.625760019	-1.30420005	112	91	24
0.230379999	-0.626720011	-1.30270004	112	91	24
0.232649997	-0.626479983	-1.30219996	112	91	24
0.232899994	-0.625509977	-1.30369997	112	91	24
0.235170007	-0.626649976	-1.30250001	112	91	24
0.234679997	-0.627160013	-1.30009997	112	91	24
0.236949995	-0.626909971	-1.29960001	112	91	24
0.232409999	-0.627409995	-1.30060005	112	91	24
0.229890004	-0.627240002	-1.3003	112	91	24
0.228100002	-0.626969993	-1.30320001	112	91	24
0.228100002	-0.625580013	-1.30379999	112	91	24
0.22834	-0.628750026	-1.30340004	112	91	24
0.229069993	-0.625959992	-1.30799997	112	91	24
0.233630002	-0.625469983	-1.30690002	112	91	24
0.23567	-0.626100004	-1.30490005	112	91	24
0.234119996	-0.622430027	-1.31050003	112	91	24
0.234119996	-0.62112999	-1.31110001	112	91	24
0.236410007	-0.620880008	-1.31060004	112	91	24
0.236660004	-0.622590005	-1.31089997	112	91	24
0.239189997	-0.622759998	-1.31120002	112	91	24
0.238940001	-0.62105	-1.31099999	112	91	24
0.239439994	-0.620580018	-1.31330001	112	91	24
0.237149999	-0.620829999	-1.31389999	112	91	24
0.235349998	-0.621909976	-1.3161	112	91	24
0.235349998	-0.620620012	-1.31669998	112	91	24
0.233060002	-0.620869994	-1.31729996	112	91	24
0.2333	-0.622569978	-1.3175	112	91	24
0.230759993	-0.622399986	-1.31719995	112	91	24
0.2333	-0.620000005	-1.31879997	112	91	24
0.233549997	-0.619050026	-1.32029998	112	91	24
0.235839993	-0.617439985	-1.3204	112	91	24
0.236330003	-0.619629979	-1.32149994	112	91	24
0.236090004	-0.620570004	-1.32000005	112	91	24
0.237890005	-0.620790005	-1.31710005	112	91	24
0.240429997	-0.618309975	-1.31869996	112	91	24
0.240429997	-0.616940022	-1.31930006	112	91	24
0.242980003	-0.6171	-1.3197	112	91	24
0.245519996	-0.617259979	-1.32000005	112	91	24
0.248319998	-0.619199991	-1.32060003	112	91	24
0.247820005	-0.619729996	-1.31819999	112	91	24
0.247820005	-0.621010005	-1.31760001	112	91	24
0.25011	-0.61947	-1.31760001	112	91	24
0.250620008	-0.621580005	-1.31879997	112	91	24
0.252660006	-0.620909989	-1.31739998	112	91	24
0.252660006	-0.619620025	-1.31799996	112	91	24
0.255210012	-0.61976999	-1.31830001	112	91	24
0.254949987	-0.620649993	-1.3168	112	91	24
0.257250011	-0.620389998	-1.31620002	112	91	24
0.256720006	-0.620850027	-1.31389999	112	91	24
0.256720006	-0.62213999	-1.31330001	112	91	24
0.259009987	-0.621879995	-1.31270003	112	91	24
0.259270012	-0.620999992	-1.31420004	112	91	24
0.261559993	-0.620729983	-1.31359994	112	91	24
0.261559993	-0.622020006	-1.31299996	112	91	24
0.263850003	-0.621760011	-1.3125	112	91	24
0.263850003	-0.620459974	-1.31309998	112	91	24
0.264120013	-0.619589984	-1.31459999	112	91	24
0.266140014	-0.620190024	-1.3125	112	91	24
0.265870005	-0.621070027	-1.31099999	112	91	24
0.263319999	-0.62221998	-1.31009996	112	91	24
0.263579994	-0.623929977	-1.31040001	112	91	24
0.261040002	-0.623790026	-1.31009996	112	91	24
0.261040002	-0.625079989	-1.30939996	112	91	24
0.260769993	-0.625949979	-1.30799997	112	91	24
0.260509998	-0.626839995	-1.30649996	112	91	24
0.259979993	-0.627390027	-1.30410004	112	91	24
0.257699996	-0.627659976	-1.3046	112	91	24
0.257699996	-0.629019976	-1.30400002	112	91	24
0.260509998	-0.629589975	-1.30509996	112	91	24
0.26304999	-0.62974	-1.30540001	112	91	24
0.26534	-0.629459977	-1.30490005	112	91	24
0.267349988	-0.628769994	-1.30340004	112	91	24
0.269620001	-0.628489971	-1.30289996	112	91	24
0.269620001	-0.627129972	-1.30350006	112	91	24
0.269620001	-0.625739992	-1.30420005	112	91	24
0.267349988	-0.626020014	-1.30480003	112	91	24
0.267080009	-0.624310017	-1.30449998	112	91	24
0.265069991	-0.624989986	-1.30599999	112	91	24
0.264800012	-0.625880003	-1.30449998	112	91	24
0.26225999	-0.627120018	-1.30350006	112	91	24
0.263999999	-0.626010001	-1.30120003	112	91	24
0.266539991	-0.626160026	-1.30149996	112	91	24
0.271899998	-0.628210008	-1.30229998	112	91	24
0.272439986	-0.627690017	-1.30470002	112	91	24
0.272439986	-0.626299977	-1.3053	112	91	24
0.272720009	-0.62541002	-1.30680001	112	91	24
0.270440012	-0.625689983	-1.30739999	112	91	24
0.27098	-0.625230014	-1.30980003	112	91	24
0.273259997	-0.624949992	-1.30920005	112	91	24
0.273259997	-0.623660028	-1.30980003	112	91	24
0.273530006	-0.622780025	-1.31130004	112	91	24
0.274080008	-0.622309983	-1.31359994	112	91	24
0.271789998	-0.622590005	-1.31420004	112	91	24
0.271519989	-0.623470008	-1.31270003	112	91	24
0.268959999	-0.623329997	-1.31239998	112	91	24
0.26868999	-0.621630013	-1.31219995	112	91	24
0.26868999	-0.620329976	-1.31280005	112	91	24
0.269230008	-0.619870007	-1.31509995	112	91	24
0.266939998	-0.620140016	-1.31570005	112	91	24
0.265439987	-0.620350003	-1.31949997	112	91	24
0.265709996	-0.619409978	-1.32099998	112	91	24
0.265439987	-0.617630005	-1.32079995	112	91	24
0.265439987	-0.616320014	-1.32140005	112	91	24
0.267740011	-0.616050005	-1.32079995	112	91	24
0.26800999	-0.617770016	-1.3211	112	91	24
0.26800999	-0.619140029	-1.32050002	112	91	24
0.26800999	-0.620490015	-1.31980002	112	91	24
0.270300001	-0.620220006	-1.31920004	112	91	24
0.27057001	-0.619279981	-1.32070005	112	91	24
0.270300001	-0.617500007	-1.32050002	112	91	24
0.27057001	-0.616599977	-1.32200003	112	91	24
0.27057001	-0.615289986	-1.32260001	112	91	24
0.271109998	-0.614750028	-1.32500005	112	91	24
0.271109998	-0.613390028	-1.32560003	112	91	24
0.268810004	-0.613659978	-1.32620001	112	91	24
0.268810004	-0.612330019	-1.32679999	112	91	24
0.266770005	-0.612999976	-1.3283	112	91	24
0.26651001	-0.613929987	-1.32679999	112	91	24
0.26651001	-0.615289986	-1.32609999	112	91	24
0.266240001	-0.616240025	-1.32459998	112	91	24
0.263940006	-0.61650002	-1.32519996	112	91	24
0.261629999	-0.616770029	-1.32579994	112	91	24
0.261900008	-0.615819991	-1.32729995	112	91	24
0.262160003	-0.614859998	-1.32879996	112	91	24
0.262679994	-0.614340007	-1.3312	112	91	24
0.262950003	-0.613409996	-1.33270001	112	91	24
0.264990002	-0.61273998	-1.3312	112	91	24
0.264730006	-0.613669991	-1.32969999	112	91	24
0.264200002	-0.614189982	-1.32729995	112	91	24
0.264470011	-0.615960002	-1.3276	112	91	24
0.268810004	-0.615019977	-1.32560003	112	91	24
0.26800999	-0.615149975	-1.32229996	112	91	24
0.273140013	-0.616729975	-1.32229996	112	91	24
0.273140013	-0.618040025	-1.32169998	112	91	24
0.275169998	-0.616050005	-1.32079995	112	91	24
0.274619997	-0.616540015	-1.31850004	112	91	24
0.274619997	-0.617910028	-1.31780005	112	91	24
0.274890006	-0.619669974	-1.31809998	112	91	24
0.274619997	-0.620549977	-1.31659997	112	91	24
0.272599995	-0.62124002	-1.31809998	112	91	24
0.272599995	-0.619949996	-1.31869996	112	91	24
0.272329986	-0.618189991	-1.31840003	112	91	24
0.272870004	-0.622940004	-1.31830001	112	91	24
0.275709987	-0.623480022	-1.31949997	112	91	24
0.277740002	-0.622789979	-1.31799996	112	91	24
0.277460009	-0.621089995	-1.31770003	112	91	24
0.27719	-0.619400024	-1.3175	112	91	24
0.277460009	-0.618449986	-1.31900001	112	91	24
0.277460009	-0.617079973	-1.31959999	112	91	24
0.279760003	-0.616810024	-1.31900001	112	91	24
0.278010011	-0.616590023	-1.32200003	112	91	24
0.275979996	-0.615960002	-1.32410002	112	91	24
0.276259989	-0.615019977	-1.32560003	112	91	24
0.278829992	-0.615149975	-1.32579994	112	91	24
0.278829992	-0.61650002	-1.32519996	112	91	24
0.281129986	-0.617529988	-1.324	112	91	24
0.281690001	-0.617030025	-1.32640004	112	91	24
0.281410009	-0.615270019	-1.32609999	112	91	24
0.281690001	-0.61431998	-1.3276	112	91	24
0.281690001	-0.612980008	-1.32819998	112	91	24
0.281960011	-0.61206001	-1.32969999	112	91	24
0.282510012	-0.611549973	-1.33210003	112	91	24
0.285100013	-0.611670017	-1.33229995	112	91	24
0.28481999	-0.612580001	-1.33089995	112	91	24
0.287129998	-0.612309992	-1.33029997	112	91	24
0.286850005	-0.61322999	-1.32879996	112	91	24
0.286850005	-0.614560008	-1.32819998	112	91	24
0.289160013	-0.614279985	-1.32749999	112	91	24
0.289160013	-0.612950027	-1.32819998	112	91	24
0.291460007	-0.612670004	-1.32749999	112	91	24
0.291180015	-0.613590002	-1.32609999	112	91	24
0.293760002	-0.613709986	-1.32630002	112	91	24
0.294050008	-0.612779975	-1.32780004	112	91	24
0.294620007	-0.612259984	-1.33010006	112	91	24
0.2949	-0.611339986	-1.33159995	112	91	24
0.292589992	-0.611630023	-1.33220005	112	91	24
0.292309999	-0.612540007	-1.33080006	112	91	24
0.289719999	-0.612429976	-1.33050001	112	91	24
0.290280014	-0.611909986	-1.33290005	112	91	24
0.287970006	-0.612190008	-1.33350003	112	91	24
0.288520008	-0.611679971	-1.33580005	112	91	24
0.288800001	-0.610729992	-1.33729994	112	91	24
0.288520008	-0.608969986	-1.33710003	112	91	24
0.286210001	-0.609250009	-1.33770001	112	91	24
0.286760002	-0.608690023	-1.34000003	112	91	24
0.286760002	-0.607339978	-1.34060001	112	91	24
0.289079994	-0.607060015	-1.34000003	112	91	24
0.289359987	-0.608810008	-1.34029996	112	91	24
0.291680008	-0.608529985	-1.33969998	112	91	24
0.291680008	-0.607169986	-1.34029996	112	91	24
0.294279993	-0.60729003	-1.3405	112	91	24
0.294569999	-0.609040022	-1.34080005	112	91	24
0.296600014	-0.608359993	-1.33930004	112	91	24
0.296039999	-0.608919978	-1.3369	112	91	24
0.295749992	-0.609879971	-1.3355	112	91	24
0.295749992	-0.611230016	-1.3348	112	91	24
0.298070014	-0.61093998	-1.33420002	112	91	24
0.298070014	-0.609589994	-1.3348	112	91	24
0.300379992	-0.609309971	-1.33420002	112	91	24
0.300379992	-0.610650003	-1.33360004	112	91	24
0.300089985	-0.611570001	-1.33210003	112	91	24
0.300089985	-0.612890005	-1.33150005	112	91	24
0.300089985	-0.614220023	-1.33089995	112	91	24
0.300379992	-0.615949988	-1.3312	112	91	24
0.302399993	-0.615260005	-1.32969999	112	91	24
0.302399993	-0.613919973	-1.33029997	112	91	24
0.302399993	-0.612590015	-1.33089995	112	91	24
0.302399993	-0.611280024	-1.33150005	112	91	24
0.302689999	-0.610360026	-1.33299994	112	91	24
0.305000007	-0.61006999	-1.33229995	112	91	24
0.304710001	-0.610989988	-1.33080006	112	91	24
0.304710001	-0.612299979	-1.33019996	112	91	24
0.304710001	-0.613629997	-1.32959998	112	91	24
0.304710001	-0.614960015	-1.329	112	91	24
0.304419994	-0.615920007	-1.32749999	112	91	24
0.306719989	-0.615629971	-1.32690001	112	91	24
0.307020009	-0.614669979	-1.32840002	112	91	24
0.307020009	-0.61334002	-1.329	112	91	24
0.307020009	-0.612010002	-1.32959998	112	91	24
0.307020009	-0.610689998	-1.33019996	112	91	24
0.307309985	-0.609780014	-1.33169997	112	91	24
0.309619993	-0.609489977	-1.33099997	112	91	24
0.31020999	-0.611599982	-1.33220005	112	91	24
0.310499996	-0.613309979	-1.33239996	112	91	24
0.313109994	-0.612100005	-1.33329999	112	91	24
0.313699991	-0.61421001	-1.33440006	112	91	24
0.315719992	-0.612190008	-1.33350003	112	91	24
0.315719992	-0.610880017	-1.33410001	112	91	24
0.315420002	-0.609130025	-1.33379996	112	91	24
0.312810004	-0.609040022	-1.33360004	112	91	24
0.312519997	-0.609979987	-1.33210003	112	91	24
0.310790002	-0.609730005	-1.33510005	112	91	24
0.311379999	-0.60917002	-1.33749998	112	91	24
0.311679989	-0.608210027	-1.33899999	112	91	24
0.309359998	-0.608500004	-1.33959997	112	91	24
0.309359998	-0.609860003	-1.33899999	112	91	24
0.308770001	-0.610419989	-1.33659995	112	91	24
0.306739986	-0.609759986	-1.33879995	112	91	24
0.307330012	-0.609189987	-1.34109998	112	91	24
0.307040006	-0.607439995	-1.34089994	112	91	24
0.304710001	-0.607729971	-1.34150004	112	91	24
0.305000007	-0.609480023	-1.34179997	112	91	24
0.302390009	-0.608020008	-1.34220004	112	91	24
0.300069988	-0.608299971	-1.34280002	112	91	24
0.300069988	-0.606959999	-1.3434	112	91	24
0.297740012	-0.607249975	-1.34399998	112	91	24
0.297740012	-0.608590007	-1.3434	112	91	24
0.295130014	-0.607129991	-1.34379995	112	91	24
0.292519987	-0.60702002	-1.34350002	112	91	24
0.293089986	-0.606459975	-1.34590006	112	91	24
0.293089986	-0.605120003	-1.34650004	112	91	24
0.295410007	-0.604839981	-1.34590006	112	91	24
0.295700014	-0.603879988	-1.34730005	112	91	24
0.295980006	-0.602930009	-1.34879994	112	91	24
0.295700014	-0.601189971	-1.34850001	112	91	24
0.298020005	-0.600910008	-1.34790003	112	91	24
0.298590004	-0.60303998	-1.34909999	112	91	24
0.298310012	-0.603999972	-1.34759998	112	91	24
0.298020005	-0.604950011	-1.34609997	112	91	24
0.298310012	-0.60668999	-1.34640002	112	91	24
0.300639987	-0.606410027	-1.34580004	112	91	24
0.30035001	-0.604669988	-1.34549999	112	91	24
0.30035001	-0.603320003	-1.34609997	112	91	24
0.30092001	-0.602760017	-1.3484	112	91	24
0.30092001	-0.601409972	-1.34899998	112	91	24
0.301209986	-0.600449979	-1.35049999	112	91	24
0.298590004	-0.600340009	-1.35029995	112	91	24
0.296259999	-0.600619972	-1.35090005	112	91	24
0.293929994	-0.600899994	-1.35150003	112	91	24
0.294209987	-0.599940002	-1.35300004	112	91	24
0.291869998	-0.600210011	-1.35360003	112	91	24
0.291869998	-0.598890007	-1.35420001	112	91	24
0.289539993	-0.599170029	-1.35479999	112	91	24
0.288980007	-0.599709988	-1.35249996	112	91	24
0.28926	-0.601450026	-1.35280001	112	91	24
0.289539993	-0.603190005	-1.35300004	112	91	24
0.28926	-0.604149997	-1.35160005	112	91	24
0.288980007	-0.60510999	-1.35010004	112	91	24
0.288700014	-0.606069982	-1.34860003	112	91	24
0.291040003	-0.605790019	-1.34800005	112	91	24
0.291310012	-0.604830027	-1.34949994	112	91	24
0.291590005	-0.603879988	-1.35090005	112	91	24
0.293929994	-0.603600025	-1.35029995	112	91	24
0.293929994	-0.604950011	-1.34969997	112	91	24
0.29449001	-0.603030026	-1.3527	112	91	24
0.292149991	-0.603309989	-1.35329998	112	91	24
0.291869998	-0.60157001	-1.35300004	112	91	24
0.295049995	-0.599780023	-1.35619998	112	91	24
0.295049995	-0.598460019	-1.35679996	112	91	24
0.295610011	-0.597859979	-1.3592	112	91	24
0.295329988	-0.596099973	-1.35889995	112	91	24
0.29795	-0.596210003	-1.35909998	112	91	24
0.29795	-0.597590029	-1.3585	112	91	24
0.297670007	-0.598569989	-1.35710001	112	91	24
0.297670007	-0.599889994	-1.35650003	112	91	24
0.297109991	-0.600440025	-1.35409999	112	91	24
0.299439996	-0.600160003	-1.35350001	112	91	24
0.302069992	-0.600260019	-1.35370004	112	91	24
0.302350014	-0.599330008	-1.35520005	112	91	24
0.302920014	-0.598779976	-1.35749996	112	91	24
0.302639991	-0.597029984	-1.35730004	112	91	24
0.302920014	-0.59604001	-1.35880005	112	91	24
0.30320999	-0.595120013	-1.36020005	112	91	24
0.30320999	-0.593829989	-1.36080003	112	91	24
0.301149994	-0.594489992	-1.36230004	112	91	24
0.300859988	-0.595399976	-1.36080003	112	91	24
0.300300002	-0.59592998	-1.3585	112	91	24
0.300009996	-0.596920013	-1.35699999	112	91	24
0.300579995	-0.599070013	-1.35819995	112	91	24
0.300579995	-0.600390017	-1.35759997	112	91	24
0.305260003	-0.599820018	-1.3563	112	91	24
0.305260003	-0.598500013	-1.35689998	112	91	24
0.30498001	-0.596750021	-1.35660005	112	91	24
0.305550009	-0.596140027	-1.35899997	112	91	24
0.305550009	-0.59483999	-1.35959995	112	91	24
0.306129992	-0.594309986	-1.36189997	112	91	24
0.308470011	-0.59533	-1.36070001	112	91	24
0.308180004	-0.596239984	-1.3592	112	91	24
0.308470011	-0.598010004	-1.35950005	112	91	24
0.308180004	-0.598990023	-1.35800004	112	91	24
0.307889998	-0.599929988	-1.35660005	112	91	24
0.310229987	-0.599640012	-1.35590005	112	91	24
0.30994001	-0.600570023	-1.35440004	112	91	24
0.30994001	-0.601930022	-1.35380006	112	91	24
0.309359998	-0.602500021	-1.35150003	112	91	24
0.309359998	-0.603850007	-1.35090005	112	91	24
0.309359998	-0.605199993	-1.35029995	112	91	24
0.311690003	-0.604910016	-1.34959996	112	91	24
0.314029992	-0.60461998	-1.34899998	112	91	24
0.314619988	-0.604049981	-1.3513	112	91	24
0.314619988	-0.602699995	-1.35189998	112	91	24
0.314619988	-0.601350009	-1.35249996	112	91	24
0.314319998	-0.599609971	-1.35230005	112	91	24
0.311989993	-0.599900007	-1.35290003	112	91	24
0.311989993	-0.601249993	-1.35230005	112	91	24
0.312279999	-0.602989972	-1.35259998	112	91	24
0.312279999	-0.604340017	-1.352	112	91	24
0.316949993	-0.603760004	-1.35070002	112	91	24
0.316949993	-0.602410018	-1.3513	112	91	24
0.316650003	-0.60066998	-1.35099995	112	91	24
0.316650003	-0.599319994	-1.35160005	112	91	24
0.319279999	-0.599409997	-1.35179996	112	91	24
0.319279999	-0.600759983	-1.35119998	112	91	24
0.321920007	-0.600849986	-1.35140002	112	91	24
0.321619987	-0.599110007	-1.35109997	112	91	24
0.324550003	-0.600939989	-1.35160005	112	91	24
0.325150013	-0.600359976	-1.35399997	112	91	24
0.327490002	-0.600059986	-1.35329998	112	91	24
0.327179998	-0.601029992	-1.35179996	112	91	24
0.329519987	-0.600730002	-1.35109997	112	91	24
0.330130011	-0.60285002	-1.35230005	112	91	24
0.332459986	-0.60255003	-1.35160005	112	91	24
0.332459986	-0.603900015	-1.35099995	112	91	24
0.334800005	-0.603590012	-1.35029995	112	91	24
0.335099995	-0.602630019	-1.35179996	112	91	24
0.337440014	-0.603670001	-1.35049999	112	91	24
0.33713001	-0.604629993	-1.34899998	112	91	24
0.339459985	-0.605669975	-1.3477	112	91	24
0.342099994	-0.605750024	-1.34790003	112	91	24
0.341479987	-0.60631001	-1.34549999	112	91	24
0.340849996	-0.606880009	-1.34319997	112	91	24
0.343180001	-0.606559992	-1.34249997	112	91	24
0.345180005	-0.607190013	-1.34029996	112	91	24
0.347499996	-0.608229995	-1.33899999	112	91	24
0.347499996	-0.609589994	-1.33840001	112	91	24
0.347189993	-0.610549986	-1.3369	112	91	24
0.3495	-0.610220015	-1.3362	112	91	24
0.3495	-0.608870029	-1.33679998	112	91	24
0.350140005	-0.608299971	-1.33920002	112	91	24
0.352459997	-0.607980013	-1.33850002	112	91	24
0.352140009	-0.608940005	-1.33700001	112	91	24
0.352140009	-0.610289991	-1.33640003	112	91	24
0.351819992	-0.611249983	-1.33490002	112	91	24
0.351179987	-0.611769974	-1.3326	112	91	24
0.351179987	-0.613089979	-1.33200002	112	91	24
0.351179987	-0.614419997	-1.33130002	112	91	24
0.353810012	-0.614489973	-1.33150005	112	91	24
0.353810012	-0.613160014	-1.33210003	112	91	24
0.354449987	-0.61263001	-1.33440006	112	91	24
0.354449987	-0.611320019	-1.33500004	112	91	24
0.354449987	-0.609969974	-1.33570004	112	91	24
0.354779989	-0.609009981	-1.33710003	112	91	24
0.357740015	-0.609459996	-1.33809996	112	91	24
0.357740015	-0.608110011	-1.33870006	112	91	24
0.357740015	-0.610819995	-1.33749998	112	91	24
0.357089996	-0.611379981	-1.33519995	112	91	24
