0.62737	-0.591189981	-1.37730002	11	149	42
0.626900017	-0.59217	-1.37590003	11	149	42
0.630209982	-0.591040015	-1.37689996	11	149	42
0.630209982	-0.589630008	-1.37750006	11	149	42
0.630689979	-0.588540018	-1.37899995	11	149	42
0.630689979	-0.587140024	-1.37960005	11	149	42
0.633530021	-0.586989999	-1.37919998	11	149	42
0.633050025	-0.588039994	-1.37779999	11	149	42
0.633050025	-0.589470029	-1.37720001	11	149	42
0.633050025	-0.590879977	-1.37660003	11	149	42
0.635420024	-0.590380013	-1.37539995	11	149	42
0.635420024	-0.588970006	-1.37600005	11	149	42
0.636849999	-0.588580012	-1.37899995	11	149	42
0.636849999	-0.587180018	-1.37960005	11	149	42
0.63448	-0.586279988	-1.38139999	11	149	42
0.63448	-0.585009992	-1.38189995	11	149	42
0.632099986	-0.585510015	-1.38310003	11	149	42
0.632099986	-0.586780012	-1.38259995	11	149	42
0.632099986	-0.584249973	-1.38370001	11	149	42
0.633520007	-0.583840013	-1.38670003	11	149	42
0.635900021	-0.584779978	-1.38489997	11	149	42
0.636849999	-0.584020019	-1.38709998	11	149	42
0.639699996	-0.583869994	-1.38680005	11	149	42
0.640179992	-0.585650027	-1.38699996	11	149	42
0.639219999	-0.586220026	-1.38479996	11	149	42
0.63827002	-0.586809993	-1.38269997	11	149	42
0.640169978	-0.588760018	-1.37950003	11	149	42
0.639689982	-0.589850008	-1.37810004	11	149	42
0.638740003	-0.590569973	-1.37580001	11	149	42
0.641099989	-0.590059996	-1.37469995	11	149	42
0.641099989	-0.591390014	-1.37409997	11	149	42
0.64297998	-0.591859996	-1.37150002	11	149	42
0.642499983	-0.592920005	-1.37010002	11	149	42
0.642019987	-0.593970001	-1.36870003	11	149	42
0.644860029	-0.595210016	-1.36769998	11	149	42
0.645820022	-0.597289979	-1.36870003	11	149	42
0.648180008	-0.596769989	-1.36749995	11	149	42
0.647210002	-0.594690025	-1.36650002	11	149	42
0.650049984	-0.595899999	-1.36549997	11	149	42
0.649079978	-0.596499979	-1.36339998	11	149	42
0.649079978	-0.59780997	-1.3628	11	149	42
0.649079978	-0.599189997	-1.36220002	11	149	42
0.651920021	-0.599009991	-1.36179996	11	149	42
0.651430011	-0.600030005	-1.36039996	11	149	42
0.651430011	-0.597280025	-1.36160004	11	149	42
0.651920021	-0.596329987	-1.36300004	11	149	42
0.652400017	-0.595380008	-1.36430001	11	149	42
0.653370023	-0.594699979	-1.36650002	11	149	42
0.65101999	-0.595220029	-1.36769998	11	149	42
0.651989996	-0.593110025	-1.37049997	11	149	42
0.652469993	-0.592050016	-1.37199998	11	149	42
0.652960002	-0.595210016	-1.37150002	11	149	42
0.650110006	-0.595380008	-1.37189996	11	149	42
0.649150014	-0.593280017	-1.37090003	11	149	42
0.648660004	-0.591530025	-1.3707	11	149	42
0.646300018	-0.592040002	-1.37189996	11	149	42
0.647270024	-0.594139993	-1.37290001	11	149	42
0.646300018	-0.594850004	-1.3707	11	149	42
0.644420028	-0.59157002	-1.37450004	11	149	42
0.644420028	-0.590240002	-1.37510002	11	149	42
0.645860016	-0.589869976	-1.37810004	11	149	42
0.646340013	-0.588779986	-1.37950003	11	149	42
0.643970013	-0.589290023	-1.38069999	11	149	42
0.643019974	-0.590030015	-1.37849998	11	149	42
0.642080009	-0.588739991	-1.38329995	11	149	42
0.649680018	-0.586160004	-1.38110006	11	149	42
0.650160015	-0.587899983	-1.38129997	11	149	42
0.652530015	-0.587390006	-1.38010001	11	149	42
0.652530015	-0.588789999	-1.37950003	11	149	42
0.651560009	-0.589540005	-1.37730002	11	149	42
0.652050018	-0.591289997	-1.37750006	11	149	42
0.652050018	-0.592620015	-1.37699997	11	149	42
0.654410005	-0.592100024	-1.3757	11	149	42
0.656780005	-0.591579974	-1.37450004	11	149	42
0.655809999	-0.592220008	-1.37240005	11	149	42
0.656289995	-0.593980014	-1.37259996	11	149	42
0.656289995	-0.595380008	-1.37189996	11	149	42
0.658169985	-0.595920026	-1.36930001	11	149	42
0.661010027	-0.59574002	-1.36889994	11	149	42
0.661989987	-0.59503001	-1.37109995	11	149	42
0.659630001	-0.595550001	-1.37230003	11	149	42
0.660600007	-0.59483999	-1.37460005	11	149	42
0.663950026	-0.595009983	-1.37489998	11	149	42
0.666310012	-0.594479978	-1.37370002	11	149	42
0.665820003	-0.592719972	-1.37349999	11	149	42
0.663460016	-0.591920018	-1.37530005	11	149	42
0.661580026	-0.59145999	-1.3779	11	149	42
0.661090016	-0.589699984	-1.37769997	11	149	42
0.65824002	-0.58987999	-1.37810004	11	149	42
0.659210026	-0.59197998	-1.37909997	11	149	42
0.65587002	-0.591809988	-1.37870002	11	149	42
0.656350017	-0.58930999	-1.38080001	11	149	42
0.656840026	-0.588249981	-1.3822	11	149	42
0.659699976	-0.588069975	-1.38170004	11	149	42
0.659210026	-0.586329997	-1.38150001	11	149	42
0.660179973	-0.589820027	-1.38199997	11	149	42
0.662559986	-0.589299977	-1.38069999	11	149	42
0.663529992	-0.588580012	-1.3829	11	149	42
0.663039982	-0.586839974	-1.38269997	11	149	42
0.666880012	-0.587339997	-1.38390005	11	149	42
0.666880012	-0.588739991	-1.38329995	11	149	42
0.665910006	-0.589460015	-1.38110006	11	149	42
0.667789996	-0.590030015	-1.37849998	11	149	42
0.667299986	-0.591099977	-1.37709999	11	149	42
0.667299986	-0.592429996	-1.37650001	11	149	42
0.669659972	-0.591899991	-1.37530005	11	149	42
0.670149982	-0.590910017	-1.37660003	11	149	42
0.672029972	-0.590040028	-1.37460005	11	149	42
0.671530008	-0.591019988	-1.37320006	11	149	42
0.671530008	-0.59236002	-1.37269998	11	149	42
0.671039999	-0.593420029	-1.37129998	11	149	42
0.668179989	-0.593599975	-1.37170005	11	149	42
0.669170022	-0.592890024	-1.37390006	11	149	42
0.673889995	-0.591820002	-1.3714	11	149	42
0.673889995	-0.593230009	-1.37080002	11	149	42
0.676750004	-0.593039989	-1.37039995	11	149	42
0.677240014	-0.59197998	-1.37179995	11	149	42
0.678240001	-0.591329992	-1.37399995	11	149	42
0.679229975	-0.590690017	-1.37609994	11	149	42
0.678730011	-0.588940024	-1.37590003	11	149	42
0.679729998	-0.588190019	-1.37810004	11	149	42
0.681219995	-0.58780998	-1.38110006	11	149	42
0.679340005	-0.588680029	-1.38320005	11	149	42
0.679840028	-0.58762002	-1.38460004	11	149	42
0.680329978	-0.586690009	-1.38590002	11	149	42
0.679340005	-0.584749997	-1.38479996	11	149	42
0.679840028	-0.583649993	-1.38629997	11	149	42
0.682709992	-0.583459973	-1.3858	11	149	42
0.683210015	-0.585240006	-1.38600004	11	149	42
0.683210015	-0.586499989	-1.38549995	11	149	42
0.683210015	-0.587769985	-1.38489997	11	149	42
0.685580015	-0.587239981	-1.38370001	11	149	42
0.685580015	-0.585959971	-1.38419998	11	149	42
0.686079979	-0.585039973	-1.38549995	11	149	42
0.686079979	-0.583599985	-1.38610005	11	149	42
0.684199989	-0.582949996	-1.38880002	11	149	42
0.683700025	-0.581179976	-1.38859999	11	149	42
0.680830002	-0.581369996	-1.38909996	11	149	42
0.680830002	-0.579940021	-1.38970006	11	149	42
0.681819975	-0.579349995	-1.39180005	11	149	42
0.677950025	-0.578869998	-1.39069998	11	149	42
0.676060021	-0.57972002	-1.39269996	11	149	42
0.675570011	-0.582080007	-1.3908	11	149	42
0.674589992	-0.582840025	-1.38859999	11	149	42
0.674090028	-0.584020019	-1.38709998	11	149	42
0.673600018	-0.585129976	-1.38569999	11	149	42
0.673600018	-0.586390018	-1.38520002	11	149	42
0.672619998	-0.586979985	-1.38310003	11	149	42
0.675480008	-0.586790025	-1.38259995	11	149	42
0.676469982	-0.588869989	-1.3836	11	149	42
0.676469982	-0.590279996	-1.38300002	11	149	42
0.678849995	-0.589749992	-1.38180006	11	149	42
0.676370025	-0.589470029	-1.37720001	11	149	42
0.675379992	-0.590200007	-1.375	11	149	42
0.674390018	-0.590839982	-1.37279999	11	149	42
0.674000025	-0.589999974	-1.37839997	11	149	42
0.671630025	-0.590529978	-1.37960005	11	149	42
0.669260025	-0.589619994	-1.38150001	11	149	42
0.669749975	-0.588559985	-1.3829	11	149	42
0.669260025	-0.586820006	-1.38269997	11	149	42
0.670239985	-0.58622998	-1.38479996	11	149	42
0.671220005	-0.585650027	-1.38699996	11	149	42
0.670239985	-0.583530009	-1.38600004	11	149	42
0.671220005	-0.582679987	-1.38820004	11	149	42
0.672200024	-0.581920028	-1.39040005	11	149	42
0.671710014	-0.580160022	-1.39020002	11	149	42
0.673600018	-0.57931	-1.38820004	11	149	42
0.676469982	-0.579129994	-1.38769996	11	149	42
0.676970005	-0.582319975	-1.38730001	11	149	42
0.677950025	-0.581560016	-1.38950002	11	149	42
0.681320012	-0.583140016	-1.38929999	11	149	42
0.676970005	-0.585280001	-1.38610005	11	149	42
0.676970005	-0.586539984	-1.38559997	11	149	42
0.674090028	-0.589399993	-1.38489997	11	149	42
0.674090028	-0.590810001	-1.38429999	11	149	42
0.667370021	-0.586409986	-1.38530004	11	149	42
0.667859972	-0.585489988	-1.38660002	11	149	42
0.668349981	-0.584389985	-1.38800001	11	149	42
0.667370021	-0.582189977	-1.38699996	11	149	42
0.665000021	-0.584230006	-1.38759995	11	149	42
0.665000021	-0.585669994	-1.38699996	11	149	42
0.665000021	-0.586929977	-1.3865	11	149	42
0.664020002	-0.582029998	-1.38670003	11	149	42
0.663529992	-0.580259979	-1.38639998	11	149	42
0.665480018	-0.580179989	-1.39030004	11	149	42
0.663590014	-0.581030011	-1.39230001	11	149	42
0.66456002	-0.580439985	-1.3944	11	149	42
0.66505003	-0.579519987	-1.39579999	11	149	42
0.662169993	-0.57968998	-1.39619994	11	149	42
0.662649989	-0.578639984	-1.39760005	11	149	42
0.666499972	-0.579129994	-1.39880002	11	149	42
0.668410003	-0.578289986	-1.39670002	11	149	42
0.668410003	-0.579680026	-1.39610004	11	149	42
0.667919993	-0.580600023	-1.39479995	11	149	42
0.67128998	-0.580749989	-1.39520001	11	149	42
0.67177999	-0.579840004	-1.39649999	11	149	42
0.67177999	-0.578440011	-1.39709997	11	149	42
0.674660027	-0.579649985	-1.39610004	11	149	42
0.675149977	-0.581239998	-1.39639997	11	149	42
0.675149977	-0.578599989	-1.39750004	11	149	42
0.677540004	-0.579469979	-1.39559996	11	149	42
0.678529978	-0.578750014	-1.39779997	11	149	42
0.680920005	-0.579620004	-1.39600003	11	149	42
0.683799982	-0.579429984	-1.39549994	11	149	42
0.686689973	-0.579240024	-1.3951	11	149	42
0.686190009	-0.580160022	-1.39380002	11	149	42
0.686190009	-0.581420004	-1.39320004	11	149	42
0.68957001	-0.582989991	-1.39300001	11	149	42
0.690069973	-0.581900001	-1.3944	11	149	42
0.690069973	-0.580630004	-1.39489996	11	149	42
0.690069973	-0.579379976	-1.39540005	11	149	42
0.692460001	-0.5801	-1.39359999	11	149	42
0.693459988	-0.582040012	-1.39470005	11	149	42
0.692960024	-0.583130002	-1.39330006	11	149	42
0.695349991	-0.581170022	-1.39260006	11	149	42
0.696349978	-0.583270013	-1.39359999	11	149	42
0.698230028	-0.582400024	-1.39160001	11	149	42
0.698230028	-0.580969989	-1.39219999	11	149	42
0.699739993	-0.58069998	-1.3951	11	149	42
0.697350025	-0.581229985	-1.39639997	11	149	42
0.698350012	-0.580640018	-1.39849997	11	149	42
0.698350012	-0.579249978	-1.39909995	11	149	42
0.69885999	-0.576719999	-1.40100002	11	149	42
0.69885999	-0.575320005	-1.4016	11	149	42
0.696460009	-0.575839996	-1.40289998	11	149	42
0.696460009	-0.574419975	-1.40349996	11	149	42
0.693560004	-0.574620008	-1.40400004	11	149	42
0.693560004	-0.57604003	-1.40339994	11	149	42
0.694559991	-0.578100026	-1.40439999	11	149	42
0.693560004	-0.578849971	-1.40219998	11	149	42
0.692560017	-0.579649985	-1.39999998	11	149	42
0.694959998	-0.57911998	-1.3987	11	149	42
0.694459975	-0.580179989	-1.39740002	11	149	42
0.695460021	-0.578000009	-1.40009999	11	149	42
0.695959985	-0.576910019	-1.40149999	11	149	42
0.699859977	-0.578790009	-1.40209997	11	149	42
0.70174998	-0.577929974	-1.39999998	11	149	42
0.70174998	-0.579379976	-1.3994	11	149	42
0.70174998	-0.580770016	-1.39880002	11	149	42
0.704150021	-0.580240011	-1.39750004	11	149	42
0.704649985	-0.579180002	-1.39890003	11	149	42
0.707050025	-0.578639984	-1.39760005	11	149	42
0.709940016	-0.578429997	-1.39709997	11	149	42
0.712840021	-0.57822001	-1.39660001	11	149	42
0.713349998	-0.579940021	-1.39680004	11	149	42
0.713349998	-0.581200004	-1.39629996	11	149	42
0.715740025	-0.580649972	-1.39499998	11	149	42
0.715229988	-0.581589997	-1.39359999	11	149	42
0.717620015	-0.581040025	-1.39230001	11	149	42
0.718129992	-0.580110013	-1.39359999	11	149	42
0.719150007	-0.579509974	-1.39579999	11	149	42
0.719150007	-0.578119993	-1.39629996	11	149	42
0.720179975	-0.577329993	-1.39849997	11	149	42
0.717779994	-0.576460004	-1.40040004	11	149	42
0.71675998	-0.577220023	-1.39820004	11	149	42
0.71675998	-0.578670025	-1.39760005	11	149	42
0.717270017	-0.580389977	-1.39789999	11	149	42
0.714370012	-0.577759981	-1.39960003	11	149	42
0.714370012	-0.576349974	-1.40009999	11	149	42
0.711969972	-0.576879978	-1.40139997	11	149	42
0.711969972	-0.578299999	-1.40090001	11	149	42
0.709070027	-0.578499973	-1.40139997	11	149	42
0.706170022	-0.57871002	-1.40190005	11	149	42
0.705659986	-0.575569987	-1.40219998	11	149	42
0.706170022	-0.574479997	-1.40359998	11	149	42
0.703769982	-0.575010002	-1.40489995	11	149	42
0.704270005	-0.573909998	-1.40629995	11	149	42
0.704270005	-0.572440028	-1.40690005	11	149	42
0.701359987	-0.572640002	-1.40740001	11	149	42
0.700860023	-0.573790014	-1.40600002	11	149	42
0.70036	-0.574880004	-1.40460002	11	149	42
0.697960019	-0.573989987	-1.40649998	11	149	42
0.698459983	-0.571359992	-1.40849996	11	149	42
0.698459983	-0.569959998	-1.40900004	11	149	42
0.695550025	-0.571560025	-1.40890002	11	149	42
0.694559991	-0.569509983	-1.40789998	11	149	42
0.695550025	-0.568769991	-1.41009998	11	149	42
0.693149984	-0.569280028	-1.41139996	11	149	42
0.690739989	-0.569800019	-1.41260004	11	149	42
0.688820004	-0.570640028	-1.41470003	11	149	42
0.689809978	-0.569920003	-1.41690004	11	149	42
0.689310014	-0.568229973	-1.41659999	11	149	42
0.690299988	-0.567470014	-1.4188	11	149	42
0.690789998	-0.56637001	-1.42019999	11	149	42
0.688369989	-0.566879988	-1.42139995	11	149	42
0.688369989	-0.565460026	-1.42200005	11	149	42
0.687390029	-0.563390017	-1.421	11	149	42
0.68787998	-0.562290013	-1.42229998	11	149	42
0.685459971	-0.56279999	-1.42359996	11	149	42
0.685459971	-0.564220011	-1.42299998	11	149	42
0.686439991	-0.566290021	-1.42410004	11	149	42
0.684970021	-0.566739976	-1.42110002	11	149	42
0.684480011	-0.56783998	-1.41970003	11	149	42
0.683489978	-0.568599999	-1.41750002	11	149	42
0.682510018	-0.569310009	-1.41540003	11	149	42
0.680589974	-0.570150018	-1.4174	11	149	42
0.679610014	-0.568130016	-1.41639996	11	149	42
0.678139985	-0.569890022	-1.41279995	11	149	42
0.678629994	-0.571609974	-1.4131	11	149	42
0.677649975	-0.572350025	-1.4109	11	149	42
0.681039989	-0.57249999	-1.41129994	11	149	42
0.681529999	-0.571420014	-1.41260004	11	149	42
0.681039989	-0.569700003	-1.41240001	11	149	42
0.683939993	-0.570909977	-1.41139996	11	149	42
0.683449984	-0.571990013	-1.40999997	11	149	42
0.682959974	-0.573140025	-1.40859997	11	149	42
0.685360014	-0.572629988	-1.4073	11	149	42
0.685360014	-0.571150005	-1.40789998	11	149	42
0.685360014	-0.569750011	-1.40849996	11	149	42
0.687759995	-0.569239974	-1.40719998	11	149	42
0.687759995	-0.570630014	-1.40670002	11	149	42
0.687759995	-0.572109997	-1.40610003	11	149	42
0.687269986	-0.573249996	-1.40470004	11	149	42
0.686770022	-0.574349999	-1.40330005	11	149	42
0.686770022	-0.575760007	-1.40269995	11	149	42
0.686280012	-0.576830029	-1.40129995	11	149	42
0.686280012	-0.578249991	-1.40069997	11	149	42
0.685289979	-0.579039991	-1.39849997	11	149	42
0.682399988	-0.579219997	-1.39900005	11	149	42
0.682399988	-0.577769995	-1.39960003	11	149	42
0.682889998	-0.576690018	-1.40100002	11	149	42
0.683390021	-0.575619996	-1.40240002	11	149	42
0.683879972	-0.574530005	-1.40369999	11	149	42
0.684870005	-0.573769987	-1.4059	11	149	42
0.690159976	-0.573059976	-1.40419996	11	149	42
0.690159976	-0.57160002	-1.40480006	11	149	42
0.690159976	-0.570119977	-1.40540004	11	149	42
0.692560017	-0.571080029	-1.40349996	11	149	42
0.692560017	-0.572539985	-1.40289998	11	149	42
0.689170003	-0.573830009	-1.40199995	11	149	42
0.689170003	-0.575240016	-1.40139997	11	149	42
0.690159976	-0.577300012	-1.40250003	11	149	42
0.689670026	-0.578390002	-1.40110004	11	149	42
0.689670026	-0.579840004	-1.40050006	11	149	42
0.696460009	-0.571539998	-1.40470004	11	149	42
0.691659987	-0.569700003	-1.40840006	11	149	42
0.692219973	-0.568040013	-1.41610003	11	149	42
0.693210006	-0.570050001	-1.41719997	11	149	42
0.695630014	-0.569540024	-1.41589999	11	149	42
0.695630014	-0.568170011	-1.41649997	11	149	42
0.696129978	-0.567089975	-1.41779995	11	149	42
0.697120011	-0.566309988	-1.41999996	11	149	42
0.698119998	-0.565530002	-1.42219996	11	149	42
0.699109972	-0.564750016	-1.42439997	11	149	42
0.70152998	-0.564239979	-1.42309999	11	149	42
0.70152998	-0.56566	-1.42250001	11	149	42
0.703960001	-0.565150023	-1.42120004	11	149	42
0.703960001	-0.563719988	-1.42180002	11	149	42
0.70638001	-0.563210011	-1.42050004	11	149	42
0.707379997	-0.565270007	-1.42149997	11	149	42
0.704959989	-0.567210019	-1.42229998	11	149	42
0.704460025	-0.56971997	-1.42030001	11	149	42
0.70638001	-0.567470014	-1.4188	11	149	42
0.705370009	-0.568229973	-1.41659999	11	149	42
0.704869986	-0.569270015	-1.41530001	11	149	42
0.702459991	-0.569790006	-1.41659999	11	149	42
0.699540019	-0.569989979	-1.41709995	11	149	42
0.700039983	-0.568949997	-1.41840005	11	149	42
0.699039996	-0.566890001	-1.4174	11	149	42
0.699540019	-0.565800011	-1.41869998	11	149	42
0.70095998	-0.566060007	-1.41530001	11	149	42
0.699959993	-0.569540024	-1.41199994	11	149	42
0.702870011	-0.569350004	-1.41149998	11	149	42
0.703869998	-0.571389973	-1.41260004	11	149	42
0.702870011	-0.572139978	-1.41040003	11	149	42
0.705780029	-0.571940005	-1.40989995	11	149	42
0.705780029	-0.569149971	-1.41100001	11	149	42
0.707289994	-0.571510017	-1.41289997	11	149	42
0.710200012	-0.571309984	-1.41240001	11	149	42
0.709699988	-0.569589972	-1.41209996	11	149	42
0.709699988	-0.568229973	-1.41270006	11	149	42
0.710709989	-0.567499995	-1.41480005	11	149	42
0.708289981	-0.569389999	-1.41559994	11	149	42
0.709299982	-0.568669975	-1.41770005	11	149	42
0.710810006	-0.568229973	-1.42069995	11	149	42
0.711310029	-0.567130029	-1.42209995	11	149	42
0.71232003	-0.566340029	-1.42420006	11	149	42
0.711809993	-0.564599991	-1.42400002	11	149	42
0.71232003	-0.563499987	-1.42540002	11	149	42
0.71232003	-0.562070012	-1.42589998	11	149	42
0.713320017	-0.56133002	-1.42809999	11	149	42
0.710389972	-0.561529994	-1.42859995	11	149	42
0.709389985	-0.562269986	-1.42639995	11	149	42
0.708379984	-0.563059986	-1.42429996	11	149	42
0.705959976	-0.563579977	-1.42560005	11	149	42
0.705460012	-0.561829984	-1.4253	11	149	42
0.705959976	-0.560779989	-1.4267	11	149	42
0.702530026	-0.562030017	-1.42579997	11	149	42
0.702030003	-0.560339987	-1.42560005	11	149	42
0.699109972	-0.560530007	-1.426	11	149	42
0.699609995	-0.562219977	-1.42630005	11	149	42
0.697179973	-0.562730014	-1.42760003	11	149	42
0.697669983	-0.561680019	-1.42900002	11	149	42
0.698170006	-0.560630023	-1.4303	11	149	42
0.698660016	-0.559490025	-1.43169999	11	149	42
0.695729971	-0.559669971	-1.43219995	11	149	42
0.696229994	-0.558480024	-1.43359995	11	149	42
0.693300009	-0.55726999	-1.4346	11	149	42
0.694280028	-0.556540012	-1.43669999	11	149	42
0.694280028	-0.555050015	-1.43729997	11	149	42
0.691349983	-0.555239975	-1.43780005	11	149	42
0.691349983	-0.556720018	-1.43719995	11	149	42
0.690370023	-0.55746001	-1.43499994	11	149	42
0.687929988	-0.55795002	-1.43630004	11	149	42
0.688910007	-0.557219982	-1.43850005	11	149	42
0.688910007	-0.554199994	-1.43970001	11	149	42
0.690370023	-0.553619981	-1.44270003	11	149	42
0.692820013	-0.554639995	-1.44079995	11	149	42
0.693799973	-0.553749979	-1.44299996	11	149	42
0.696739972	-0.553560019	-1.4425	11	149	42
0.696250021	-0.554769993	-1.4411	11	149	42
0.699190021	-0.554589987	-1.44070005	11	149	42
0.697709978	-0.555180013	-1.43760002	11	149	42
0.698199987	-0.556980014	-1.43789995	11	149	42
0.699190021	-0.558979988	-1.43900001	11	149	42
0.70213002	-0.558790028	-1.43850005	11	149	42
0.70164001	-0.557099998	-1.4382	11	149	42
0.700649977	-0.554989994	-1.43719995	11	149	42
0.704580009	-0.555429995	-1.43830001	11	149	42
0.705070019	-0.557229996	-1.43850005	11	149	42
0.704580009	-0.558279991	-1.43719995	11	149	42
0.703580022	-0.559050024	-1.43499994	11	149	42
0.702589989	-0.559930027	-1.43280005	11	149	42
0.702589989	-0.561389983	-1.43219995	11	149	42
0.705519974	-0.561200023	-1.43169999	11	149	42
0.70502001	-0.557910025	-1.43210006	11	149	42
0.704029977	-0.558790028	-1.42990005	11	149	42
0.708459973	-0.558030009	-1.43239999	11	149	42
0.708959997	-0.561320007	-1.43200004	11	149	42
0.709959984	-0.560479999	-1.43420005	11	149	42
0.711889982	-0.561119974	-1.43149996	11	149	42
0.711390018	-0.55934	-1.43130004	11	149	42
0.714829981	-0.559459984	-1.43159997	11	149	42
0.715330005	-0.561230004	-1.43180001	11	149	42
0.718270004	-0.561029971	-1.43130004	11	149	42
0.72070998	-0.56050998	-1.42999995	11	149	42
0.719699979	-0.558420002	-1.42900002	11	149	42
0.72070998	-0.557539999	-1.43110001	11	149	42
0.718270004	-0.55805999	-1.4325	11	149	42
0.716340005	-0.558889985	-1.4346	11	149	42
0.71390003	-0.559400022	-1.43589997	11	149	42
0.711960018	-0.558830023	-1.43859994	11	149	42
0.712459981	-0.557780027	-1.43990004	11	149	42
0.712960005	-0.556599975	-1.44130003	11	149	42
0.713460028	-0.555379987	-1.44270003	11	149	42
0.714460015	-0.554480016	-1.44490004	11	149	42
0.714460015	-0.552959979	-1.44550002	11	149	42
0.716409981	-0.552139997	-1.44340003	11	149	42
0.716910005	-0.551110029	-1.4447	11	149	42
0.717410028	-0.550090015	-1.44599998	11	149	42
0.716910005	-0.548290014	-1.44579995	11	149	42
0.714959979	-0.549099982	-1.44790006	11	149	42
0.715460002	-0.550909996	-1.44809997	11	149	42
0.712000012	-0.550790012	-1.44780004	11	149	42
0.711499989	-0.548990011	-1.44760001	11	149	42
0.708549976	-0.549179971	-1.44809997	11	149	42
0.707560003	-0.550059974	-1.44589996	11	149	42
0.707560003	-0.551379979	-1.4454	11	149	42
0.707560003	-0.55272001	-1.44490004	11	149	42
0.707059979	-0.553929985	-1.44350004	11	149	42
0.707059979	-0.555459976	-1.44289994	11	149	42
0.710009992	-0.555260003	-1.44239998	11	149	42
0.710009992	-0.553740025	-1.44299996	11	149	42
0.711009979	-0.552839994	-1.44519997	11	149	42
0.710510015	-0.551190019	-1.44490004	11	149	42
0.712960005	-0.550689995	-1.44360006	11	149	42
0.716910005	-0.553969979	-1.44360006	11	149	42
0.716910005	-0.555490017	-1.44299996	11	149	42
0.715910017	-0.556400001	-1.44079995	11	149	42
0.715910017	-0.557889998	-1.44019997	11	149	42
0.715399981	-0.558950007	-1.43889999	11	149	42
0.717850029	-0.558430016	-1.43760002	11	149	42
0.719359994	-0.558000028	-1.44050002	11	149	42
0.719359994	-0.556519985	-1.4411	11	149	42
0.720359981	-0.555599988	-1.44330001	11	149	42
0.720870018	-0.554390013	-1.4447	11	149	42
0.723819971	-0.554180026	-1.44420004	11	149	42
0.72280997	-0.55509001	-1.44200003	11	149	42
0.722310007	-0.551739991	-1.44229996	11	149	42
0.719359994	-0.551940024	-1.44280005	11	149	42
0.720359981	-0.55122	-1.44500005	11	149	42
0.720870018	-0.550199986	-1.44630003	11	149	42
0.721870005	-0.549319983	-1.44850004	11	149	42
0.724330008	-0.548810005	-1.44710004	11	149	42
0.725839972	-0.551230013	-1.449	11	149	42
0.726849973	-0.553170025	-1.45009995	11	149	42
0.729820013	-0.552959979	-1.44959998	11	149	42
0.730319977	-0.551940024	-1.45089996	11	149	42
0.732270002	-0.551119983	-1.44869995	11	149	42
0.732270002	-0.552450001	-1.44819999	11	149	42
0.734730005	-0.55193001	-1.44679999	11	149	42
0.733709991	-0.552659988	-1.4447	11	149	42
0.734220028	-0.55448997	-1.44490004	11	149	42
0.736670017	-0.553969979	-1.44360006	11	149	42
0.736670017	-0.552450001	-1.44420004	11	149	42
0.737179995	-0.551410019	-1.44550002	11	149	42
0.737179995	-0.550090015	-1.44599998	11	149	42
0.737179995	-0.548590004	-1.44659996	11	149	42
0.734730005	-0.549109995	-1.44790006	11	149	42
0.73575002	-0.55122	-1.449	11	149	42
0.732270002	-0.549619973	-1.44930005	11	149	42
0.728799999	-0.549520016	-1.449	11	149	42
0.727859974	-0.549399972	-1.45340002	11	149	42
0.728869975	-0.548600018	-1.45550001	11	149	42
0.725899994	-0.548799992	-1.45609999	11	149	42
0.726400018	-0.546299994	-1.45790005	11	149	42
0.725390017	-0.544290006	-1.45679998	11	149	42
0.722429991	-0.54448998	-1.45739996	11	149	42
0.721920013	-0.545589983	-1.45599997	11	149	42
0.720920026	-0.546379983	-1.45389998	11	149	42
0.721920013	-0.548389971	-1.45500004	11	149	42
0.72141999	-0.549499989	-1.45360005	11	149	42
0.723890007	-0.549000025	-1.45229995	11	149	42
0.72438997	-0.54648	-1.45420003	11	149	42
0.727349997	-0.546280026	-1.45360005	11	149	42
0.731329978	-0.546679974	-1.45469999	11	149	42
0.732850015	-0.549000025	-1.45659995	11	149	42
0.733359993	-0.550719976	-1.4569	11	149	42
0.735319972	-0.548489988	-1.45519996	11	149	42
0.735830009	-0.547389984	-1.45659995	11	149	42
0.736329973	-0.54628998	-1.45790005	11	149	42
0.736329973	-0.544889987	-1.45840001	11	149	42
0.73684001	-0.54369998	-1.4598	11	149	42
0.739310026	-0.544679999	-1.45790005	11	149	42
0.739310026	-0.546079993	-1.45729995	11	149	42
0.738799989	-0.547179997	-1.45599997	11	149	42
0.737779975	-0.547969997	-1.45389998	11	149	42
0.737280011	-0.549090028	-1.45249999	11	149	42
0.739740014	-0.548569977	-1.45120001	11	149	42
0.741270006	-0.548070014	-1.45410001	11	149	42
0.741779983	-0.54697001	-1.45539999	11	149	42
0.741779983	-0.545570016	-1.45599997	11	149	42
0.744239986	-0.545050025	-1.45459998	11	149	42
0.744239986	-0.546450019	-1.45410001	11	149	42
0.744759977	-0.548160017	-1.45439994	11	149	42
0.743730009	-0.548969984	-1.45220006	11	149	42
0.742200017	-0.549600005	-1.44920003	11	149	42
0.741169989	-0.550490022	-1.44700003	11	149	42
0.740660012	-0.551509976	-1.44570005	11	149	42
0.743619978	-0.551289976	-1.44519997	11	149	42
0.743619978	-0.549969971	-1.44570005	11	149	42
0.744650006	-0.549080014	-1.44780004	11	149	42
0.748130023	-0.549170017	-1.44809997	11	149	42
0.748130023	-0.550660014	-1.44749999	11	149	42
0.747619987	-0.551680028	-1.44620001	11	149	42
0.747099996	-0.55272001	-1.44490004	11	149	42
0.747099996	-0.554239988	-1.44430006	11	149	42
0.747099996	-0.555760026	-1.44369996	11	149	42
0.746070027	-0.556680024	-1.44149995	11	149	42
0.743110001	-0.556900024	-1.44210005	11	149	42
0.744140029	-0.555980027	-1.44430006	11	149	42
0.741569996	-0.552919984	-1.44089997	11	149	42
0.741569996	-0.551410019	-1.44140005	11	149	42
0.739120007	-0.55193001	-1.44280005	11	149	42
0.739120007	-0.553449988	-1.44219995	11	149	42
0.739120007	-0.554970026	-1.44159997	11	149	42
0.739120007	-0.556500018	-1.4411	11	149	42
0.736670017	-0.555490017	-1.44299996	11	149	42
0.735140026	-0.556100011	-1.44000006	11	149	42
0.732689977	-0.555079997	-1.44200003	11	149	42
0.731679976	-0.555999994	-1.43980002	11	149	42
0.731169999	-0.557169974	-1.43840003	11	149	42
0.731679976	-0.558860004	-1.43859994	11	149	42
0.734120011	-0.558329999	-1.43729997	11	149	42
0.733609974	-0.556649983	-1.43700004	11	149	42
0.733099997	-0.559099972	-1.43519998	11	149	42
0.735539973	-0.558579981	-1.43379998	11	149	42
0.736559987	-0.557799995	-1.43589997	11	149	42
0.737079978	-0.55675	-1.43729997	11	149	42
0.739000022	-0.557280004	-1.4346	11	149	42
0.738489985	-0.558359981	-1.4332	11	149	42
0.737460017	-0.559239984	-1.43110001	11	149	42
0.734510005	-0.559459984	-1.43159997	11	149	42
0.73348999	-0.560299993	-1.42939997	11	149	42
0.732980013	-0.561339974	-1.42809999	11	149	42
0.731949985	-0.56208998	-1.426	11	149	42
0.731949985	-0.563510001	-1.42540002	11	149	42
0.731440008	-0.564620018	-1.42400002	11	149	42
0.731440008	-0.566039979	-1.42349994	11	149	42
0.730419993	-0.566829979	-1.42130005	11	149	42
0.727989972	-0.567359984	-1.42270005	11	149	42
0.727989972	-0.568780005	-1.42209995	11	149	42
0.727479994	-0.569869995	-1.42069995	11	149	42
0.724550009	-0.568679988	-1.42180002	11	149	42
0.725059986	-0.567579985	-1.42320001	11	149	42
0.725570023	-0.566470027	-1.42460001	11	149	42
0.724550009	-0.564409971	-1.42349994	11	149	42
0.725570023	-0.563619971	-1.42569995	11	149	42
0.72608	-0.562510014	-1.42709994	11	149	42
0.725059986	-0.56050998	-1.426	11	149	42
0.722119987	-0.560720026	-1.42649996	11	149	42
0.723140001	-0.562720001	-1.42760003	11	149	42
0.723140001	-0.559989989	-1.42869997	11	149	42
0.722119987	-0.557900012	-1.42760003	11	149	42
0.723649979	-0.557340026	-1.43060005	11	149	42
0.727100015	-0.558950007	-1.4303	11	149	42
0.727599978	-0.560720026	-1.43050003	11	149	42
0.730549991	-0.56050998	-1.42999995	11	149	42
0.731570005	-0.559669971	-1.43219995	11	149	42
0.728619993	-0.558380008	-1.43330002	11	149	42
0.727199972	-0.558130026	-1.4368	11	149	42
0.727710009	-0.555589974	-1.43869996	11	149	42
0.729229987	-0.558009982	-1.44050002	11	149	42
0.729740024	-0.555289984	-1.4425	11	149	42
0.726779997	-0.555499971	-1.44299996	11	149	42
0.726779997	-0.553979993	-1.44360006	11	149	42
0.726779997	-0.552460015	-1.44420004	11	149	42
0.730750024	-0.552869976	-1.44529998	11	149	42
0.731769979	-0.555010021	-1.44630003	11	149	42
0.725769997	-0.557900012	-1.44029999	11	149	42
0.724250019	-0.555490017	-1.43840003	11	149	42
0.721300006	-0.555689991	-1.43900001	11	149	42
0.721809983	-0.557489991	-1.43920004	11	149	42
0.721300006	-0.558539987	-1.43780005	11	149	42
0.723739982	-0.558030009	-1.43649995	11	149	42
0.734300017	-0.549300015	-1.45309997	11	149	42
0.733359993	-0.546500027	-1.45850003	11	149	42
0.732349992	-0.54448998	-1.45739996	11	149	42
0.732850015	-0.543299973	-1.45869994	11	149	42
0.730889976	-0.54411	-1.46089995	11	149	42
0.729369998	-0.544690013	-1.45790005	11	149	42
0.729879975	-0.546400011	-1.45819998	11	149	42
0.727410018	-0.544009984	-1.46060002	11	149	42
0.724430025	-0.544210017	-1.4612	11	149	42
0.725430012	-0.541800022	-1.46389997	11	149	42
0.725939989	-0.540620029	-1.46529996	11	149	42
0.726939976	-0.539759994	-1.46739995	11	149	42
0.727940023	-0.538909972	-1.46959996	11	149	42
0.730929971	-0.538709998	-1.46899998	11	149	42
0.72992003	-0.53956002	-1.46689999	11	149	42
0.728919983	-0.540419996	-1.46469998	11	149	42
0.728410006	-0.541599989	-1.46340001	11	149	42
0.7324	-0.541999996	-1.46440005	11	149	42
0.7324	-0.540520012	-1.46500003	11	149	42
0.732900023	-0.537909985	-1.46689999	11	149	42
0.735379994	-0.537419975	-1.4655	11	149	42
0.736389995	-0.540910006	-1.46609998	11	149	42
0.735889971	-0.542100012	-1.46469998	11	149	42
0.735379994	-0.543290019	-1.46329999	11	149	42
0.732900023	-0.543789983	-1.46469998	11	149	42
0.730419993	-0.544290006	-1.46599996	11	149	42
0.727940023	-0.544799984	-1.46739995	11	149	42
0.722959995	-0.543789983	-1.46469998	11	149	42
0.722959995	-0.542299986	-1.46519995	11	149	42
0.722959995	-0.540820003	-1.46580005	11	149	42
0.723460019	-0.539659977	-1.46710002	11	149	42
0.724460006	-0.538810015	-1.46930003	11	149	42
0.724960029	-0.537559986	-1.47070003	11	149	42
0.719980001	-0.539550006	-1.46689999	11	149	42
0.719479978	-0.542190015	-1.46500003	11	149	42
0.717980027	-0.539810002	-1.46309996	11	149	42
0.717980027	-0.542779982	-1.46200001	11	149	42
0.715510011	-0.543269992	-1.46329999	11	149	42
0.716009974	-0.542079985	-1.46469998	11	149	42
0.716489971	-0.543389976	-1.45899999	11	149	42
0.716989994	-0.545180023	-1.45920002	11	149	42
0.719959974	-0.544990003	-1.45869994	11	149	42
0.719959974	-0.543500006	-1.45930004	11	149	42
0.718959987	-0.545780003	-1.45659995	11	149	42
0.718460023	-0.548280001	-1.45469999	11	149	42
0.71796	-0.549390018	-1.4533	11	149	42
0.715489984	-0.548479974	-1.45519996	11	149	42
0.715489984	-0.545669973	-1.45630002	11	149	42
0.71351999	-0.546469986	-1.45840001	11	149	42
0.712530017	-0.544470012	-1.45729995	11	149	42
0.71153003	-0.542370021	-1.4562	11	149	42
0.709559977	-0.544659972	-1.45780003	11	149	42
0.71006	-0.546360016	-1.45809996	11	149	42
0.71153003	-0.546649992	-1.45459998	11	149	42
0.71104002	-0.547749996	-1.4533	11	149	42
0.710039973	-0.54855001	-1.45109999	11	149	42
0.70757997	-0.549049973	-1.45239997	11	149	42
0.705609977	-0.549860001	-1.45459998	11	149	42
0.704620004	-0.551270008	-1.45829999	11	149	42
0.703639984	-0.545809984	-1.45239997	11	149	42
0.70314002	-0.546899974	-1.45099998	11	149	42
0.705600023	-0.546410024	-1.4497	11	149	42
0.7051	-0.549059987	-1.44780004	11	149	42
0.70460999	-0.550249994	-1.44640005	11	149	42
0.70460999	-0.551569998	-1.44589996	11	149	42
0.70460999	-0.552919984	-1.4454	11	149	42
0.704110026	-0.554120004	-1.44400001	11	149	42
0.703119993	-0.555019975	-1.4418	11	149	42
0.702149987	-0.554939985	-1.4461	11	149	42
0.702149987	-0.553409994	-1.44669998	11	149	42
0.701659977	-0.551760018	-1.44640005	11	149	42
0.701659977	-0.550440013	-1.44690001	11	149	42
0.699209988	-0.552259982	-1.44770002	11	149	42
0.699699998	-0.553910017	-1.44799995	11	149	42
0.697239995	-0.553059995	-1.44980001	11	149	42
0.695770025	-0.553470016	-1.44690001	11	149	42
0.698220015	-0.550310016	-1.44659996	11	149	42
0.699209988	-0.549430013	-1.44879997	11	149	42
0.70314002	-0.549860001	-1.44990003	11	149	42
0.70709002	-0.545930028	-1.45270002	11	149	42
0.713500023	-0.545849979	-1.45249999	11	149	42
0.71645999	-0.545660019	-1.45200002	11	149	42
0.713500023	-0.548669994	-1.45140004	11	149	42
0.708010018	-0.555549979	-1.43859994	11	149	42
0.708010018	-0.557030022	-1.43799996	11	149	42
0.706520021	-0.55746001	-1.43509996	11	149	42
0.700649977	-0.559239984	-1.43550003	11	149	42
0.701590002	-0.564920008	-1.42900002	11	149	42
0.704029977	-0.564409971	-1.42770004	11	149	42
0.709389985	-0.567969978	-1.42420006	11	149	42
0.714240015	-0.568340003	-1.421	11	149	42
0.715250015	-0.567560017	-1.42320001	11	149	42
0.714739978	-0.565819979	-1.42289996	11	149	42
0.714739978	-0.564400017	-1.42349994	11	149	42
0.717670023	-0.56418997	-1.42299998	11	149	42
0.718180001	-0.563090026	-1.42429996	11	149	42
0.719190001	-0.562300026	-1.42649996	11	149	42
0.719190001	-0.560930014	-1.42700005	11	149	42
0.716260016	-0.561129987	-1.42760003	11	149	42
0.716260016	-0.5625	-1.42700005	11	149	42
0.716260016	-0.563929975	-1.42649996	11	149	42
0.71717	-0.565299988	-1.42159998	11	149	42
0.71717	-0.566720009	-1.421	11	149	42
0.71717	-0.56813997	-1.42050004	11	149	42
0.716149986	-0.568910003	-1.41830003	11	149	42
0.719590008	-0.569019973	-1.41859996	11	149	42
0.72250998	-0.568809986	-1.4181	11	149	42
0.720480025	-0.568889976	-1.41429996	11	149	42
0.722890019	-0.568359971	-1.41299999	11	149	42
0.721870005	-0.569079995	-1.41079998	11	149	42
0.721870005	-0.570469975	-1.41030002	11	149	42
0.722379982	-0.572189987	-1.41050005	11	149	42
0.725300014	-0.57198	-1.40999997	11	149	42
0.725809991	-0.570900023	-1.41129994	11	149	42
0.724789977	-0.568870008	-1.41030002	11	149	42
0.727349997	-0.569100022	-1.41489995	11	149	42
0.729759991	-0.569930017	-1.41299999	11	149	42
0.729759991	-0.571330011	-1.41240001	11	149	42
0.729250014	-0.572409987	-1.41100001	11	149	42
0.732169986	-0.570789993	-1.41110003	11	149	42
0.732680023	-0.569710016	-1.41240001	11	149	42
0.733709991	-0.568989992	-1.41460001	11	149	42
0.730790019	-0.569209993	-1.41509998	11	149	42
0.731299996	-0.566760004	-1.41700006	11	149	42
0.732330024	-0.568799973	-1.41799998	11	149	42
0.73526001	-0.567170024	-1.4181	11	149	42
0.735769987	-0.564649999	-1.41999996	11	149	42
0.736800015	-0.563870013	-1.42209995	11	149	42
0.737320006	-0.562759995	-1.42349994	11	149	42
0.734380007	-0.562979996	-1.42410004	11	149	42
0.733870029	-0.56408	-1.42270005	11	149	42
0.733870029	-0.565509975	-1.42209995	11	149	42
0.734380007	-0.567250013	-1.4224	11	149	42
0.736800015	-0.566709995	-1.421	11	149	42
0.739740014	-0.566479981	-1.42050004	11	149	42
0.740260005	-0.565379977	-1.42180002	11	149	42
0.740260005	-0.563960016	-1.4224	11	149	42
0.741289973	-0.563170016	-1.42449999	11	149	42
0.744229972	-0.564369977	-1.42340004	11	149	42
0.743200004	-0.565159976	-1.42130005	11	149	42
0.742160022	-0.565940022	-1.41910005	11	149	42
0.741639972	-0.567040026	-1.41770005	11	149	42
0.741129994	-0.568130016	-1.41639996	11	149	42
0.740610003	-0.569180012	-1.41499996	11	149	42
0.743019998	-0.56862998	-1.41369998	11	149	42
0.743019998	-0.569999993	-1.4131	11	149	42
0.741980016	-0.570749998	-1.41100001	11	149	42
0.741980016	-0.572149992	-1.41040003	11	149	42
0.741460025	-0.573310018	-1.40900004	11	149	42
0.744390011	-0.573080003	-1.40849996	11	149	42
0.74387002	-0.571280003	-1.40830004	11	149	42
0.744390011	-0.570200026	-1.40960002	11	149	42
0.745429993	-0.569450021	-1.41180003	11	149	42
0.746469975	-0.568719983	-1.41390002	11	149	42
0.746469975	-0.567359984	-1.41439998	11	149	42
0.743539989	-0.567589998	-1.41499996	11	149	42
0.74405998	-0.566500008	-1.41639996	11	149	42
0.739229977	-0.567589998	-1.41910005	11	149	42
0.739229977	-0.568989992	-1.41849995	11	149	42
0.737320006	-0.569859982	-1.42069995	11	149	42
0.736639977	-0.568759978	-1.41400003	11	149	42
0.738539994	-0.569270015	-1.41129994	11	149	42
0.738539994	-0.570659995	-1.41079998	11	149	42
0.738020003	-0.571739972	-1.40939999	11	149	42
0.735610008	-0.572290003	-1.41069996	11	149	42
0.735610008	-0.570879996	-1.41129994	11	149	42
0.73457998	-0.568849981	-1.41030002	11	149	42
0.730620027	-0.571219981	-1.40810001	11	149	42
0.729589999	-0.572049975	-1.4059	11	149	42
0.726679981	-0.572269976	-1.40649998	11	149	42
0.725650012	-0.573090017	-1.40429997	11	149	42
0.726679981	-0.575169981	-1.40530002	11	149	42
0.728559971	-0.574299991	-1.40320003	11	149	42
0.728559971	-0.575709999	-1.40260005	11	149	42
0.729080021	-0.577440023	-1.40279996	11	149	42
0.730960011	-0.577979982	-1.40009999	11	149	42
0.733359993	-0.578880012	-1.39810002	11	149	42
0.733359993	-0.580269992	-1.39760005	11	149	42
0.73575002	-0.579710007	-1.39619994	11	149	42
0.73627001	-0.581290007	-1.39649999	11	149	42
0.738659978	-0.580730021	-1.39520001	11	149	42
0.738659978	-0.579479992	-1.39569998	11	149	42
0.737619996	-0.577440023	-1.39470005	11	149	42
0.734709978	-0.577669978	-1.39520001	11	149	42
0.73180002	-0.580540001	-1.39470005	11	149	42
0.729929984	-0.581420004	-1.39680004	11	149	42
0.730440021	-0.580500007	-1.39810002	11	149	42
0.727530003	-0.580720007	-1.3987	11	149	42
0.727530003	-0.577870011	-1.39979994	11	149	42
0.724619985	-0.578090012	-1.40040004	11	149	42
0.725139976	-0.577009976	-1.40170002	11	149	42
0.724619985	-0.575280011	-1.40149999	11	149	42
0.721710026	-0.576900005	-1.40149999	11	149	42
0.721199989	-0.575169981	-1.40129995	11	149	42
0.721710026	-0.57407999	-1.40260005	11	149	42
0.722739995	-0.573310018	-1.40480006	11	149	42
0.723249972	-0.572170019	-1.40620005	11	149	42
0.720849991	-0.572709978	-1.40750003	11	149	42
0.720340014	-0.573849976	-1.40610003	11	149	42
0.719829977	-0.57494998	-1.40480006	11	149	42
0.719319999	-0.57604003	-1.40339994	11	149	42
0.716920018	-0.576579988	-1.40470004	11	149	42
0.717419982	-0.575489998	-1.40610003	11	149	42
0.717930019	-0.574389994	-1.40740001	11	149	42
0.717930019	-0.572920024	-1.40799999	11	149	42
0.718949974	-0.572080016	-1.4102	11	149	42
0.718949974	-0.570680022	-1.41079998	11	149	42
0.716030002	-0.570890009	-1.41129994	11	149	42
0.716539979	-0.572619975	-1.41159999	11	149	42
0.715529978	-0.573450029	-1.40939999	11	149	42
0.715529978	-0.574930012	-1.40880001	11	149	42
0.715020001	-0.576030016	-1.40740001	11	149	42
0.711600006	-0.574479997	-1.40769994	11	149	42
0.712109983	-0.573339999	-1.40910006	11	149	42
0.709699988	-0.57239002	-1.41100001	11	149	42
0.708689988	-0.573220015	-1.40880001	11	149	42
0.707679987	-0.574039996	-1.4066	11	149	42
0.710080028	-0.574930012	-1.40470004	11	149	42
0.709070027	-0.575689971	-1.40250003	11	149	42
0.712989986	-0.576139987	-1.40359998	11	149	42
0.713999987	-0.568210006	-1.40869999	11	149	42
0.715020001	-0.567489982	-1.41079998	11	149	42
0.712610006	-0.568019986	-1.41219997	11	149	42
0.712109983	-0.569060028	-1.41079998	11	149	42
0.713119984	-0.571099997	-1.41180003	11	149	42
0.714640021	-0.57348001	-1.41369998	11	149	42
0.716409981	-0.567680001	-1.40740001	11	149	42
0.706030011	-0.575119972	-1.39719999	11	149	42
0.703639984	-0.57565999	-1.39849997	11	149	42
0.700749993	-0.575860023	-1.39890003	11	149	42
0.70174998	-0.575119972	-1.40110004	11	149	42
0.705529988	-0.579039991	-1.39460003	11	149	42
0.70502001	-0.579959989	-1.39330006	11	149	42
0.702629983	-0.580500007	-1.39460003	11	149	42
0.701629996	-0.581099987	-1.39250004	11	149	42
0.701629996	-0.582530022	-1.39189994	11	149	42
0.703499973	-0.580229998	-1.39040005	11	149	42
0.703000009	-0.581319988	-1.38900006	11	149	42
0.703000009	-0.582759976	-1.38839996	11	149	42
0.70401001	-0.58494997	-1.38929999	11	149	42
0.703000009	-0.585720003	-1.38709998	11	149	42
0.702489972	-0.58664	-1.3858	11	149	42
0.705380023	-0.586440027	-1.38530004	11	149	42
0.705879986	-0.585510015	-1.38660002	11	149	42
0.706900001	-0.584739983	-1.38880002	11	149	42
0.705879986	-0.582549989	-1.38789999	11	149	42
0.706390023	-0.581449986	-1.38929999	11	149	42
0.706900001	-0.580349982	-1.39069998	11	149	42
0.707910001	-0.579750001	-1.39279997	11	149	42
0.707910001	-0.578499973	-1.39330006	11	149	42
0.710810006	-0.58081001	-1.39180005	11	149	42
0.710300028	-0.581900001	-1.39040005	11	149	42
0.709789991	-0.583010018	-1.38900006	11	149	42
0.709280014	-0.584190011	-1.38750005	11	149	42
0.708769977	-0.585300028	-1.38610005	11	149	42
0.708769977	-0.586560011	-1.38559997	11	149	42
0.711660028	-0.586350024	-1.38510001	11	149	42
0.711660028	-0.58762002	-1.38460004	11	149	42
0.710640013	-0.588349998	-1.38240004	11	149	42
0.71351999	-0.589529991	-1.38129997	11	149	42
0.714030027	-0.588469982	-1.38269997	11	149	42
0.714550018	-0.587400019	-1.38409996	11	149	42
0.717429996	-0.587180018	-1.38349998	11	149	42
0.717949986	-0.588919997	-1.38370001	11	149	42
0.716920018	-0.589649975	-1.38160002	11	149	42
0.719290018	-0.58908999	-1.38020003	11	149	42
0.721660018	-0.588530004	-1.37890005	11	149	42
0.7227	-0.587800026	-1.38110006	11	149	42
0.723730028	-0.587069988	-1.38329995	11	149	42
0.720839977	-0.588699996	-1.38320005	11	149	42
0.720319986	-0.586960018	-1.38300002	11	149	42
0.722379982	-0.587029994	-1.38670003	11	149	42
0.72341001	-0.586430013	-1.38880002	11	149	42
0.722379982	-0.584320009	-1.38789999	11	149	42
0.719489992	-0.584550023	-1.38839996	11	149	42
0.719489992	-0.585990012	-1.38779998	11	149	42
0.720000029	-0.587580025	-1.38800001	11	149	42
0.71608001	-0.58713001	-1.38699996	11	149	42
0.71608001	-0.585870028	-1.38750005	11	149	42
0.717109978	-0.585099995	-1.38970006	11	149	42
0.717109978	-0.583570004	-1.39030004	11	149	42
0.714209974	-0.583790004	-1.3908	11	149	42
0.713190019	-0.581690013	-1.38989997	11	149	42
0.715059996	-0.58081001	-1.38779998	11	149	42
0.712170005	-0.583980024	-1.38699996	11	149	42
0.711149991	-0.584749997	-1.38479996	11	149	42
0.707239985	-0.58822	-1.38209999	11	149	42
0.706229985	-0.588949978	-1.37989998	11	149	42
0.70520997	-0.589709997	-1.37769997	11	149	42
0.704699993	-0.59078002	-1.37629998	11	149	42
0.704190016	-0.59175998	-1.375	11	149	42
0.703170002	-0.592419982	-1.37279999	11	149	42
0.703170002	-0.593819976	-1.37220001	11	149	42
0.705529988	-0.593270004	-1.37090003	11	149	42
0.705529988	-0.594669998	-1.37030005	11	149	42
0.70502001	-0.595730007	-1.36889994	11	149	42
0.705529988	-0.597459972	-1.36909997	11	149	42
0.707889974	-0.596899986	-1.3678	11	149	42
0.707379997	-0.595179975	-1.36759996	11	149	42
0.706870019	-0.59750998	-1.36570001	11	149	42
0.709730029	-0.597289979	-1.36520004	11	149	42
0.710759997	-0.596679986	-1.36730003	11	149	42
0.711269975	-0.595640004	-1.36870003	11	149	42
0.713630021	-0.595080018	-1.36740005	11	149	42
0.713630021	-0.596459985	-1.36679995	11	149	42
0.712599993	-0.597069979	-1.36469996	11	149	42
0.711570024	-0.597689986	-1.36249995	11	149	42
0.711049974	-0.598730028	-1.36109996	11	149	42
0.711049974	-0.600099981	-1.36049998	11	149	42
0.710020006	-0.600730002	-1.35839999	11	149	42
0.712369978	-0.600160003	-1.35710001	11	149	42
0.711849988	-0.601140022	-1.35570002	11	149	42
0.712880015	-0.603190005	-1.35669994	11	149	42
0.711849988	-0.603850007	-1.35450006	11	149	42
0.709510028	-0.604420006	-1.35580003	11	149	42
0.70848	-0.605069995	-1.35360003	11	149	42
0.710300028	-0.604149997	-1.35160005	11	149	42
0.70927	-0.604799986	-1.34940004	11	149	42
0.706929982	-0.605379999	-1.35070002	11	149	42
0.704079986	-0.605599999	-1.35119998	11	149	42
0.704079986	-0.604250014	-1.35179996	11	149	42
0.703570008	-0.60255003	-1.35160005	11	149	42
0.704599977	-0.601890028	-1.35380006	11	149	42
0.705110013	-0.600889981	-1.35510004	11	149	42
0.706139982	-0.600260019	-1.35730004	11	149	42
0.703279972	-0.60048002	-1.35780001	11	149	42
0.702769995	-0.601450026	-1.35640001	11	149	42
0.702769995	-0.602810025	-1.35580003	11	149	42
0.700429976	-0.603370011	-1.35710001	11	149	42
0.700429976	-0.602020025	-1.35769999	11	149	42
0.70144999	-0.601390004	-1.3599	11	149	42
0.70144999	-0.600059986	-1.36039996	11	149	42
0.700940013	-0.598349988	-1.36029994	11	149	42
0.700429976	-0.596620023	-1.36010003	11	149	42
0.697570026	-0.59683001	-1.36059999	11	149	42
0.698080003	-0.595879972	-1.36189997	11	149	42
0.695729971	-0.596430004	-1.36319995	11	149	42
0.695230007	-0.597389996	-1.36179996	11	149	42
0.695230007	-0.598770022	-1.36119998	11	149	42
0.694209993	-0.599449992	-1.35899997	11	149	42
0.694209993	-0.600769997	-1.3585	11	149	42
0.69471997	-0.60244	-1.35870004	11	149	42
0.692369998	-0.602999985	-1.3599	11	149	42
0.690850019	-0.600629985	-1.35810006	11	149	42
0.690850019	-0.599309981	-1.35870004	11	149	42
0.691869974	-0.598630011	-1.36090004	11	149	42
0.692369998	-0.597599983	-1.36230004	11	149	42
0.692879975	-0.596639991	-1.36370003	11	149	42
0.690530002	-0.597190022	-1.36489999	11	149	42
0.690020025	-0.598150015	-1.36360002	11	149	42
0.689520001	-0.599179983	-1.36220002	11	149	42
0.688510001	-0.599860013	-1.36000001	11	149	42
0.688000023	-0.602159977	-1.35800004	11	149	42
0.686990023	-0.602819979	-1.35580003	11	149	42
0.684149981	-0.603020012	-1.3563	11	149	42
0.684149981	-0.601660013	-1.35689998	11	149	42
0.683650017	-0.59999001	-1.35669994	11	149	42
0.684650004	-0.599370003	-1.35889995	11	149	42
0.685150027	-0.598339975	-1.36029994	11	149	42
0.682810009	-0.59750998	-1.36210001	11	149	42
0.681810021	-0.598200023	-1.3599	11	149	42
0.681810021	-0.599569976	-1.35930002	11	149	42
0.679459989	-0.600120008	-1.36059999	11	149	42
0.679459989	-0.601440012	-1.36000001	11	149	42
0.677110016	-0.600660026	-1.36179996	11	149	42
0.676110029	-0.598590016	-1.36080003	11	149	42
0.676110029	-0.59720999	-1.36140001	11	149	42
0.67377001	-0.597750008	-1.36269999	11	149	42
0.67426002	-0.599479973	-1.3628	11	149	42
0.674759984	-0.601209998	-1.36300004	11	149	42
0.672410011	-0.60036999	-1.36489999	11	149	42
0.670920014	-0.597940028	-1.36310005	11	149	42
0.671419978	-0.595679998	-1.36500001	11	149	42
0.671909988	-0.594649971	-1.3664	11	149	42
0.672410011	-0.593599975	-1.3678	11	149	42
0.675260007	-0.593410015	-1.36740005	11	149	42
0.675260007	-0.596189976	-1.36619997	11	149	42
0.675750017	-0.597840011	-1.3664	11	149	42
0.678110003	-0.597299993	-1.36520004	11	149	42
0.678110003	-0.596000016	-1.36570001	11	149	42
0.67760998	-0.594269991	-1.36549997	11	149	42
0.679099977	-0.593909979	-1.36849999	11	149	42
0.680100024	-0.593190014	-1.3707	11	149	42
0.680100024	-0.591780007	-1.37129998	11	149	42
0.681599975	-0.591480017	-1.3743	11	149	42
0.682089984	-0.590499997	-1.3757	11	149	42
0.681100011	-0.58841002	-1.37469995	11	149	42
0.684960008	-0.588890016	-1.37580001	11	149	42
0.685959995	-0.590990007	-1.37679994	11	149	42
0.684960008	-0.591629982	-1.37460005	11	149	42
0.683960021	-0.592279971	-1.37249994	11	149	42
0.683960021	-0.593680024	-1.37189996	11	149	42
0.683960021	-0.595089972	-1.37129998	11	149	42
0.687319994	-0.593829989	-1.37220001	11	149	42
0.687820017	-0.595579982	-1.37240005	11	149	42
0.690689981	-0.595380008	-1.37189996	11	149	42
0.68967998	-0.596090019	-1.36969995	11	149	42
0.689180017	-0.597130001	-1.36829996	11	149	42
0.692040026	-0.596930027	-1.36790001	11	149	42
0.69253999	-0.595889986	-1.36930001	11	149	42
0.693050027	-0.594829977	-1.3707	11	149	42
0.693549991	-0.593770027	-1.3721	11	149	42
0.693549991	-0.59236002	-1.37269998	11	149	42
0.694060028	-0.591369987	-1.37399995	11	149	42
0.694559991	-0.590380013	-1.37539995	11	149	42
0.694559991	-0.588970006	-1.37600005	11	149	42
0.696929991	-0.588429987	-1.37469995	11	149	42
0.696420014	-0.58950001	-1.37329996	11	149	42
0.697430015	-0.591499984	-1.37440002	11	149	42
0.696929991	-0.592490017	-1.37300003	11	149	42
0.696420014	-0.59355998	-1.37160003	11	149	42
0.696420014	-0.594969988	-1.37100005	11	149	42
0.69878	-0.594410002	-1.36969995	11	149	42
0.698270023	-0.595470011	-1.36829996	11	149	42
0.697260022	-0.596170008	-1.36609995	11	149	42
0.694400012	-0.596369982	-1.36660004	11	149	42
0.694899976	-0.595340014	-1.36800003	11	149	42
0.699289978	-0.593349993	-1.37109995	11	149	42
0.699790001	-0.592289984	-1.37249994	11	149	42
0.700299978	-0.591289997	-1.37390006	11	149	42
0.699790001	-0.589630008	-1.37370002	11	149	42
