-0.0756239966	-0.684409976	-1.18550003	66	253	226
-0.0756060034	-0.684889972	-1.18640006	66	253	226
-0.0756060034	-0.684920013	-1.18640006	66	253	226
-0.0755890012	-0.685389996	-1.18719995	66	253	226
-0.0755890012	-0.685400009	-1.18719995	66	253	226
-0.0755890012	-0.685419977	-1.18719995	66	253	226
-0.0755890012	-0.685329974	-1.18729997	66	253	226
-0.0755890012	-0.685299993	-1.18729997	66	253	226
-0.0755890012	-0.68513	-1.18739998	66	253	226
-0.0755890012	-0.685039997	-1.1875	66	253	226
-0.0755710006	-0.68532002	-1.18840003	66	253	226
-0.0755710006	-0.685559988	-1.18830001	66	253	226
-0.0755710006	-0.685720026	-1.1882	66	253	226
-0.0755710006	-0.685890019	-1.18809998	66	253	226
-0.0755539984	-0.68629998	-1.18900001	66	253	226
-0.0755539984	-0.686360002	-1.18900001	66	253	226
-0.0755539984	-0.686370015	-1.18900001	66	253	226
-0.0755539984	-0.686420023	-1.18900001	66	253	226
-0.0755539984	-0.685949981	-1.18920004	66	253	226
-0.0755539984	-0.685940027	-1.18920004	66	253	226
-0.0755539984	-0.685159981	-1.18970001	66	253	226
-0.0755539984	-0.685119987	-1.18970001	66	253	226
-0.0755539984	-0.684539974	-1.19000006	66	253	226
-0.0755539984	-0.684289992	-1.19019997	66	253	226
-0.0755710006	-0.68404001	-1.18920004	66	253	226
-0.0755710006	-0.68483001	-1.18869996	66	253	226
-0.0755890012	-0.683539987	-1.18830001	66	253	226
-0.0756060034	-0.683040023	-1.18739998	66	253	226
-0.077748999	-0.681739986	-1.1882	66	253	226
-0.0798780024	-0.683570027	-1.18840003	66	253	226
-0.0798780024	-0.684360027	-1.18789995	66	253	226
-0.0798640028	-0.684689999	-1.18889999	66	253	226
-0.0798640028	-0.684319973	-1.18910003	66	253	226
-0.0798640028	-0.684069991	-1.18920004	66	253	226
-0.0798500031	-0.684570014	-1.19009995	66	253	226
-0.0798500031	-0.684319973	-1.19019997	66	253	226
-0.0798500031	-0.68502003	-1.18980002	66	253	226
-0.0798500031	-0.685859978	-1.18939996	66	253	226
-0.0798500031	-0.686070025	-1.18920004	66	253	226
-0.0798500031	-0.686100006	-1.18920004	66	253	226
-0.0798500031	-0.68641001	-1.18900001	66	253	226
-0.0798500031	-0.686450005	-1.18900001	66	253	226
-0.0798640028	-0.685949981	-1.1882	66	253	226
-0.0798640028	-0.685940027	-1.1882	66	253	226
-0.0798640028	-0.685890019	-1.1882	66	253	226
-0.0798640028	-0.685750008	-1.18830001	66	253	226
-0.0798780024	-0.685329974	-1.18739998	66	253	226
-0.079892002	-0.684859991	-1.18649995	66	253	226
-0.079892002	-0.684480011	-1.18669999	66	253	226
-0.0799060017	-0.682630002	-1.18659997	66	253	226
-0.0820349976	-0.683089972	-1.1875	66	253	226
-0.0820349976	-0.684880018	-1.18649995	66	253	226
-0.0820230022	-0.685469985	-1.18729997	66	253	226
-0.0820230022	-0.685400009	-1.18739998	66	253	226
-0.084168002	-0.685419977	-1.18739998	66	253	226
-0.084168002	-0.685450017	-1.18739998	66	253	226
-0.084168002	-0.685479999	-1.18729997	66	253	226
-0.0841780007	-0.684949994	-1.18649995	66	253	226
-0.0841780007	-0.684889972	-1.18649995	66	253	226
-0.0884649977	-0.684819996	-1.18659997	66	253	226
-0.0884649977	-0.684759974	-1.18659997	66	253	226
-0.0884649977	-0.684400022	-1.1868	66	253	226
-0.0884649977	-0.684279978	-1.18690002	66	253	226
-0.0884649977	-0.683910012	-1.18710005	66	253	226
-0.0884649977	-0.683700025	-1.18719995	66	253	226
-0.0884649977	-0.683170021	-1.18760002	66	253	226
-0.0884649977	-0.683120012	-1.18760002	66	253	226
-0.0884649977	-0.682869971	-1.18770003	66	253	226
-0.0884720013	-0.682619989	-1.18669999	66	253	226
-0.0884789973	-0.682120025	-1.18589997	66	253	226
-0.0884860009	-0.681620002	-1.18499994	66	253	226
-0.0906080008	-0.683130026	-1.18760002	66	253	226
-0.0906030014	-0.683619976	-1.18850005	66	253	226
-0.0906030014	-0.684210002	-1.18809998	66	253	226
-0.0906030014	-0.684909999	-1.18770003	66	253	226
-0.0927480012	-0.684909999	-1.18770003	66	253	226
-0.0927480012	-0.685329974	-1.1875	66	253	226
-0.0927480012	-0.685389996	-1.1875	66	253	226
-0.0927480012	-0.685500026	-1.18739998	66	253	226
-0.0927509964	-0.684920013	-1.18659997	66	253	226
-0.0927549973	-0.684270024	-1.18579996	66	253	226
-0.0906030014	-0.682820022	-1.18889999	66	253	226
-0.0884580016	-0.683619976	-1.18850005	66	253	226
-0.0884580016	-0.684069991	-1.1882	66	253	226
-0.0884580016	-0.684199989	-1.18809998	66	253	226
-0.0884509981	-0.684819996	-1.18889999	66	253	226
-0.0884509981	-0.684700012	-1.18900001	66	253	226
-0.0884509981	-0.684689999	-1.18900001	66	253	226
-0.0884509981	-0.684119999	-1.18929994	66	253	226
-0.088444002	-0.684870005	-1.19000006	66	253	226
-0.088444002	-0.684620023	-1.19019997	66	253	226
-0.088444002	-0.685199976	-1.18980002	66	253	226
-0.088444002	-0.685259998	-1.18980002	66	253	226
-0.088444002	-0.685500026	-1.18970001	66	253	226
-0.088444002	-0.685710013	-1.18959999	66	253	226
-0.088444002	-0.686020017	-1.18939996	66	253	226
-0.088444002	-0.686140001	-1.18929994	66	253	226
-0.088444002	-0.686380029	-1.18920004	66	253	226
-0.088444002	-0.686469972	-1.18910003	66	253	226
-0.088444002	-0.686469972	-1.18910003	66	253	226
-0.0884509981	-0.68599999	-1.1882	66	253	226
-0.0884509981	-0.68599999	-1.1882	66	253	226
-0.0884509981	-0.685519993	-1.18850005	66	253	226
-0.0884580016	-0.685469985	-1.18739998	66	253	226
-0.0884509981	-0.681949973	-1.19060004	66	253	226
-0.088444002	-0.68216002	-1.19159997	66	253	226
-0.088444002	-0.682739973	-1.19130003	66	253	226
-0.0862689987	-0.681800008	-1.19519997	66	253	226
-0.0862689987	-0.681400001	-1.19550002	66	253	226
-0.0862689987	-0.680190027	-1.19620001	66	253	226
-0.0862609968	-0.680260003	-1.19729996	66	253	226
-0.0862609968	-0.679849982	-1.19749999	66	253	226
-0.0862609968	-0.679369986	-1.19780004	66	253	226
-0.0862519965	-0.678359985	-1.19949996	66	253	226
-0.0862430036	-0.679870009	-1.19980001	66	253	226
-0.0862350017	-0.678799987	-1.20150006	66	253	226
-0.0862350017	-0.678260028	-1.20179999	66	253	226
-0.0862260014	-0.680350006	-1.20179999	66	253	226
-0.084073998	-0.679840028	-1.20089996	66	253	226
-0.084073998	-0.679329991	-1.20120001	66	253	226
-0.084073998	-0.680360019	-1.20060003	66	253	226
-0.084073998	-0.680840015	-1.20039999	66	253	226
-0.0819140002	-0.681299984	-1.20009995	66	253	226
-0.0819140002	-0.681720018	-1.19980001	66	253	226
-0.0819260031	-0.68204999	-1.19850004	66	253	226
-0.0819140002	-0.68295002	-1.19910002	66	253	226
-0.0797529966	-0.682940006	-1.19910002	66	253	226
-0.0797670037	-0.682039976	-1.19850004	66	253	226
-0.0797670037	-0.681640029	-1.19869995	66	253	226
-0.0797670037	-0.681219995	-1.19889998	66	253	226
-0.0797670037	-0.680800021	-1.19920003	66	253	226
-0.0797529966	-0.680329978	-1.20060003	66	253	226
-0.0797389969	-0.681309998	-1.20120001	66	253	226
-0.0797389969	-0.679799974	-1.20200002	66	253	226
-0.0819140002	-0.679830015	-1.20089996	66	253	226
-0.0819260031	-0.678830028	-1.20029998	66	253	226
-0.081900999	-0.680840015	-1.20150006	66	253	226
-0.081900999	-0.681320012	-1.20120001	66	253	226
-0.0840530023	-0.679769993	-1.2033	66	253	226
-0.0840639994	-0.678740025	-1.20270002	66	253	226
-0.0862170011	-0.678260028	-1.20410001	66	253	226
-0.0862089992	-0.678149998	-1.20529997	66	253	226
-0.0861999989	-0.678030014	-1.20659995	66	253	226
-0.0861909986	-0.67790997	-1.20780003	66	253	226
-0.0861909986	-0.677299976	-1.20809996	66	253	226
-0.0861909986	-0.67614001	-1.20879996	66	253	226
-0.0861829966	-0.675180018	-1.21039999	66	253	226
-0.0861999989	-0.673609972	-1.20899999	66	253	226
-0.0861999989	-0.673009992	-1.20940006	66	253	226
-0.0861999989	-0.672280014	-1.2098	66	253	226
-0.0840430036	-0.672519982	-1.20850003	66	253	226
-0.0840319991	-0.673600018	-1.20899999	66	253	226
-0.0840319991	-0.674199998	-1.20869994	66	253	226
-0.0840220004	-0.676129997	-1.20879996	66	253	226
-0.0840110034	-0.677200019	-1.20930004	66	253	226
-0.0840319991	-0.676800013	-1.20720005	66	253	226
-0.0840319991	-0.677410007	-1.2069	66	253	226
-0.0840430036	-0.677529991	-1.20570004	66	253	226
-0.0840430036	-0.678139985	-1.20529997	66	253	226
-0.0840319991	-0.679229975	-1.20589995	66	253	226
-0.0840319991	-0.679719985	-1.20560002	66	253	226
-0.0861999989	-0.679729998	-1.20560002	66	253	226
-0.0883750021	-0.678759992	-1.20500004	66	253	226
-0.0883750021	-0.678160012	-1.20539999	66	253	226
-0.0883679986	-0.678040028	-1.20659995	66	253	226
-0.0883610025	-0.677919984	-1.20780003	66	253	226
-0.0883610025	-0.67730999	-1.20809996	66	253	226
-0.0883610025	-0.67614001	-1.20879996	66	253	226
-0.0883679986	-0.67493999	-1.20829999	66	253	226
-0.0883679986	-0.673619986	-1.20910001	66	253	226
-0.088353999	-0.673990011	-1.21109998	66	253	226
-0.0883470029	-0.673749983	-1.21239996	66	253	226
-0.0883399993	-0.673489988	-1.21370006	66	253	226
-0.0883399993	-0.676169991	-1.21220005	66	253	226
-0.0905139968	-0.675570011	-1.21259999	66	253	226
-0.0905200019	-0.675689995	-1.21130002	66	253	226
-0.0905250013	-0.674000025	-1.21109998	66	253	226
-0.090535	-0.672299981	-1.2098	66	253	226
-0.0926960036	-0.673269987	-1.21159995	66	253	226
-0.0926960036	-0.675199986	-1.2105	66	253	226
-0.0926989987	-0.675440013	-1.20920002	66	253	226
-0.0927029997	-0.676249981	-1.2076	66	253	226
-0.0926989987	-0.677320004	-1.20819998	66	253	226
-0.0926989987	-0.677929997	-1.20780003	66	253	226
-0.0905300006	-0.677929997	-1.20780003	66	253	226
-0.0905300006	-0.676150024	-1.20879996	66	253	226
-0.090535	-0.674950004	-1.20829999	66	253	226
-0.0905399993	-0.676339984	-1.20640004	66	253	226
-0.0905399993	-0.677559972	-1.20570004	66	253	226
-0.090545997	-0.678770006	-1.20389998	66	253	226
-0.0905509964	-0.677779973	-1.2033	66	253	226
-0.0905560032	-0.676699996	-1.20280004	66	253	226
-0.0905610025	-0.677779973	-1.20099998	66	253	226
-0.0905610025	-0.678319991	-1.20070004	66	253	226
-0.0905660018	-0.678369999	-1.19949996	66	253	226
-0.0905610025	-0.67938	-1.20009995	66	253	226
-0.0905610025	-0.680369973	-1.19949996	66	253	226
-0.0905660018	-0.680350006	-1.19840002	66	253	226
-0.0905660018	-0.68076998	-1.19819999	66	253	226
-0.0905660018	-0.681599975	-1.19770002	66	253	226
-0.0905660018	-0.681999981	-1.19749999	66	253	226
-0.0905719995	-0.681909978	-1.19640005	66	253	226
-0.0905719995	-0.680700004	-1.19700003	66	253	226
-0.0884160027	-0.680689991	-1.19700003	66	253	226
-0.0884089991	-0.68076998	-1.19809997	66	253	226
-0.0884089991	-0.680350006	-1.19840002	66	253	226
-0.088402003	-0.680360019	-1.19949996	66	253	226
-0.088402003	-0.679880023	-1.19980001	66	253	226
-0.0884089991	-0.678879976	-1.19920003	66	253	226
-0.088402003	-0.678860009	-1.20039999	66	253	226
-0.088402003	-0.678319991	-1.20070004	66	253	226
-0.0883949995	-0.678269982	-1.20190001	66	253	226
-0.0883809999	-0.678759992	-1.20389998	66	253	226
-0.0905509964	-0.680869997	-1.20150006	66	253	226
-0.0927129984	-0.68088001	-1.20159996	66	253	226
-0.0927129984	-0.681360006	-1.20130002	66	253	226
-0.0927100033	-0.680859983	-1.20270002	66	253	226
-0.0927100033	-0.680339992	-1.20299995	66	253	226
-0.0927100033	-0.678770006	-1.20389998	66	253	226
-0.0927100033	-0.678279996	-1.20420003	66	253	226
-0.0927100033	-0.677070022	-1.20490003	66	253	226
-0.0948719978	-0.678170025	-1.20539999	66	253	226
-0.094874002	-0.678279996	-1.20420003	66	253	226
-0.0948719978	-0.680299997	-1.20420003	66	253	226
-0.0948709995	-0.679759979	-1.20560002	66	253	226
-0.0948709995	-0.678049982	-1.20659995	66	253	226
-0.0948690027	-0.677929997	-1.20780003	66	253	226
-0.0970380008	-0.677929997	-1.20780003	66	253	226
-0.0970380008	-0.678539991	-1.20749998	66	253	226
-0.0970380008	-0.679159999	-1.20710003	66	253	226
-0.0970380008	-0.678770006	-1.20510006	66	253	226
-0.0970380008	-0.679270029	-1.20480001	66	253	226
-0.0992039964	-0.679260015	-1.20480001	66	253	226
-0.0992060006	-0.679260015	-1.20589995	66	253	226
-0.0992100015	-0.679650009	-1.20799994	66	253	226
-0.0992100015	-0.679030001	-1.20829999	66	253	226
-0.0992100015	-0.676649988	-1.20969999	66	253	226
-0.0970380008	-0.676649988	-1.20969999	66	253	226
-0.0970380008	-0.675930023	-1.21010005	66	253	226
-0.0970380008	-0.674719989	-1.20959997	66	253	226
-0.0970380008	-0.674610019	-1.21080005	66	253	226
-0.0970380008	-0.674489975	-1.21200001	66	253	226
-0.0970380008	-0.674250007	-1.21329999	66	253	226
-0.0970380008	-0.673990011	-1.21459997	66	253	226
-0.0970380008	-0.672990024	-1.21630001	66	253	226
-0.0970380008	-0.671800017	-1.21580005	66	253	226
-0.0970389992	-0.672049999	-1.21800005	66	253	226
-0.0970389992	-0.670469999	-1.21879995	66	253	226
-0.0970380008	-0.669260025	-1.2184	66	253	226
-0.0970389992	-0.669019997	-1.21959996	66	253	226
-0.0970389992	-0.668609977	-1.22099996	66	253	226
-0.0970389992	-0.667209983	-1.22060001	66	253	226
-0.0992180035	-0.667209983	-1.22060001	66	253	226
-0.0992200002	-0.666899979	-1.22189999	66	253	226
-0.099221997	-0.669080019	-1.22189999	66	253	226
-0.0992240012	-0.670459986	-1.22230005	66	253	226
-0.101410002	-0.668640018	-1.22319996	66	253	226
-0.101410002	-0.667859972	-1.22370005	66	253	226
-0.101410002	-0.666589975	-1.22319996	66	253	226
-0.101410002	-0.665679991	-1.22370005	66	253	226
-0.101410002	-0.665719986	-1.22599995	66	253	226
-0.103589997	-0.66523999	-1.22510004	66	253	226
-0.103600003	-0.666639984	-1.22549999	66	253	226
-0.103600003	-0.667540014	-1.22500002	66	253	226
-0.103589997	-0.667850018	-1.22370005	66	253	226
-0.103589997	-0.668160021	-1.22239995	66	253	226
-0.103579998	-0.668600023	-1.22099996	66	253	226
-0.103579998	-0.669009984	-1.21959996	66	253	226
-0.103569999	-0.669260025	-1.21829998	66	253	226
-0.101389997	-0.669260025	-1.21829998	66	253	226
-0.101389997	-0.66997999	-1.21790004	66	253	226
-0.101389997	-0.668540001	-1.21870005	66	253	226
-0.101400003	-0.668120027	-1.22010005	66	253	226
-0.0992180035	-0.669749975	-1.21920002	66	253	226
-0.0992180035	-0.670469999	-1.21879995	66	253	226
-0.0992200002	-0.671739995	-1.21930003	66	253	226
-0.0992200002	-0.672529995	-1.21879995	66	253	226
-0.101400003	-0.672529995	-1.21879995	66	253	226
-0.101400003	-0.671739995	-1.21930003	66	253	226
-0.103579998	-0.671729982	-1.21930003	66	253	226
-0.103589997	-0.671429992	-1.22060001	66	253	226
-0.105769999	-0.670939982	-1.21969998	66	253	226
-0.105760001	-0.671249986	-1.2184	66	253	226
-0.105760001	-0.672039986	-1.21790004	66	253	226
-0.105769999	-0.673229992	-1.2184	66	253	226
-0.107940003	-0.672739983	-1.21749997	66	253	226
-0.107929997	-0.671549976	-1.21700001	66	253	226
-0.107919998	-0.670270026	-1.21659994	66	253	226
-0.110100001	-0.670260012	-1.21659994	66	253	226
-0.11011	-0.671530008	-1.21700001	66	253	226
-0.110119998	-0.672730029	-1.21749997	66	253	226
-0.110100001	-0.672469974	-1.21539998	66	253	226
-0.112269998	-0.671750009	-1.21570003	66	253	226
-0.112259999	-0.670560002	-1.21519995	66	253	226
-0.112290002	-0.670729995	-1.21739995	66	253	226
-0.11231	-0.670910001	-1.21959996	66	253	226
-0.112319998	-0.670660019	-1.22090006	66	253	226
-0.11231	-0.668560028	-1.22090006	66	253	226
-0.112319998	-0.668120027	-1.22230005	66	253	226
-0.112319998	-0.667339981	-1.2227	66	253	226
-0.112319998	-0.666549981	-1.22309995	66	253	226
-0.114519998	-0.667010009	-1.22399998	66	253	226
-0.114519998	-0.667800009	-1.22360003	66	253	226
-0.11451	-0.668110013	-1.22230005	66	253	226
-0.114490002	-0.668550014	-1.22090006	66	253	226
-0.11451	-0.669920027	-1.22130001	66	253	226
-0.114480004	-0.669690013	-1.2191	66	253	226
-0.114459999	-0.669929981	-1.21780002	66	253	226
-0.116640002	-0.66918999	-1.21819997	66	253	226
-0.116630003	-0.669430017	-1.21689999	66	253	226
-0.118799999	-0.668690026	-1.21730006	66	253	226
-0.118780002	-0.669719994	-1.21560001	66	253	226
-0.118770003	-0.668449998	-1.21519995	66	253	226
-0.116580002	-0.668770015	-1.21389997	66	253	226
-0.116590001	-0.670040011	-1.21430004	66	253	226
-0.114419997	-0.670059979	-1.21430004	66	253	226
-0.114409998	-0.668789983	-1.21389997	66	253	226
-0.114390001	-0.671989977	-1.21099997	66	253	226
-0.114409998	-0.675149977	-1.21039999	66	253	226
-0.114390001	-0.676100016	-1.20869994	66	253	226
-0.114380002	-0.676769972	-1.20720005	66	253	226
-0.114380002	-0.677389979	-1.20679998	66	253	226
-0.114370003	-0.675700009	-1.20659995	66	253	226
-0.114349999	-0.677020013	-1.20480001	66	253	226
-0.114349999	-0.677630007	-1.20439994	66	253	226
-0.11434	-0.678219974	-1.20290005	66	253	226
-0.114349999	-0.679210007	-1.20350003	66	253	226
-0.114349999	-0.679750025	-1.20319998	66	253	226
-0.11434	-0.679799974	-1.20200002	66	253	226
-0.114320002	-0.680329978	-1.20060003	66	253	226
-0.114320002	-0.681289971	-1.20000005	66	253	226
-0.11434	-0.681309998	-1.20120001	66	253	226
-0.114309996	-0.679329991	-1.20000005	66	253	226
-0.114299998	-0.681140006	-1.19780004	66	253	226
-0.114299998	-0.681540012	-1.19760001	66	253	226
-0.11428	-0.680230021	-1.19719994	66	253	226
-0.114270002	-0.68096	-1.19560003	66	253	226
-0.114270002	-0.681770027	-1.19519997	66	253	226
-0.114270002	-0.682190001	-1.19490004	66	253	226
-0.114249997	-0.682099998	-1.19379997	66	253	226
-0.114239998	-0.681959987	-1.19280005	66	253	226
-0.114249997	-0.683690012	-1.19289994	66	253	226
-0.114249997	-0.684249997	-1.19260001	66	253	226
-0.114239998	-0.683489978	-1.19190001	66	253	226
-0.114270002	-0.685010016	-1.19330001	66	253	226
-0.114270002	-0.683309972	-1.19430006	66	253	226
-0.114299998	-0.684589982	-1.19589996	66	253	226
-0.114299998	-0.684889972	-1.19570005	66	253	226
-0.11214	-0.684899986	-1.19570005	66	253	226
-0.11214	-0.684610009	-1.19589996	66	253	226
-0.11214	-0.685199976	-1.19550002	66	253	226
-0.112130001	-0.684989989	-1.19449997	66	253	226
-0.112130001	-0.685259998	-1.19439995	66	253	226
-0.109980002	-0.68520999	-1.19560003	66	253	226
-0.109980002	-0.684920013	-1.19570005	66	253	226
-0.107819997	-0.685220003	-1.19560003	66	253	226
-0.107819997	-0.682799995	-1.19700003	66	253	226
-0.107819997	-0.682389975	-1.19719994	66	253	226
-0.107819997	-0.681990027	-1.19739997	66	253	226
-0.107819997	-0.681580007	-1.19770002	66	253	226
-0.107830003	-0.68167001	-1.19879997	66	253	226
-0.107819997	-0.680339992	-1.19840002	66	253	226
-0.107819997	-0.67938	-1.19889998	66	253	226
-0.107819997	-0.679369986	-1.19780004	66	253	226
-0.107809998	-0.679769993	-1.19640005	66	253	226
-0.10565	-0.679780006	-1.19640005	66	253	226
-0.10565	-0.678870022	-1.19579995	66	253	226
-0.105659999	-0.67938	-1.19780004	66	253	226
-0.105669998	-0.681190014	-1.19790006	66	253	226
-0.105669998	-0.681590021	-1.19770002	66	253	226
-0.105669998	-0.682489991	-1.1983	66	253	226
-0.105669998	-0.682889998	-1.19809997	66	253	226
-0.105679996	-0.683790028	-1.19869995	66	253	226
-0.103519998	-0.683309972	-1.19790006	66	253	226
-0.10351	-0.682399988	-1.19719994	66	253	226
-0.10351	-0.681999981	-1.19749999	66	253	226
-0.10351	-0.681599975	-1.19770002	66	253	226
-0.103500001	-0.680700004	-1.19700003	66	253	226
-0.10351	-0.679880023	-1.19869995	66	253	226
-0.10351	-0.679390013	-1.19889998	66	253	226
-0.103519998	-0.67938	-1.20009995	66	253	226
-0.103519998	-0.678860009	-1.20039999	66	253	226
-0.103519998	-0.678319991	-1.20070004	66	253	226
-0.103519998	-0.677290022	-1.20239997	66	253	226
-0.103529997	-0.678269982	-1.20299995	66	253	226
-0.103529997	-0.679260015	-1.20360005	66	253	226
-0.103529997	-0.677190006	-1.20360005	66	253	226
-0.103529997	-0.676580012	-1.204	66	253	226
-0.103529997	-0.675970018	-1.20430005	66	253	226
-0.103529997	-0.675849974	-1.20550001	66	253	226
-0.103540003	-0.676240027	-1.2076	66	253	226
-0.103540003	-0.675660014	-1.20790005	66	253	226
-0.103540003	-0.674459994	-1.20749998	66	253	226
-0.103540003	-0.673740029	-1.20790005	66	253	226
-0.103540003	-0.673629999	-1.20910001	66	253	226
-0.10571	-0.673619986	-1.20910001	66	253	226
-0.10571	-0.674220026	-1.20869994	66	253	226
-0.10571	-0.67493999	-1.20829999	66	253	226
-0.105700001	-0.675170004	-1.20700002	66	253	226
-0.105700001	-0.676940024	-1.20599997	66	253	226
-0.105690002	-0.676569998	-1.204	66	253	226
-0.105679996	-0.676689982	-1.20270002	66	253	226
-0.105669998	-0.676800013	-1.20150006	66	253	226
-0.105669998	-0.676789999	-1.20039999	66	253	226
-0.105679996	-0.678269982	-1.20190001	66	253	226
-0.105679996	-0.67881	-1.20159996	66	253	226
-0.105679996	-0.679350019	-1.20120001	66	253	226
-0.105669998	-0.679369986	-1.20009995	66	253	226
-0.105669998	-0.679880023	-1.19980001	66	253	226
-0.107830003	-0.679359972	-1.20009995	66	253	226
-0.107830003	-0.678309977	-1.20070004	66	253	226
-0.107840002	-0.678260028	-1.20179999	66	253	226
-0.107840002	-0.677770019	-1.20210004	66	253	226
-0.107840002	-0.677280009	-1.20239997	66	253	226
-0.107859999	-0.677659988	-1.20449996	66	253	226
-0.107859999	-0.677049994	-1.20480001	66	253	226
-0.107859999	-0.676440001	-1.20519996	66	253	226
-0.107869998	-0.676320016	-1.20640004	66	253	226
-0.107869998	-0.675159991	-1.20700002	66	253	226
-0.107859999	-0.67395997	-1.20659995	66	253	226
-0.107879996	-0.674210012	-1.20869994	66	253	226
-0.107890002	-0.674099982	-1.20990002	66	253	226
-0.107890002	-0.677209973	-1.20930004	66	253	226
-0.110079996	-0.677680016	-1.21019995	66	253	226
-0.105729997	-0.678290009	-1.20990002	66	253	226
-0.105740003	-0.678189993	-1.21109998	66	253	226
-0.101379998	-0.675930023	-1.21010005	66	253	226
-0.0992060006	-0.674960017	-1.20829999	66	253	226
-0.0992039964	-0.673740029	-1.20790005	66	253	226
-0.0992060006	-0.673629999	-1.20910001	66	253	226
-0.0992079973	-0.673520029	-1.21029997	66	253	226
-0.101369999	-0.672550023	-1.20850003	66	253	226
-0.0992010012	-0.674790025	-1.20500004	66	253	226
-0.099198997	-0.674880028	-1.20379996	66	253	226
-0.099198997	-0.675490022	-1.20350003	66	253	226
-0.099198997	-0.678279996	-1.20190001	66	253	226
-0.0991970003	-0.678870022	-1.20039999	66	253	226
-0.0991970003	-0.67938	-1.20009995	66	253	226
-0.0991970003	-0.679899991	-1.19980001	66	253	226
-0.099198997	-0.681349993	-1.20009995	66	253	226
-0.0970380008	-0.68088001	-1.20159996	66	253	226
-0.0970380008	-0.679859996	-1.20210004	66	253	226
-0.0970380008	-0.679880023	-1.20099998	66	253	226
-0.0970380008	-0.677789986	-1.20099998	66	253	226
-0.0948790014	-0.677789986	-1.20099998	66	253	226
-0.0927200019	-0.677789986	-1.20099998	66	253	226
-0.0927200019	-0.678330004	-1.20070004	66	253	226
-0.0927200019	-0.676209986	-1.20190001	66	253	226
-0.094874002	-0.675859988	-1.20550001	66	253	226
-0.0948719978	-0.675759971	-1.20669997	66	253	226
-0.094874002	-0.673979998	-1.20659995	66	253	226
-0.0948719978	-0.673740029	-1.20790005	66	253	226
-0.0948709995	-0.672309995	-1.2098	66	253	226
-0.0927100033	-0.674690008	-1.2062	66	253	226
-0.0970380008	-0.675759971	-1.20669997	66	253	226
-0.0970380008	-0.676829994	-1.20729995	66	253	226
-0.0948650017	-0.677129984	-1.21060002	66	253	226
-0.0905200019	-0.677709997	-1.21019995	66	253	226
-0.0883470029	-0.677699983	-1.21019995	66	253	226
-0.0861739963	-0.677690029	-1.21019995	66	253	226
-0.0862170011	-0.67395997	-1.20659995	66	253	226
-0.0840639994	-0.673460007	-1.20570004	66	253	226
-0.0818890035	-0.673940003	-1.20650005	66	253	226
-0.0797109976	-0.674409986	-1.20739996	66	253	226
-0.079696998	-0.673579991	-1.20899999	66	253	226
-0.0796829984	-0.674660027	-1.20949996	66	253	226
-0.0775140002	-0.67464	-1.20949996	66	253	226
-0.0774979964	-0.675859988	-1.21000004	66	253	226
-0.0774979964	-0.676569998	-1.20959997	66	253	226
-0.0775140002	-0.676670015	-1.20840001	66	253	226
-0.0796689987	-0.677169979	-1.20930004	66	253	226
-0.0796549991	-0.677079976	-1.2105	66	253	226
-0.0753099993	-0.677630007	-1.21010005	66	253	226
-0.0753279999	-0.676549971	-1.20949996	66	253	226
-0.0731569976	-0.67711997	-1.20920002	66	253	226
-0.0731379986	-0.676310003	-1.21080005	66	253	226
-0.0731180012	-0.677510023	-1.2112	66	253	226
-0.0709439963	-0.677489996	-1.2112	66	253	226
-0.0709860027	-0.675800025	-1.2098	66	253	226
-0.0710069984	-0.673990011	-1.20969999	66	253	226
-0.0710280016	-0.674099982	-1.20850003	66	253	226
-0.0710280016	-0.676119983	-1.20739996	66	253	226
-0.0710489973	-0.676209986	-1.2062	66	253	226
-0.0710700005	-0.67632997	-1.20500004	66	253	226
-0.0710700005	-0.676940024	-1.20459998	66	253	226
-0.0710700005	-0.677550018	-1.20430005	66	253	226
-0.0710280016	-0.679130018	-1.20570004	66	253	226
-0.0710069984	-0.680109978	-1.20630002	66	253	226
-0.0710069984	-0.680610001	-1.20599997	66	253	226
-0.0710280016	-0.680660009	-1.20480001	66	253	226
-0.0710700005	-0.680209994	-1.20280004	66	253	226
-0.0711110011	-0.679740012	-1.20070004	66	253	226
-0.0711319968	-0.679759979	-1.19959998	66	253	226
-0.0711110011	-0.680739999	-1.20019996	66	253	226
-0.0711110011	-0.681219995	-1.19990003	66	253	226
-0.0710910037	-0.682129979	-1.20050001	66	253	226
-0.0689290017	-0.682110012	-1.20050001	66	253	226
-0.0689290017	-0.681209981	-1.20099998	66	253	226
-0.0689510033	-0.681190014	-1.19990003	66	253	226
-0.0689510033	-0.679719985	-1.20070004	66	253	226
-0.0689510033	-0.679210007	-1.20099998	66	253	226
-0.0689060017	-0.681219995	-1.20220006	66	253	226
-0.0688830018	-0.680140018	-1.20389998	66	253	226
-0.0688610002	-0.6796	-1.20539999	66	253	226
-0.0688830018	-0.678619981	-1.20480001	66	253	226
-0.0689290017	-0.677039981	-1.20340002	66	253	226
-0.0689290017	-0.676429987	-1.20369995	66	253	226
-0.066742003	-0.676890016	-1.20449996	66	253	226
-0.0667179972	-0.677990019	-1.20510006	66	253	226
-0.0667179972	-0.67859	-1.20469999	66	253	226
-0.0667179972	-0.680119991	-1.20389998	66	253	226
-0.0667179972	-0.681689978	-1.20299995	66	253	226
-0.066742003	-0.681680024	-1.20179999	66	253	226
-0.0667669997	-0.682079971	-1.20050001	66	253	226
-0.0667669997	-0.682500005	-1.20019996	66	253	226
-0.066790998	-0.682410002	-1.19910002	66	253	226
-0.066790998	-0.683220029	-1.19869995	66	253	226
-0.066790998	-0.684819996	-1.19770002	66	253	226
-0.0646829978	-0.68344003	-1.19620001	66	253	226
-0.0646829978	-0.683030009	-1.19640005	66	253	226
-0.0647099987	-0.683300018	-1.19509995	66	253	226
-0.0647099987	-0.683650017	-1.19490004	66	253	226
-0.0647099987	-0.683950007	-1.1947	66	253	226
-0.0647099987	-0.68483001	-1.19420004	66	253	226
-0.0647099987	-0.685090005	-1.19410002	66	253	226
-0.0647360012	-0.68404001	-1.19350004	66	253	226
-0.0647620037	-0.684360027	-1.19219995	66	253	226
-0.0647620037	-0.685419977	-1.19159997	66	253	226
-0.0647620037	-0.685869992	-1.19130003	66	253	226
-0.0647620037	-0.685949981	-1.19130003	66	253	226
-0.0647620037	-0.68599999	-1.19120002	66	253	226
-0.0647620037	-0.686309993	-1.1911	66	253	226
-0.0647620037	-0.686439991	-1.19099998	66	253	226
-0.0647620037	-0.687210023	-1.19050002	66	253	226
-0.0647879988	-0.686739981	-1.18970001	66	253	226
-0.0647879988	-0.686730027	-1.18970001	66	253	226
-0.0647879988	-0.686770022	-1.18959999	66	253	226
-0.0647879988	-0.686789989	-1.18959999	66	253	226
-0.0647879988	-0.686800003	-1.18959999	66	253	226
-0.0647879988	-0.686800003	-1.18959999	66	253	226
-0.0647879988	-0.68633002	-1.18990004	66	253	226
-0.0647879988	-0.686320007	-1.18990004	66	253	226
-0.0647879988	-0.686079979	-1.19000006	66	253	226
-0.0647879988	-0.685710013	-1.19029999	66	253	226
-0.0647879988	-0.68550998	-1.1904	66	253	226
-0.0647879988	-0.684920013	-1.19070005	66	253	226
-0.0647879988	-0.684669971	-1.19089997	66	253	226
-0.0648140013	-0.684469998	-1.18980002	66	253	226
-0.0648140013	-0.68441999	-1.18980002	66	253	226
-0.0648140013	-0.684669971	-1.18970001	66	253	226
-0.0648140013	-0.684679985	-1.18970001	66	253	226
-0.0648140013	-0.685060024	-1.18949997	66	253	226
-0.0648140013	-0.685519993	-1.18920004	66	253	226
-0.0648140013	-0.685670018	-1.18910003	66	253	226
-0.0648140013	-0.686060011	-1.18889999	66	253	226
-0.0648140013	-0.686179996	-1.18879998	66	253	226
-0.0648140013	-0.686290026	-1.18879998	66	253	226
-0.0648399964	-0.685779989	-1.18789995	66	253	226
-0.0648399964	-0.685519993	-1.18809998	66	253	226
-0.0648399964	-0.685450017	-1.18809998	66	253	226
-0.0648399964	-0.685419977	-1.18809998	66	253	226
-0.0648399964	-0.68471998	-1.18850005	66	253	226
-0.0648399964	-0.683920026	-1.18900001	66	253	226
-0.0648399964	-0.683369994	-1.18929994	66	253	226
-0.0648399964	-0.683109999	-1.18939996	66	253	226
-0.0648659989	-0.683420002	-1.18809998	66	253	226
-0.0648659989	-0.684010029	-1.18780005	66	253	226
-0.0648659989	-0.684360027	-1.18760002	66	253	226
-0.0648659989	-0.685100019	-1.18710005	66	253	226
-0.0648929998	-0.68362999	-1.1868	66	253	226
-0.0627499968	-0.684300005	-1.18640006	66	253	226
-0.0627219975	-0.684899986	-1.18719995	66	253	226
-0.0627219975	-0.685159981	-1.18700004	66	253	226
-0.0627219975	-0.68434	-1.1875	66	253	226
-0.0627219975	-0.683979988	-1.18770003	66	253	226
-0.0627219975	-0.683390021	-1.18809998	66	253	226
-0.0626939982	-0.683889985	-1.18889999	66	253	226
-0.0626659989	-0.684390008	-1.18980002	66	253	226
-0.0626659989	-0.684660017	-1.18959999	66	253	226
-0.0626659989	-0.683839977	-1.19009995	66	253	226
-0.0626659989	-0.683579981	-1.19029999	66	253	226
-0.0626659989	-0.683329999	-1.1904	66	253	226
-0.0626379997	-0.68463999	-1.19079995	66	253	226
-0.0626379997	-0.684889972	-1.19070005	66	253	226
-0.0626379997	-0.684939981	-1.19060004	66	253	226
-0.0626379997	-0.685679972	-1.19019997	66	253	226
-0.0626379997	-0.685679972	-1.19019997	66	253	226
-0.0626379997	-0.686290026	-1.18990004	66	253	226
-0.0626379997	-0.686420023	-1.18980002	66	253	226
-0.0626379997	-0.686529994	-1.18970001	66	253	226
-0.0626379997	-0.686699986	-1.18959999	66	253	226
-0.0626379997	-0.68671	-1.18959999	66	253	226
-0.0626379997	-0.686739981	-1.18959999	66	253	226
-0.0626109987	-0.687269986	-1.1904	66	253	226
-0.0626109987	-0.687259972	-1.19050002	66	253	226
-0.0626109987	-0.687250018	-1.19050002	66	253	226
-0.0626109987	-0.687179983	-1.19050002	66	253	226
-0.0626109987	-0.687070012	-1.19060004	66	253	226
-0.0626109987	-0.686550021	-1.19089997	66	253	226
-0.0626109987	-0.68641001	-1.19089997	66	253	226
-0.0626109987	-0.686280012	-1.19099998	66	253	226
-0.0626109987	-0.685980022	-1.19120002	66	253	226
-0.0626109987	-0.685840011	-1.19130003	66	253	226
-0.0626109987	-0.685639977	-1.19140005	66	253	226
-0.0626109987	-0.685389996	-1.19149995	66	253	226
-0.0625829995	-0.685890019	-1.19239998	66	253	226
-0.0625829995	-0.686420023	-1.19210005	66	253	226
-0.0625829995	-0.686460018	-1.19210005	66	253	226
-0.0625829995	-0.686469972	-1.19210005	66	253	226
-0.0625829995	-0.686510026	-1.19200003	66	253	226
-0.0625829995	-0.686529994	-1.19200003	66	253	226
-0.0625829995	-0.686590016	-1.19200003	66	253	226
-0.0625550002	-0.687669992	-1.1925	66	253	226
-0.0625550002	-0.688149989	-1.19219995	66	253	226
-0.0625829995	-0.687770009	-1.19130003	66	253	226
-0.0625829995	-0.687770009	-1.19130003	66	253	226
-0.0625829995	-0.687759995	-1.19130003	66	253	226
-0.0625829995	-0.687740028	-1.19130003	66	253	226
-0.0625829995	-0.687730014	-1.19130003	66	253	226
-0.0604300015	-0.687730014	-1.19130003	66	253	226
-0.0604300015	-0.687740028	-1.19130003	66	253	226
-0.0604300015	-0.687740028	-1.19130003	66	253	226
-0.0604300015	-0.687709987	-1.19130003	66	253	226
-0.0604300015	-0.687619984	-1.19130003	66	253	226
-0.0604589991	-0.68712002	-1.19050002	66	253	226
-0.0604589991	-0.687170029	-1.1904	66	253	226
-0.0604589991	-0.687219977	-1.1904	66	253	226
-0.0604889989	-0.686680019	-1.18959999	66	253	226
-0.0604889989	-0.686699986	-1.18949997	66	253	226
-0.0604889989	-0.68671	-1.18949997	66	253	226
-0.0604889989	-0.686540008	-1.18959999	66	253	226
-0.0604889989	-0.686500013	-1.18970001	66	253	226
-0.0604889989	-0.686389983	-1.18970001	66	253	226
-0.0604889989	-0.686259985	-1.18980002	66	253	226
-0.0604889989	-0.685880005	-1.19000006	66	253	226
-0.0604889989	-0.685559988	-1.19019997	66	253	226
-0.0604889989	-0.685450017	-1.19029999	66	253	226
-0.0604889989	-0.685440004	-1.19029999	66	253	226
-0.0604889989	-0.68542999	-1.19029999	66	253	226
-0.0604889989	-0.685119987	-1.19050002	66	253	226
-0.0604889989	-0.684859991	-1.19060004	66	253	226
-0.0604889989	-0.684300005	-1.19089997	66	253	226
-0.0604589991	-0.684549987	-1.19190001	66	253	226
-0.0604589991	-0.684300005	-1.19210005	66	253	226
-0.0604589991	-0.685109973	-1.19159997	66	253	226
-0.0604589991	-0.685360014	-1.19149995	66	253	226
-0.0604589991	-0.685980022	-1.1911	66	253	226
-0.0604589991	-0.686249971	-1.19099998	66	253	226
-0.0604300015	-0.686649978	-1.19190001	66	253	226
-0.0604300015	-0.686439991	-1.19200003	66	253	226
-0.0604300015	-0.686389983	-1.19200003	66	253	226
-0.0604300015	-0.686309993	-1.19210005	66	253	226
-0.0604300015	-0.685859978	-1.19229996	66	253	226
-0.0604000017	-0.686349988	-1.19319999	66	253	226
-0.0604000017	-0.686609983	-1.19309998	66	253	226
-0.0603710003	-0.686850011	-1.19410002	66	253	226
-0.0603710003	-0.687640011	-1.19360006	66	253	226
-0.0603410006	-0.687940001	-1.19459999	66	253	226
-0.0603410006	-0.687349975	-1.19490004	66	253	226
-0.0603110008	-0.687849998	-1.19579995	66	253	226
-0.0581520014	-0.687820017	-1.19579995	66	253	226
-0.0581829995	-0.687319994	-1.19490004	66	253	226
-0.0582140014	-0.686819971	-1.19400001	66	253	226
-0.0582140014	-0.687070012	-1.19389999	66	253	226
-0.0582140014	-0.687609971	-1.19360006	66	253	226
-0.0582460016	-0.686969995	-1.19280005	66	253	226
-0.0582460016	-0.686909974	-1.19280005	66	253	226
-0.0582460016	-0.686850011	-1.19280005	66	253	226
-0.0582460016	-0.686320007	-1.19319999	66	253	226
-0.0582460016	-0.686070025	-1.19330001	66	253	226
-0.0582769997	-0.685869992	-1.19229996	66	253	226
-0.0582769997	-0.685819983	-1.19229996	66	253	226
-0.0582769997	-0.686269999	-1.19200003	66	253	226
-0.0582769997	-0.68641001	-1.19190001	66	253	226
-0.0582769997	-0.68641001	-1.19190001	66	253	226
-0.0582769997	-0.686439991	-1.19190001	66	253	226
-0.0582769997	-0.686619997	-1.1918	66	253	226
-0.0582769997	-0.68671	-1.1918	66	253	226
-0.058309	-0.686029971	-1.19099998	66	253	226
-0.058309	-0.68532002	-1.19140005	66	253	226
-0.058309	-0.684769988	-1.19169998	66	253	226
-0.058309	-0.684509993	-1.19190001	66	253	226
-0.058309	-0.68374002	-1.19229996	66	253	226
-0.058309	-0.683449984	-1.1925	66	253	226
-0.058309	-0.682569981	-1.19299996	66	253	226
-0.0582769997	-0.682709992	-1.19410002	66	253	226
-0.0582769997	-0.681529999	-1.1947	66	253	226
-0.0582769997	-0.681119978	-1.19500005	66	253	226
-0.058309	-0.680220008	-1.19430006	66	253	226
-0.0582460016	-0.680809975	-1.19630003	66	253	226
-0.0560909994	-0.681580007	-1.19579995	66	253	226
-0.0561250001	-0.681490004	-1.1947	66	253	226
-0.0561579987	-0.680190027	-1.19430006	66	253	226
-0.0539719984	-0.681460023	-1.19459999	66	253	226
-0.0539369993	-0.681550026	-1.19570005	66	253	226
-0.0539369993	-0.681140006	-1.19599998	66	253	226
-0.0539369993	-0.682370007	-1.19529998	66	253	226
-0.0539020002	-0.683640003	-1.19570005	66	253	226
-0.0538670011	-0.683770001	-1.19679999	66	253	226
-0.0560249984	-0.683399975	-1.19710004	66	253	226
-0.0560580008	-0.684019983	-1.19550002	66	253	226
-0.0560909994	-0.683179975	-1.19490004	66	253	226
-0.0560909994	-0.682820022	-1.19509995	66	253	226
-0.0560909994	-0.684700012	-1.19400001	66	253	226
-0.0560909994	-0.684970021	-1.19389999	66	253	226
-0.0560580008	-0.685970008	-1.19439995	66	253	226
-0.0560580008	-0.686789989	-1.19400001	66	253	226
-0.0560249984	-0.687279999	-1.19480002	66	253	226
-0.0560909994	-0.686290026	-1.19309998	66	253	226
-0.0560909994	-0.686739981	-1.19280005	66	253	226
-0.0560909994	-0.686819971	-1.19280005	66	253	226
-0.0560909994	-0.686860025	-1.19280005	66	253	226
-0.0560909994	-0.686869979	-1.19280005	66	253	226
-0.0560909994	-0.686869979	-1.19280005	66	253	226
-0.0560909994	-0.687080026	-1.19260001	66	253	226
-0.0560909994	-0.687929988	-1.19210005	66	253	226
-0.0560909994	-0.687969983	-1.19210005	66	253	226
-0.0561250001	-0.687600017	-1.19120002	66	253	226
-0.0561250001	-0.687390029	-1.19130003	66	253	226
-0.0561250001	-0.687080026	-1.19149995	66	253	226
-0.0561579987	-0.686540008	-1.19060004	66	253	226
-0.0561579987	-0.686689973	-1.19050002	66	253	226
-0.0561579987	-0.687110007	-1.19029999	66	253	226
-0.0561579987	-0.687150002	-1.19029999	66	253	226
-0.0561579987	-0.687160015	-1.19029999	66	253	226
-0.0561910011	-0.686630011	-1.18939996	66	253	226
-0.0561910011	-0.686320007	-1.18959999	66	253	226
-0.0561910011	-0.686200023	-1.18970001	66	253	226
-0.0561910011	-0.68581003	-1.18990004	66	253	226
-0.0561910011	-0.685679972	-1.19000006	66	253	226
-0.0561910011	-0.685500026	-1.19009995	66	253	226
-0.0561910011	-0.68542999	-1.19009995	66	253	226
-0.0561910011	-0.685410023	-1.19009995	66	253	226
-0.0561910011	-0.685379982	-1.19019997	66	253	226
-0.0561910011	-0.685060024	-1.19029999	66	253	226
-0.0561910011	-0.684790015	-1.19050002	66	253	226
-0.0561579987	-0.685289979	-1.19140005	66	253	226
-0.0561579987	-0.685039997	-1.19149995	66	253	226
-0.0561579987	-0.684729993	-1.19169998	66	253	226
-0.0561250001	-0.685790002	-1.19219995	66	253	226
-0.0561250001	-0.686039984	-1.19210005	66	253	226
-0.0561579987	-0.685880005	-1.19099998	66	253	226
-0.0561579987	-0.686079979	-1.19089997	66	253	226
-0.0562239997	-0.684880018	-1.18929994	66	253	226
-0.0562239997	-0.684289992	-1.18959999	66	253	226
-0.0562569983	-0.683799982	-1.18879998	66	253	226
-0.0562569983	-0.68384999	-1.18869996	66	253	226
-0.0562900007	-0.683300018	-1.18789995	66	253	226
-0.0562900007	-0.684239984	-1.18739998	66	253	226
-0.0562900007	-0.684390008	-1.18729997	66	253	226
-0.0562900007	-0.685180008	-1.1868	66	253	226
-0.0563229993	-0.684650004	-1.18599999	66	253	226
-0.0563229993	-0.684679985	-1.18589997	66	253	226
-0.0563560016	-0.684159994	-1.18509996	66	253	226
-0.0542160012	-0.684140027	-1.18499994	66	253	226
-0.0541459993	-0.68502003	-1.1868	66	253	226
-0.0541459993	-0.684360027	-1.18719995	66	253	226
-0.0541459993	-0.683260024	-1.18780005	66	253	226
-0.0541110002	-0.683759987	-1.18869996	66	253	226
-0.0541110002	-0.68295002	-1.18920004	66	253	226
-0.0540769994	-0.684260011	-1.18959999	66	253	226
-0.0540769994	-0.68483001	-1.18920004	66	253	226
-0.0540769994	-0.684899986	-1.18920004	66	253	226
-0.0540420003	-0.685339987	-1.19009995	66	253	226
-0.0540420003	-0.685339987	-1.19009995	66	253	226
-0.0540420003	-0.685549974	-1.19000006	66	253	226
-0.0540420003	-0.685639977	-1.18990004	66	253	226
-0.0540420003	-0.685699999	-1.18990004	66	253	226
-0.0540420003	-0.685779989	-1.18980002	66	253	226
-0.0540420003	-0.68592	-1.18980002	66	253	226
-0.0540420003	-0.686160028	-1.18959999	66	253	226
-0.0540420003	-0.686280012	-1.18949997	66	253	226
-0.0540420003	-0.68651998	-1.18939996	66	253	226
-0.0540420003	-0.686550021	-1.18939996	66	253	226
-0.0540420003	-0.686580002	-1.18939996	66	253	226
-0.0540420003	-0.686609983	-1.18939996	66	253	226
-0.0540769994	-0.686140001	-1.18850005	66	253	226
-0.0540769994	-0.686129987	-1.18850005	66	253	226
-0.0540769994	-0.68611002	-1.18850005	66	253	226
-0.0540769994	-0.686070025	-1.18850005	66	253	226
-0.0541110002	-0.68562001	-1.18760002	66	253	226
-0.0541110002	-0.685590029	-1.18760002	66	253	226
-0.0519660003	-0.685580015	-1.18760002	66	253	226
-0.0519660003	-0.685570002	-1.18760002	66	253	226
-0.0519660003	-0.685559988	-1.18760002	66	253	226
-0.0519660003	-0.685479999	-1.18760002	66	253	226
-0.0519660003	-0.685599983	-1.1875	66	253	226
-0.0519660003	-0.685220003	-1.18780005	66	253	226
-0.0519290008	-0.68562001	-1.18869996	66	253	226
-0.0519290008	-0.685630023	-1.18869996	66	253	226
-0.0519290008	-0.685980022	-1.18850005	66	253	226
-0.0519290008	-0.686029971	-1.18850005	66	253	226
-0.0519290008	-0.686070025	-1.18840003	66	253	226
-0.0519290008	-0.686100006	-1.18840003	66	253	226
-0.0518929996	-0.686510026	-1.18929994	66	253	226
-0.0518929996	-0.686540008	-1.18929994	66	253	226
-0.0518929996	-0.686399996	-1.18939996	66	253	226
-0.0518929996	-0.686240017	-1.18949997	66	253	226
-0.0518929996	-0.685970008	-1.18959999	66	253	226
-0.0518929996	-0.685880005	-1.18970001	66	253	226
-0.0518929996	-0.685660005	-1.18980002	66	253	226
-0.0518929996	-0.685599983	-1.18990004	66	253	226
-0.0518929996	-0.685360014	-1.19000006	66	253	226
-0.0518929996	-0.68471998	-1.1904	66	253	226
-0.051856	-0.685220003	-1.19120002	66	253	226
-0.051856	-0.685469985	-1.1911	66	253	226
-0.051856	-0.685670018	-1.19099998	66	253	226
-0.051856	-0.685739994	-1.19089997	66	253	226
-0.051856	-0.685800016	-1.19089997	66	253	226
-0.051856	-0.685840011	-1.19089997	66	253	226
-0.0518199988	-0.686500013	-1.19159997	66	253	226
-0.0518199988	-0.686510026	-1.19159997	66	253	226
-0.0518199988	-0.68629998	-1.1918	66	253	226
-0.0518199988	-0.686280012	-1.1918	66	253	226
-0.0518199988	-0.685710013	-1.19210005	66	253	226
-0.0518199988	-0.685159981	-1.19239998	66	253	226
-0.0518199988	-0.684390008	-1.19289994	66	253	226
-0.0518199988	-0.683839977	-1.19319999	66	253	226
-0.051856	-0.683049977	-1.1925	66	253	226
-0.051856	-0.682749987	-1.19260001	66	253	226
-0.051856	-0.68246001	-1.19280005	66	253	226
-0.0518199988	-0.682609975	-1.19389999	66	253	226
-0.0518199988	-0.681840003	-1.19430006	66	253	226
-0.0518199988	-0.681420028	-1.19459999	66	253	226
-0.0517829992	-0.681509972	-1.19570005	66	253	226
-0.0517829992	-0.681100011	-1.19589996	66	253	226
-0.0517459996	-0.680369973	-1.19749999	66	253	226
-0.0517099984	-0.680450022	-1.19860005	66	253	226
-0.0516729988	-0.682179987	-1.19869995	66	253	226
-0.0495520011	-0.681649983	-1.19780004	66	253	226
-0.0495520011	-0.681240022	-1.19799995	66	253	226
-0.0495910011	-0.680329978	-1.19739997	66	253	226
-0.0496289991	-0.681060016	-1.19579995	66	253	226
-0.0496289991	-0.681469977	-1.19560003	66	253	226
-0.0496289991	-0.681869984	-1.1954	66	253	226
-0.0496289991	-0.682699978	-1.19490004	66	253	226
-0.0496670008	-0.681800008	-1.19420004	66	253	226
-0.0497060008	-0.682070017	-1.19289994	66	253	226
-0.0497060008	-0.682420015	-1.19270003	66	253	226
-0.0496670008	-0.683210015	-1.19340003	66	253	226
-0.0496289991	-0.684300005	-1.19400001	66	253	226
-0.0496289991	-0.684849977	-1.19360006	66	253	226
-0.0495910011	-0.685079992	-1.1947	66	253	226
-0.0495910011	-0.684499979	-1.19500005	66	253	226
-0.0474350005	-0.684459984	-1.19490004	66	253	226
-0.0474350005	-0.685310006	-1.19439995	66	253	226
-0.0473949984	-0.68554002	-1.19550002	66	253	226
-0.047474999	-0.684249997	-1.19389999	66	253	226
-0.0475150011	-0.683170021	-1.19340003	66	253	226
-0.0475549996	-0.682380021	-1.19270003	66	253	226
-0.0475960001	-0.681529999	-1.19200003	66	253	226
-0.0475150011	-0.682169974	-1.19389999	66	253	226
-0.047474999	-0.682250023	-1.19500005	66	253	226
-0.0474350005	-0.682330012	-1.1961	66	253	226
-0.0474350005	-0.681919992	-1.19640005	66	253	226
-0.0473949984	-0.681609988	-1.19770002	66	253	226
-0.0473949984	-0.680779994	-1.19819999	66	253	226
-0.0473949984	-0.680360019	-1.19840002	66	253	226
-0.0473549999	-0.681699991	-1.19879997	66	253	226
-0.0473549999	-0.682510018	-1.1983	66	253	226
-0.0451960005	-0.68246001	-1.1983	66	253	226
-0.0451960005	-0.682060003	-1.19850004	66	253	226
-0.0452379994	-0.681159973	-1.19790006	66	253	226
-0.0452379994	-0.680739999	-1.19809997	66	253	226
-0.0452379994	-0.682370007	-1.19719994	66	253	226
-0.0452379994	-0.683200002	-1.19669998	66	253	226
-0.0452799983	-0.682280004	-1.1961	66	253	226
-0.0452799983	-0.683109999	-1.19560003	66	253	226
-0.045322001	-0.684210002	-1.19379997	66	253	226
-0.045322001	-0.684499979	-1.19369996	66	253	226
-0.0452799983	-0.685259998	-1.19439995	66	253	226
-0.0452379994	-0.687080026	-1.19449997	66	253	226
-0.0452799983	-0.688000023	-1.19280005	66	253	226
-0.0452799983	-0.688229978	-1.19270003	66	253	226
-0.0452379994	-0.688970029	-1.19340003	66	253	226
-0.045322001	-0.687929988	-1.19169998	66	253	226
-0.045322001	-0.687370002	-1.19200003	66	253	226
-0.0453630015	-0.68712002	-1.19099998	66	253	226
-0.0453630015	-0.687399983	-1.19079995	66	253	226
-0.0453630015	-0.687439978	-1.19079995	66	253	226
-0.0454050004	-0.686909974	-1.19000006	66	253	226
-0.0454050004	-0.686940014	-1.18990004	66	253	226
-0.0454050004	-0.686969995	-1.18990004	66	253	226
-0.0454050004	-0.686800003	-1.19000006	66	253	226
-0.0454050004	-0.686590016	-1.19009995	66	253	226
-0.0454050004	-0.686339974	-1.19029999	66	253	226
-0.0454050004	-0.686249971	-1.19029999	66	253	226
-0.0454050004	-0.685880005	-1.19060004	66	253	226
-0.0454050004	-0.685880005	-1.19060004	66	253	226
-0.0454050004	-0.685790002	-1.19060004	66	253	226
-0.0454050004	-0.685679972	-1.19070005	66	253	226
-0.0454050004	-0.68554002	-1.19070005	66	253	226
-0.0454050004	-0.685350001	-1.19089997	66	253	226
-0.0454050004	-0.685140014	-1.19099998	66	253	226
-0.0454050004	-0.685090005	-1.19099998	66	253	226
-0.0453630015	-0.685590029	-1.19190001	66	253	226
-0.0453630015	-0.686209977	-1.19149995	66	253	226
-0.0453630015	-0.686479986	-1.19140005	66	253	226
-0.045322001	-0.686089993	-1.19270003	66	253	226
-0.0431680009	-0.686039984	-1.19270003	66	253	226
-0.0431680009	-0.686630011	-1.19229996	66	253	226
-0.0431680009	-0.686930001	-1.19210005	66	253	226
-0.0432120003	-0.686160028	-1.19140005	66	253	226
-0.0432120003	-0.685790002	-1.19159997	66	253	226
-0.0432120003	-0.685590029	-1.1918	66	253	226
-0.0432120003	-0.68554002	-1.1918	66	253	226
-0.0432550013	-0.684800029	-1.1911	66	253	226
-0.0432550013	-0.685039997	-1.19089997	66	253	226
-0.0432550013	-0.685490012	-1.19070005	66	253	226
-0.0432550013	-0.685570002	-1.19060004	66	253	226
-0.0432550013	-0.685609996	-1.19060004	66	253	226
-0.0432550013	-0.685630023	-1.19060004	66	253	226
-0.0432550013	-0.685829997	-1.19050002	66	253	226
-0.0432550013	-0.686290026	-1.19019997	66	253	226
-0.0432550013	-0.68633002	-1.19019997	66	253	226
-0.0432550013	-0.686450005	-1.19009995	66	253	226
-0.0432550013	-0.686640024	-1.19000006	66	253	226
-0.0432550013	-0.686720014	-1.19000006	66	253	226
-0.0432550013	-0.686860025	-1.18990004	66	253	226
-0.0432120003	-0.687399983	-1.19070005	66	253	226
-0.0432120003	-0.687049985	-1.19089997	66	253	226
-0.0431680009	-0.687900007	-1.19159997	66	253	226
-0.0410149992	-0.687870026	-1.19149995	66	253	226
-0.0410149992	-0.687849998	-1.19149995	66	253	226
-0.0410600007	-0.687259972	-1.19070005	66	253	226
-0.0410600007	-0.68720001	-1.19070005	66	253	226
-0.0411049984	-0.686860025	-1.18980002	66	253	226
-0.0411049984	-0.686850011	-1.18980002	66	253	226
-0.0411049984	-0.686810017	-1.18980002	66	253	226
-0.0411049984	-0.686399996	-1.19000006	66	253	226
-0.0411049984	-0.686280012	-1.19009995	66	253	226
-0.0411049984	-0.685779989	-1.1904	66	253	226
-0.0411049984	-0.68562001	-1.19050002	66	253	226
-0.0411049984	-0.685580015	-1.19050002	66	253	226
-0.0411049984	-0.685580015	-1.19050002	66	253	226
-0.0411049984	-0.685259998	-1.19070005	66	253	226
-0.0411049984	-0.685249984	-1.19070005	66	253	226
-0.0411049984	-0.685000002	-1.19079995	66	253	226
-0.0411049984	-0.684750021	-1.19099998	66	253	226
-0.0410600007	-0.685490012	-1.19169998	66	253	226
-0.0410600007	-0.68554002	-1.19169998	66	253	226
-0.0410600007	-0.686060011	-1.19140005	66	253	226
-0.0410600007	-0.686140001	-1.19130003	66	253	226
-0.0410149992	-0.686439991	-1.19229996	66	253	226
-0.0410149992	-0.685989976	-1.19260001	66	253	226
-0.0409689993	-0.686489999	-1.19340003	66	253	226
-0.0409689993	-0.687380016	-1.19289994	66	253	226
-0.0409240015	-0.686990023	-1.19430006	66	253	226
-0.040879	-0.687489986	-1.19519997	66	253	226
-0.0387200005	-0.687439978	-1.19509995	66	253	226
-0.0387669988	-0.686940014	-1.19420004	66	253	226
-0.0388140008	-0.686439991	-1.19340003	66	253	226
-0.0388620012	-0.685940027	-1.1925	66	253	226
-0.0388620012	-0.686389983	-1.19219995	66	253	226
-0.0388620012	-0.686529994	-1.19219995	66	253	226
-0.0388620012	-0.686529994	-1.19219995	66	253	226
-0.0388620012	-0.686559975	-1.19210005	66	253	226
-0.0389089994	-0.686240017	-1.19120002	66	253	226
-0.0389089994	-0.686029971	-1.19130003	66	253	226
-0.0389089994	-0.685970008	-1.19130003	66	253	226
-0.0389089994	-0.685500026	-1.19159997	66	253	226
-0.0389089994	-0.685440004	-1.19159997	66	253	226
-0.0389089994	-0.685199976	-1.1918	66	253	226
-0.0389089994	-0.684390008	-1.19219995	66	253	226
-0.0389089994	-0.683570027	-1.19270003	66	253	226
-0.0388620012	-0.683770001	-1.19369996	66	253	226
-0.0388620012	-0.683480024	-1.19389999	66	253	226
-0.0388620012	-0.683179975	-1.19410002	66	253	226
-0.0389089994	-0.681980014	-1.19360006	66	253	226
-0.0390029997	-0.68058002	-1.19210005	66	253	226
-0.0368059985	-0.681020021	-1.19289994	66	253	226
-0.0367569998	-0.680289984	-1.19449997	66	253	226
-0.0367089994	-0.681190014	-1.19509995	66	253	226
-0.0366600007	-0.682089984	-1.19570005	66	253	226
-0.0367089994	-0.682420015	-1.19439995	66	253	226
-0.0367089994	-0.683430016	-1.19379997	66	253	226
