-0.644330025	0.183850005	-1.30280006	184	104	208
-0.643119991	0.184239998	-1.30560005	184	104	208
-0.643119991	0.185530007	-1.30540001	184	104	208
-0.646019995	0.185650006	-1.30620003	184	104	208
-0.648500025	0.185640007	-1.30620003	184	104	208
-0.650550008	0.185499996	-1.30519998	184	104	208
-0.644800007	0.188669994	-1.30859995	184	104	208
-0.645650029	0.187619999	-1.31060004	184	104	208
-0.643159986	0.187629998	-1.31060004	184	104	208
-0.643580019	0.189070001	-1.31130004	184	104	208
-0.641099989	0.189070001	-1.31140006	184	104	208
-0.639450014	0.189339995	-1.3132	184	104	208
-0.639869988	0.19077	-1.31389999	184	104	208
-0.642350018	0.190760002	-1.31389999	184	104	208
-0.645259976	0.190880001	-1.31470001	184	104	208
-0.64568001	0.19235	-1.3154	184	104	208
-0.647329986	0.192080006	-1.31359994	184	104	208
-0.646070004	0.190359995	-1.31110001	184	104	208
-0.644020021	0.192619994	-1.31729996	184	104	208
-0.641529977	0.192629993	-1.31729996	184	104	208
-0.639869988	0.192900002	-1.31920004	184	104	208
-0.636139989	0.192509994	-1.31649995	184	104	208
-0.635730028	0.191039994	-1.31579995	184	104	208
-0.637380004	0.19077	-1.31400001	184	104	208
-0.636969984	0.189339995	-1.3132	184	104	208
-0.634490013	0.189349994	-1.31330001	184	104	208
-0.633239985	0.191039994	-1.31579995	184	104	208
-0.630760014	0.191039994	-1.31579995	184	104	208
-0.631169975	0.192519993	-1.31649995	184	104	208
-0.629090011	0.192650005	-1.3175	184	104	208
-0.62620002	0.192519993	-1.31659997	184	104	208
-0.62371999	0.192519993	-1.31659997	184	104	208
-0.622049987	0.192790002	-1.31840003	184	104	208
-0.622449994	0.194330007	-1.31910002	184	104	208
-0.620369971	0.194460005	-1.32000005	184	104	208
-0.61789	0.194460005	-1.32000005	184	104	208
-0.617089987	0.192790002	-1.31840003	184	104	208
-0.618770003	0.192519993	-1.31659997	184	104	208
-0.617160022	0.190650001	-1.3132	184	104	208
-0.615090013	0.190789998	-1.31400001	184	104	208
-0.61342001	0.191049993	-1.31589997	184	104	208
-0.61421001	0.192650005	-1.3175	184	104	208
-0.614610016	0.194189996	-1.31819999	184	104	208
-0.61214	0.194189996	-1.31819999	184	104	208
-0.61214	0.192780003	-1.31840003	184	104	208
-0.610459983	0.194450006	-1.32000005	184	104	208
-0.607980013	0.194450006	-1.31990004	184	104	208
-0.60680002	0.192640007	-1.31739998	184	104	208
-0.608870029	0.192509994	-1.31649995	184	104	208
-0.608080029	0.190909997	-1.31490004	184	104	208
-0.609749973	0.189349994	-1.31330001	184	104	208
-0.612219989	0.189349994	-1.31330001	184	104	208
-0.613889992	0.189099997	-1.31149995	184	104	208
-0.615949988	0.18897	-1.31060004	184	104	208
-0.618009984	0.188840002	-1.30970001	184	104	208
-0.618009984	0.187519997	-1.30990005	184	104	208
-0.620480001	0.188840002	-1.30970001	184	104	208
-0.620880008	0.187649995	-1.31079996	184	104	208
-0.622950017	0.187519997	-1.30990005	184	104	208
-0.623350024	0.18897	-1.31060004	184	104	208
-0.621290028	0.190390006	-1.31130004	184	104	208
-0.619220018	0.190520003	-1.31229997	184	104	208
-0.624570012	0.190650001	-1.3132	184	104	208
-0.626640022	0.189229995	-1.31239998	184	104	208
-0.629119992	0.189229995	-1.31239998	184	104	208
-0.631179988	0.189089999	-1.31149995	184	104	208
-0.632830024	0.187519997	-1.30990005	184	104	208
-0.635720015	0.187639996	-1.31070006	184	104	208
-0.637790024	0.187509999	-1.30980003	184	104	208
-0.63985002	0.187370002	-1.3089	184	104	208
-0.638170004	0.185540006	-1.30550003	184	104	208
-0.637759984	0.184129998	-1.30470002	184	104	208
-0.64023	0.184119999	-1.30470002	184	104	208
-0.639810026	0.185279995	-1.30359995	184	104	208
-0.635290027	0.185409993	-1.3046	184	104	208
-0.633229971	0.185550004	-1.30550003	184	104	208
-0.63282001	0.184129998	-1.30480003	184	104	208
-0.630349994	0.185420007	-1.3046	184	104	208
-0.629939973	0.184009999	-1.3039	184	104	208
-0.627889991	0.185420007	-1.30470002	184	104	208
-0.628709972	0.184400007	-1.30659997	184	104	208
-0.626250029	0.185680002	-1.30649996	184	104	208
-0.62707001	0.187260002	-1.30809999	184	104	208
-0.629119992	0.187130004	-1.30719995	184	104	208
-0.625010014	0.18739	-1.30900002	184	104	208
-0.623369992	0.185550004	-1.30560005	184	104	208
-0.622969985	0.184139997	-1.30490005	184	104	208
-0.625429988	0.184139997	-1.30480003	184	104	208
-0.621320009	0.185680002	-1.30649996	184	104	208
-0.618449986	0.185560003	-1.30560005	184	104	208
-0.618049979	0.184139997	-1.30490005	184	104	208
-0.620100021	0.184019998	-1.30400002	184	104	208
-0.618470013	0.182249993	-1.30050004	184	104	208
-0.616429985	0.182380006	-1.30139995	184	104	208
-0.615190029	0.184009999	-1.3039	184	104	208
-0.612330019	0.185169995	-1.30280006	184	104	208
-0.609080017	0.184909999	-1.301	184	104	208
-0.608280003	0.183369994	-1.29939997	184	104	208
-0.608280003	0.182119995	-1.29960001	184	104	208
-0.610729992	0.182119995	-1.29960001	184	104	208
-0.610729992	0.183369994	-1.29939997	184	104	208
-0.613170028	0.182119995	-1.29960001	184	104	208
-0.61075002	0.180109993	-1.29429996	184	104	208
-0.61075002	0.178849995	-1.29449999	184	104	208
-0.608309984	0.178839996	-1.29449999	184	104	208
-0.608309984	0.180099994	-1.29429996	184	104	208
-0.606280029	0.180230007	-1.29519999	184	104	208
-0.605880022	0.178839996	-1.29449999	184	104	208
-0.60345	0.178839996	-1.29439998	184	104	208
-0.60345	0.180099994	-1.29429996	184	104	208
-0.603850007	0.181480005	-1.29499996	184	104	208
-0.601809978	0.181600004	-1.29589999	184	104	208
-0.599380016	0.181590006	-1.29579997	184	104	208
-0.600220025	0.179839998	-1.2924	184	104	208
-0.599829972	0.178450003	-1.29170001	184	104	208
-0.597840011	0.176520005	-1.28729999	184	104	208
-0.597050011	0.174919993	-1.28569996	184	104	208
-0.597440004	0.173710003	-1.28680003	184	104	208
-0.602280021	0.171680003	-1.2816	184	104	208
-0.604700029	0.171680003	-1.2816	184	104	208
-0.599070013	0.171430007	-1.27970004	184	104	208
-0.596669972	0.171419993	-1.27970004	184	104	208
-0.594259977	0.171419993	-1.27970004	184	104	208
-0.594280005	0.169469997	-1.2744	184	104	208
-0.593479991	0.168060005	-1.27269995	184	104	208
-0.592679977	0.166600004	-1.27110004	184	104	208
-0.591480017	0.164959997	-1.26849997	184	104	208
-0.593469977	0.164839998	-1.26769996	184	104	208
-0.595049977	0.163299993	-1.26610005	184	104	208
-0.596620023	0.161719993	-1.26450002	184	104	208
-0.596620023	0.160459995	-1.26460004	184	104	208
-0.598200023	0.160239995	-1.26289999	184	104	208
-0.599009991	0.161730006	-1.26450002	184	104	208
-0.601390004	0.161730006	-1.26460004	184	104	208
-0.603359997	0.161620006	-1.26370001	184	104	208
-0.604929984	0.161390007	-1.26189995	184	104	208
-0.604110003	0.159899995	-1.26020002	184	104	208
-0.606079996	0.159789994	-1.25940001	184	104	208
-0.608460009	0.159799993	-1.25940001	184	104	208
-0.608049989	0.158480003	-1.2586	184	104	208
-0.608460009	0.157360002	-1.25969994	184	104	208
-0.610430002	0.157250002	-1.25880003	184	104	208
-0.610430002	0.158480003	-1.2586	184	104	208
-0.613219976	0.158600003	-1.25960004	184	104	208
-0.613219976	0.157360002	-1.25969994	184	104	208
-0.615190029	0.158490002	-1.25870001	184	104	208
-0.617569983	0.158490002	-1.25870001	184	104	208
-0.618409991	0.159909993	-1.26030004	184	104	208
-0.616439998	0.160030007	-1.26119995	184	104	208
-0.614059985	0.161290005	-1.26110005	184	104	208
-0.6153	0.160370007	-1.26390004	184	104	208
-0.613740027	0.160600007	-1.26569998	184	104	208
-0.613330007	0.161750004	-1.26470006	184	104	208
-0.614160001	0.163330004	-1.26629996	184	104	208
-0.616140008	0.163210005	-1.26540005	184	104	208
-0.618120015	0.163090006	-1.26450002	184	104	208
-0.617699981	0.161630005	-1.26380002	184	104	208
-0.619669974	0.161520004	-1.26289999	184	104	208
-0.620800018	0.159909993	-1.26030004	184	104	208
-0.622770011	0.159799993	-1.25940001	184	104	208
-0.622349977	0.158490002	-1.25870001	184	104	208
-0.61996001	0.158490002	-1.25870001	184	104	208
-0.621079981	0.156910002	-1.25610006	184	104	208
-0.617860019	0.156690001	-1.2543	184	104	208
-0.617009997	0.155190006	-1.25269997	184	104	208
-0.618550003	0.154970005	-1.25090003	184	104	208
-0.620920002	0.153699994	-1.25100005	184	104	208
-0.620500028	0.152329996	-1.25030005	184	104	208
-0.622870028	0.152329996	-1.25030005	184	104	208
-0.625249982	0.152319998	-1.25030005	184	104	208
-0.626100004	0.153809994	-1.25189996	184	104	208
-0.624149978	0.153919995	-1.25279999	184	104	208
-0.625	0.155410007	-1.25440001	184	104	208
-0.627390027	0.155410007	-1.25440001	184	104	208
-0.629769981	0.155410007	-1.25440001	184	104	208
-0.633019984	0.155630007	-1.25619996	184	104	208
-0.634549975	0.155399993	-1.2543	184	104	208
-0.636940002	0.155399993	-1.2543	184	104	208
-0.639330029	0.155389994	-1.2543	184	104	208
-0.641290009	0.155269995	-1.25329995	184	104	208
-0.643249989	0.155159995	-1.25240004	184	104	208
-0.645200014	0.155039996	-1.25139999	184	104	208
-0.646269977	0.153439999	-1.24890006	184	104	208
-0.645829976	0.152060002	-1.24810004	184	104	208
-0.648220003	0.152060002	-1.24810004	184	104	208
-0.647769988	0.150670007	-1.24730003	184	104	208
-0.649720013	0.150549993	-1.2464	184	104	208
-0.653150022	0.150209993	-1.24360001	184	104	208
-0.654640019	0.148699999	-1.24189997	184	104	208
-0.654190004	0.149880007	-1.24080002	184	104	208
-0.656120002	0.148479998	-1.24000001	184	104	208
-0.658959985	0.148570001	-1.24080002	184	104	208
-0.659860015	0.150079995	-1.24240005	184	104	208
-0.657480001	0.150089994	-1.24249995	184	104	208
-0.661339998	0.148560002	-1.24070001	184	104	208
-0.662819982	0.147090003	-1.23899996	184	104	208
-0.66474998	0.146980003	-1.23800004	184	104	208
-0.666679978	0.145659998	-1.23720002	184	104	208
-0.668600023	0.145539999	-1.23619998	184	104	208
-0.670530021	0.14542	-1.23520005	184	104	208
-0.672909975	0.145410001	-1.23510003	184	104	208
-0.674830019	0.145290002	-1.23409998	184	104	208
-0.674830019	0.144069999	-1.2342	184	104	208
-0.673900008	0.142609999	-1.23259997	184	104	208
-0.671980023	0.143979996	-1.2335	184	104	208
-0.671060026	0.142519996	-1.23179996	184	104	208
-0.668680012	0.143779993	-1.23179996	184	104	208
-0.666760027	0.143900007	-1.23280001	184	104	208
-0.664839983	0.144010007	-1.23380005	184	104	208
-0.662919998	0.144130006	-1.23479998	184	104	208
-0.662919998	0.145359993	-1.23459995	184	104	208
-0.659630001	0.145160004	-1.23290002	184	104	208
-0.657710016	0.145270005	-1.23389995	184	104	208
-0.655789971	0.145390004	-1.2349	184	104	208
-0.653869987	0.145500004	-1.23590004	184	104	208
-0.653419971	0.144170001	-1.23510003	184	104	208
-0.651040018	0.145410001	-1.23500001	184	104	208
-0.650150001	0.143969998	-1.23339999	184	104	208
-0.648800015	0.142419994	-1.23090005	184	104	208
-0.653079987	0.143539995	-1.22969997	184	104	208
-0.656799972	0.14384	-1.23230004	184	104	208
-0.659070015	0.146789998	-1.23640001	184	104	208
-0.657149971	0.146899998	-1.23740005	184	104	208
-0.654770017	0.146909997	-1.23749995	184	104	208
-0.653289974	0.147129998	-1.23930001	184	104	208
-0.65091002	0.148389995	-1.23930001	184	104	208
-0.650460005	0.147039995	-1.2385	184	104	208
-0.650460005	0.145830005	-1.23870003	184	104	208
-0.649569988	0.144390002	-1.23699999	184	104	208
-0.647199988	0.146840006	-1.23679996	184	104	208
-0.64526999	0.146950006	-1.2378	184	104	208
-0.64289999	0.146950006	-1.2378	184	104	208
-0.641409993	0.147170007	-1.23969996	184	104	208
-0.638599992	0.147070006	-1.23880005	184	104	208
-0.636229992	0.147080004	-1.23889995	184	104	208
-0.634299994	0.147190005	-1.23979998	184	104	208
-0.631929994	0.147190005	-1.23979998	184	104	208
-0.632369995	0.148550004	-1.24059999	184	104	208
-0.632799983	0.149939999	-1.24129999	184	104	208
-0.630869985	0.150059998	-1.24220002	184	104	208
-0.630439997	0.148660004	-1.24150002	184	104	208
-0.630439997	0.147410005	-1.24170005	184	104	208
-0.628069997	0.147410005	-1.24170005	184	104	208
-0.626129985	0.147520006	-1.24259996	184	104	208
-0.62699002	0.148990005	-1.24419999	184	104	208
-0.628929973	0.148880005	-1.24329996	184	104	208
-0.629149973	0.152099997	-1.24839997	184	104	208
-0.62677002	0.152099997	-1.24839997	184	104	208
-0.628059983	0.153699994	-1.25100005	184	104	208
-0.630439997	0.153689995	-1.25100005	184	104	208
-0.63282001	0.153689995	-1.25090003	184	104	208
-0.634769976	0.153579995	-1.25	184	104	208
-0.637160003	0.153569996	-1.25	184	104	208
-0.639980018	0.153679997	-1.25080001	184	104	208
-0.641929984	0.153559998	-1.24989998	184	104	208
-0.64388001	0.153439999	-1.24890006	184	104	208
-0.643000007	0.15196	-1.24730003	184	104	208
-0.640179992	0.151859999	-1.2464	184	104	208
-0.644060016	0.150350004	-1.24469995	184	104	208
-0.649540007	0.153650001	-1.25059998	184	104	208
-0.644999981	0.156869993	-1.25580001	184	104	208
-0.643040001	0.156990007	-1.25670004	184	104	208
-0.64064002	0.157000005	-1.25680006	184	104	208
-0.638679981	0.157110006	-1.25769997	184	104	208
-0.639110029	0.158460006	-1.25849998	184	104	208
-0.639110029	0.159659997	-1.25829995	184	104	208
-0.637139976	0.159779996	-1.25919998	184	104	208
-0.636709988	0.158470005	-1.25849998	184	104	208
-0.63628	0.157120004	-1.25779998	184	104	208
-0.634739995	0.157350004	-1.25960004	184	104	208
-0.634739995	0.158580005	-1.25940001	184	104	208
-0.634739995	0.159779996	-1.25929999	184	104	208
-0.635599971	0.161269993	-1.26090002	184	104	208
-0.632350028	0.161039993	-1.25919998	184	104	208
-0.630800009	0.161280006	-1.26100004	184	104	208
-0.628830016	0.161390007	-1.26189995	184	104	208
-0.627279997	0.161630005	-1.26370001	184	104	208
-0.624890029	0.161630005	-1.26370001	184	104	208
-0.623749971	0.163330004	-1.26629996	184	104	208
-0.624170005	0.162090003	-1.26730001	184	104	208
-0.62658	0.163440004	-1.26719999	184	104	208
-0.629410028	0.163550004	-1.26800001	184	104	208
-0.633090019	0.166500002	-1.27040005	184	104	208
-0.633520007	0.165329993	-1.27139997	184	104	208
-0.63507998	0.165099993	-1.26960003	184	104	208
-0.637489974	0.165089995	-1.26960003	184	104	208
-0.640339971	0.165199995	-1.27040005	184	104	208
-0.641200006	0.166720003	-1.27199996	184	104	208
-0.639209986	0.166850001	-1.273	184	104	208
-0.637639999	0.168310001	-1.27470005	184	104	208
-0.638069987	0.169599995	-1.27540004	184	104	208
-0.635649979	0.168439999	-1.27559996	184	104	208
-0.636919975	0.169960007	-1.27810001	184	104	208
-0.637350023	0.171309993	-1.27890003	184	104	208
-0.638199985	0.172859997	-1.28050005	184	104	208
-0.640209973	0.172739998	-1.27950001	184	104	208
-0.640209973	0.171419993	-1.27970004	184	104	208
-0.643069983	0.171540007	-1.28059995	184	104	208
-0.64349997	0.172969997	-1.28129995	184	104	208
-0.645510018	0.171529993	-1.28050005	184	104	208
-0.647080004	0.170059994	-1.27880001	184	104	208
-0.64951998	0.170049995	-1.27880001	184	104	208
-0.648379982	0.171639994	-1.28129995	184	104	208
-0.643779993	0.169829994	-1.27709997	184	104	208
-0.640929997	0.169709995	-1.27620006	184	104	208
-0.640929997	0.16855	-1.27639997	184	104	208
-0.642490029	0.168300003	-1.27460003	184	104	208
-0.644490004	0.168180004	-1.27359998	184	104	208
-0.643620014	0.166720003	-1.27199996	184	104	208
-0.642759979	0.165199995	-1.27040005	184	104	208
-0.645609975	0.165299997	-1.27119994	184	104	208
-0.646480024	0.166830003	-1.27279997	184	104	208
-0.646920025	0.168170005	-1.27359998	184	104	208
-0.647170007	0.165069997	-1.2694	184	104	208
-0.648720026	0.164829999	-1.26750004	184	104	208
-0.650699973	0.164700001	-1.26660001	184	104	208
-0.651799977	0.163029999	-1.26400006	184	104	208
-0.653330028	0.161449999	-1.26230001	184	104	208
-0.646089971	0.161469996	-1.26250005	184	104	208
-0.64368999	0.161479995	-1.26259995	184	104	208
-0.642809987	0.158790007	-1.26110005	184	104	208
-0.642379999	0.159879997	-1.25999999	184	104	208
-0.64477998	0.159869999	-1.25999999	184	104	208
-0.64477998	0.158669993	-1.26010001	184	104	208
-0.639980018	0.161139995	-1.25989997	184	104	208
-0.638870001	0.161489993	-1.26269996	184	104	208
-0.632770002	0.158700004	-1.26040006	184	104	208
-0.632350028	0.157350004	-1.25960004	184	104	208
-0.629949987	0.157350004	-1.25969994	184	104	208
-0.630379975	0.158700004	-1.26040006	184	104	208
-0.629519999	0.159679994	-1.25849998	184	104	208
-0.631489992	0.159559995	-1.25750005	184	104	208
-0.627129972	0.159679994	-1.25849998	184	104	208
-0.627129972	0.158480003	-1.2586	184	104	208
-0.62628001	0.157020003	-1.25699997	184	104	208
-0.624310017	0.157130003	-1.2579	184	104	208
-0.624740005	0.158480003	-1.2586	184	104	208
-0.625159979	0.159799993	-1.25940001	184	104	208
-0.620930016	0.163210005	-1.26540005	184	104	208
-0.61947	0.166749999	-1.2723	184	104	208
-0.62270999	0.16821	-1.27390003	184	104	208
-0.623549998	0.169620007	-1.27550006	184	104	208
-0.621550024	0.169740006	-1.27649999	184	104	208
-0.62112999	0.168449998	-1.27569997	184	104	208
-0.61954999	0.168689996	-1.27750003	184	104	208
-0.61996001	0.169980004	-1.27830005	184	104	208
-0.620379984	0.171330005	-1.27900004	184	104	208
-0.622380018	0.171210006	-1.27810001	184	104	208
-0.624800026	0.171200007	-1.27810001	184	104	208
-0.626380026	0.169740006	-1.27639997	184	104	208
-0.625959992	0.168449998	-1.27569997	184	104	208
-0.627539992	0.16821	-1.27390003	184	104	208
-0.629960001	0.16821	-1.27380002	184	104	208
-0.628799975	0.169740006	-1.27639997	184	104	208
-0.630490005	0.171440005	-1.27980006	184	104	208
-0.628480017	0.171560004	-1.28079998	184	104	208
-0.628899992	0.172999993	-1.28149998	184	104	208
-0.627730012	0.173370004	-1.28419995	184	104	208
-0.62529999	0.173370004	-1.28419995	184	104	208
-0.622039974	0.173130006	-1.28240001	184	104	208
-0.619610012	0.171810001	-1.28260005	184	104	208
-0.618789971	0.172879994	-1.28059995	184	104	208
-0.617959976	0.170100003	-1.27919996	184	104	208
-0.617959976	0.168929994	-1.27929997	184	104	208
-0.624710023	0.166869998	-1.27310002	184	104	208
-0.62628001	0.16663	-1.27129996	184	104	208
-0.622089982	0.175190002	-1.28770006	184	104	208
-0.622500002	0.17667	-1.28840005	184	104	208
-0.625360012	0.176789999	-1.28929996	184	104	208
-0.625360012	0.175439999	-1.2895	184	104	208
-0.627380013	0.175310001	-1.28849995	184	104	208
-0.627380013	0.17667	-1.28840005	184	104	208
-0.629459977	0.179849997	-1.29250002	184	104	208
-0.632740021	0.180099994	-1.29429996	184	104	208
-0.634769976	0.178709999	-1.29349995	184	104	208
-0.636799991	0.178580001	-1.29260004	184	104	208
-0.638830006	0.178450003	-1.29170001	184	104	208
-0.641279995	0.178450003	-1.29159999	184	104	208
-0.643739998	0.178440005	-1.29159999	184	104	208
-0.64331001	0.17701	-1.29089999	184	104	208
-0.644909978	0.176760003	-1.28900003	184	104	208
-0.647360027	0.176750004	-1.28900003	184	104	208
-0.648649991	0.178430006	-1.29149997	184	104	208
-0.646619976	0.178560004	-1.2924	184	104	208
-0.64586997	0.180319995	-1.29589999	184	104	208
-0.643830001	0.180460006	-1.29680002	184	104	208
-0.644680023	0.181960002	-1.29849994	184	104	208
-0.647140026	0.181960002	-1.29840004	184	104	208
-0.648329973	0.180319995	-1.29579997	184	104	208
-0.650359988	0.180179998	-1.29489994	184	104	208
-0.653259993	0.180299997	-1.29569995	184	104	208
-0.65486002	0.178780004	-1.29400003	184	104	208
-0.653989971	0.177220002	-1.2924	184	104	208
-0.656019986	0.177090004	-1.29149997	184	104	208
-0.656019986	0.175730005	-1.29159999	184	104	208
-0.658050001	0.175600007	-1.29069996	184	104	208
-0.658050001	0.176960006	-1.29050004	184	104	208
-0.659349978	0.178639993	-1.29299998	184	104	208
-0.658190012	0.179020002	-1.29569995	184	104	208
-0.65862	0.180399999	-1.29649997	184	104	208
-0.656159997	0.180409998	-1.29649997	184	104	208
-0.65583998	0.18231	-1.30089998	184	104	208
-0.65832001	0.182290003	-1.30079997	184	104	208
-0.660790026	0.182280004	-1.30069995	184	104	208
-0.662840009	0.182150006	-1.29980004	184	104	208
-0.664879978	0.182009995	-1.29879999	184	104	208
-0.666480005	0.180490002	-1.29709995	184	104	208
-0.668079972	0.180230007	-1.29519999	184	104	208
-0.667639971	0.178849995	-1.29449999	184	104	208
-0.669669986	0.178709999	-1.29349995	184	104	208
-0.670549989	0.180219993	-1.29509997	184	104	208
-0.67347002	0.180319995	-1.29589999	184	104	208
-0.67347002	0.181580007	-1.29569995	184	104	208
-0.675509989	0.180189997	-1.29489994	184	104	208
-0.675949991	0.179049999	-1.296	184	104	208
-0.673910022	0.179189995	-1.29700005	184	104	208
-0.677089989	0.179920003	-1.29299998	184	104	208
-0.676649988	0.178540006	-1.29229999	184	104	208
-0.678229988	0.178279996	-1.29040003	184	104	208
-0.680249989	0.17814	-1.28939998	184	104	208
-0.681150019	0.179639995	-1.29100001	184	104	208
-0.679120004	0.179780006	-1.29200006	184	104	208
-0.68453002	0.178609997	-1.29279995	184	104	208
-0.686559975	0.178470001	-1.29180002	184	104	208
-0.68858999	0.178330004	-1.29079998	184	104	208
-0.690609992	0.178189993	-1.28970003	184	104	208
-0.689700007	0.176640004	-1.28820002	184	104	208
-0.687680006	0.17678	-1.28919995	184	104	208
-0.684750021	0.176679999	-1.28840005	184	104	208
-0.68137002	0.176449999	-1.28680003	184	104	208
-0.678900003	0.176469997	-1.28690004	184	104	208
-0.682030022	0.174600005	-1.28330004	184	104	208
-0.684499979	0.174579993	-1.28320003	184	104	208
-0.684499979	0.173250005	-1.28340006	184	104	208
-0.68313998	0.171580002	-1.2809	184	104	208
-0.693090022	0.178169996	-1.28960001	184	104	208
-0.693549991	0.176980004	-1.29069996	184	104	208
-0.695110023	0.176719993	-1.28869998	184	104	208
-0.70164001	0.175060004	-1.28670001	184	104	208
-0.706910014	0.177110001	-1.29159999	184	104	208
-0.708940029	0.176970005	-1.29050004	184	104	208
-0.710959971	0.176819995	-1.2895	184	104	208
-0.71250999	0.17656	-1.28750002	184	104	208
-0.714999974	0.176530004	-1.28740001	184	104	208
-0.717499971	0.176499993	-1.28719997	184	104	208
-0.719039977	0.174879998	-1.28540003	184	104	208
-0.72153002	0.174860001	-1.2852	184	104	208
-0.720579982	0.173289999	-1.28359997	184	104	208
-0.722590029	0.173140004	-1.28250003	184	104	208
-0.725080013	0.173109993	-1.2823	184	104	208
-0.727090001	0.172969997	-1.28120005	184	104	208
-0.729579985	0.172940001	-1.28100002	184	104	208
-0.728609979	0.171389997	-1.27950001	184	104	208
-0.731589973	0.17148	-1.28009999	184	104	208
-0.733590007	0.171330005	-1.27900004	184	104	208
-0.732620001	0.169870004	-1.27740002	184	104	208
-0.735109985	0.169839993	-1.27719998	184	104	208
-0.737600029	0.169809997	-1.27699995	184	104	208
-0.739589989	0.169660002	-1.27579999	184	104	208
-0.742079973	0.169630006	-1.27559996	184	104	208
-0.744080007	0.169479996	-1.27450001	184	104	208
-0.744080007	0.168310001	-1.27460003	184	104	208
-0.743099988	0.166859999	-1.27310002	184	104	208
-0.745580018	0.166820005	-1.27279997	184	104	208
-0.747560024	0.168510005	-1.27610004	184	104	208
-0.747560024	0.169670001	-1.27590001	184	104	208
-0.750050008	0.168469995	-1.27579999	184	104	208
-0.749549985	0.167129993	-1.27509999	184	104	208
-0.750559986	0.165470004	-1.27240002	184	104	208
-0.749559999	0.16392	-1.27090001	184	104	208
-0.751550019	0.162420005	-1.26989996	184	104	208
-0.745589972	0.16494	-1.26839995	184	104	208
-0.744099975	0.163289994	-1.26600003	184	104	208
-0.741630018	0.164639995	-1.26610005	184	104	208
-0.739160001	0.163350001	-1.2665	184	104	208
-0.738170028	0.16178	-1.26489997	184	104	208
-0.736190021	0.161929995	-1.26610005	184	104	208
-0.736190021	0.163269997	-1.26590002	184	104	208
-0.734700024	0.163530007	-1.26789999	184	104	208
-0.733200014	0.165099993	-1.26970005	184	104	208
-0.733690023	0.166500002	-1.27030003	184	104	208
-0.734669983	0.167950004	-1.27190006	184	104	208
-0.732680023	0.168099999	-1.273	184	104	208
-0.732190013	0.166759998	-1.2723	184	104	208
-0.730679989	0.168239996	-1.27409995	184	104	208
-0.728200018	0.168270007	-1.27429998	184	104	208
-0.727240026	0.166820005	-1.27279997	184	104	208
-0.729229987	0.166669995	-1.27170002	184	104	208
-0.724759996	0.166850001	-1.273	184	104	208
-0.725719988	0.168300003	-1.27460003	184	104	208
-0.726209998	0.169579998	-1.27530003	184	104	208
-0.723730028	0.169609994	-1.27550006	184	104	208
-0.723730028	0.168449998	-1.27569997	184	104	208
-0.72469002	0.171069995	-1.27709997	184	104	208
-0.723160028	0.171330005	-1.27900004	184	104	208
-0.720200002	0.171240002	-1.27839994	184	104	208
-0.718680024	0.171499997	-1.28030002	184	104	208
-0.716669977	0.172959998	-1.28120005	184	104	208
-0.714659989	0.173109993	-1.2823	184	104	208
-0.714659989	0.174439996	-1.28209996	184	104	208
-0.712650001	0.174579993	-1.28320003	184	104	208
-0.712650001	0.173250005	-1.28330004	184	104	208
-0.711239994	0.171580002	-1.2809	184	104	208
-0.71371001	0.171560004	-1.28069997	184	104	208
-0.715719998	0.171409994	-1.27960002	184	104	208
-0.714299977	0.169839993	-1.27719998	184	104	208
-0.714299977	0.168669999	-1.2773	184	104	208
-0.715820014	0.168410003	-1.27540004	184	104	208
-0.717819989	0.168270007	-1.27429998	184	104	208
-0.718299985	0.169550002	-1.27499998	184	104	208
-0.720770001	0.169530004	-1.27479994	184	104	208
-0.719810009	0.168129995	-1.27330005	184	104	208
-0.719810009	0.166899994	-1.27339995	184	104	208
-0.718859971	0.16539	-1.27180004	184	104	208
-0.717339993	0.166930005	-1.27359998	184	104	208
-0.714869976	0.166960001	-1.27380002	184	104	208
-0.715430021	0.165189996	-1.27030003	184	104	208
-0.719889998	0.165020004	-1.26900005	184	104	208
-0.721390009	0.164770007	-1.26709998	184	104	208
-0.723370016	0.164629996	-1.26600003	184	104	208
-0.723370016	0.163310006	-1.26619995	184	104	208
-0.723850012	0.162070006	-1.26719999	184	104	208
-0.725830019	0.161929995	-1.26610005	184	104	208
-0.725350022	0.163169995	-1.2651	184	104	208
-0.726320028	0.16471	-1.26660001	184	104	208
-0.728299975	0.163249999	-1.26569998	184	104	208
-0.727330029	0.161679998	-1.26419997	184	104	208
-0.729789972	0.161650002	-1.26390004	184	104	208
-0.730759978	0.163220003	-1.26549995	184	104	208
-0.729269981	0.164790004	-1.26730001	184	104	208
-0.732249975	0.161620006	-1.26370001	184	104	208
-0.735220015	0.15986	-1.25989997	184	104	208
-0.737179995	0.158529997	-1.25899994	184	104	208
-0.736689985	0.157179996	-1.25829995	184	104	208
-0.737659991	0.156829998	-1.25539994	184	104	208
-0.741609991	0.157120004	-1.25779998	184	104	208
-0.74357003	0.156979993	-1.25660002	184	104	208
-0.742600024	0.158570006	-1.25929999	184	104	208
-0.742110014	0.159659997	-1.25829995	184	104	208
-0.740140021	0.159799993	-1.25940001	184	104	208
-0.740140021	0.158600003	-1.25960004	184	104	208
-0.738170028	0.159940004	-1.26049995	184	104	208
-0.741630018	0.161390007	-1.26189995	184	104	208
-0.740149975	0.162990004	-1.26370001	184	104	208
-0.740639985	0.161750004	-1.26470006	184	104	208
-0.745090008	0.161579996	-1.26329994	184	104	208
-0.746070027	0.159950003	-1.26059997	184	104	208
-0.745570004	0.158649996	-1.25989997	184	104	208
-0.747529984	0.157269999	-1.25899994	184	104	208
-0.749040008	0.158830002	-1.26139998	184	104	208
-0.749539971	0.160139993	-1.26209998	184	104	208
-0.750460029	0.155499995	-1.25510001	184	104	208
-0.747940004	0.153699994	-1.25100005	184	104	208
-0.745490015	0.155000001	-1.25109994	184	104	208
-0.742030025	0.154819995	-1.24969995	184	104	208
-0.739589989	0.154850006	-1.24989998	184	104	208
-0.73763001	0.154990003	-1.25100005	184	104	208
-0.736639977	0.153510004	-1.24950004	184	104	208
-0.738590002	0.153380007	-1.24839997	184	104	208
-0.740530014	0.153239995	-1.24720001	184	104	208
-0.741479993	0.152889997	-1.24440002	184	104	208
-0.740469992	0.151419997	-1.2428	184	104	208
-0.738030016	0.151449993	-1.24310005	184	104	208
-0.736100018	0.151590005	-1.24419999	184	104	208
-0.735650003	0.152040005	-1.24790001	184	104	208
-0.733200014	0.152070001	-1.24810004	184	104	208
-0.730759978	0.152099997	-1.24839997	184	104	208
-0.731260002	0.153469995	-1.24909997	184	104	208
-0.732240021	0.154939994	-1.2507	184	104	208
-0.734189987	0.154809996	-1.24960005	184	104	208
-0.734690011	0.153650001	-1.25059998	184	104	208
-0.729309976	0.154870003	-1.25	184	104	208
-0.728320003	0.153390005	-1.24849999	184	104	208
-0.727829993	0.152020007	-1.24769998	184	104	208
-0.725880027	0.152150005	-1.24880004	184	104	208
-0.726859987	0.153630003	-1.25039995	184	104	208
-0.726369977	0.154789999	-1.24940002	184	104	208
-0.723930001	0.154819995	-1.24960005	184	104	208
-0.724910021	0.153760001	-1.25150001	184	104	208
-0.724910021	0.152490005	-1.25170004	184	104	208
-0.722469985	0.152520001	-1.25189996	184	104	208
-0.722469985	0.153789997	-1.25170004	184	104	208
-0.721010029	0.154730007	-1.24899995	184	104	208
-0.718569994	0.154760003	-1.24919999	184	104	208
-0.717599988	0.153280005	-1.24759996	184	104	208
-0.717599988	0.152020007	-1.24779999	184	104	208
-0.714680016	0.151940003	-1.2471	184	104	208
-0.714680016	0.153200001	-1.24689996	184	104	208
-0.715170026	0.154569998	-1.24769998	184	104	208
-0.712740004	0.153329998	-1.24800003	184	104	208
-0.711769998	0.151859999	-1.2464	184	104	208
-0.712230027	0.153779998	-1.25170004	184	104	208
-0.712719977	0.155159995	-1.25240004	184	104	208
-0.710759997	0.155289993	-1.25349998	184	104	208
-0.709800005	0.153809994	-1.25189996	184	104	208
-0.707849979	0.155210003	-1.25279999	184	104	208
-0.707319975	0.15693	-1.25629997	184	104	208
-0.710240006	0.157020003	-1.25699997	184	104	208
-0.70875001	0.158500001	-1.25880003	184	104	208
-0.709710002	0.159920007	-1.26030004	184	104	208
-0.711679995	0.158580005	-1.25940001	184	104	208
-0.713159978	0.157100007	-1.25769997	184	104	208
-0.715120018	0.156969994	-1.25660002	184	104	208
-0.717090011	0.156839997	-1.25549996	184	104	208
-0.71904999	0.1567	-1.25440001	184	104	208
-0.721490026	0.156680003	-1.25419998	184	104	208
-0.723450005	0.156540006	-1.25310004	184	104	208
-0.726379991	0.156619996	-1.25380003	184	104	208
-0.72785002	0.156379998	-1.25179994	184	104	208
-0.732259989	0.156780005	-1.25510001	184	104	208
-0.733250022	0.158230007	-1.25660002	184	104	208
-0.714190006	0.154919997	-1.25049996	184	104	208
-0.705929995	0.153510004	-1.24950004	184	104	208
-0.703980029	0.154909998	-1.25030005	184	104	208
-0.701080024	0.154819995	-1.24969995	184	104	208
-0.701020002	0.156650007	-1.25399995	184	104	208
-0.703459978	0.156629995	-1.25390005	184	104	208
-0.698989987	0.158590004	-1.25950003	184	104	208
-0.689710021	0.159979999	-1.2608	184	104	208
-0.703540027	0.151710004	-1.24520004	184	104	208
-0.697749972	0.15027	-1.24399996	184	104	208
-0.703079998	0.147249997	-1.24030006	184	104	208
-0.718079984	0.150299996	-1.24419999	184	104	208
-0.720019996	0.150169998	-1.24319994	184	104	208
-0.722450018	0.150140002	-1.24290001	184	104	208
-0.724380016	0.150010005	-1.24189997	184	104	208
-0.725329995	0.149670005	-1.23899996	184	104	208
-0.727259994	0.149540007	-1.23800004	184	104	208
-0.72676003	0.148149997	-1.23720002	184	104	208
-0.724340022	0.148169994	-1.23749995	184	104	208
-0.724340022	0.146929994	-1.23759997	184	104	208
-0.725279987	0.146599993	-1.23479998	184	104	208
-0.724780023	0.145290002	-1.23409998	184	104	208
-0.726199985	0.145060003	-1.23210001	184	104	208
-0.725709975	0.143739998	-1.23140001	184	104	208
-0.727620006	0.143610001	-1.23029995	184	104	208
-0.728619993	0.145030007	-1.23189998	184	104	208
-0.72961998	0.146439999	-1.2335	184	104	208
-0.727199972	0.146469995	-1.23370004	184	104	208
-0.73003	0.144800007	-1.2299	184	104	208
-0.730530024	0.143680006	-1.23090005	184	104	208
-0.733449996	0.143759996	-1.23160005	184	104	208
-0.734860003	0.143529996	-1.22959995	184	104	208
-0.735769987	0.141949996	-1.22689998	184	104	208
-0.737670004	0.141829997	-1.22580004	184	104	208
-0.737169981	0.140479997	-1.22510004	184	104	208
-0.733749986	0.139060006	-1.22379994	184	104	208
-0.733240008	0.140210003	-1.22280002	184	104	208
-0.730840027	0.140239999	-1.22300005	184	104	208
-0.72894001	0.140369996	-1.22409999	184	104	208
-0.729439974	0.141709998	-1.22479999	184	104	208
-0.731850028	0.141690001	-1.22459996	184	104	208
-0.732349992	0.139280006	-1.22570002	184	104	208
-0.729939997	0.139310002	-1.22599995	184	104	208
-0.728030026	0.139430001	-1.22710001	184	104	208
-0.727029979	0.140489995	-1.22520006	184	104	208
-0.725130022	0.140619993	-1.2263	184	104	208
-0.726620018	0.142169997	-1.22870004	184	104	208
-0.728030026	0.141939998	-1.22679996	184	104	208
-0.724219978	0.142189994	-1.22899997	184	104	208
-0.721809983	0.142220005	-1.22920001	184	104	208
-0.722800016	0.143659994	-1.23080003	184	104	208
-0.726530015	0.137869999	-1.22459996	184	104	208
-0.72894001	0.137850001	-1.22440004	184	104	208
-0.729330003	0.137429997	-1.22070003	184	104	208
-0.731220007	0.137309998	-1.21959996	184	104	208
-0.733120024	0.137189999	-1.21850002	184	104	208
-0.734640002	0.136209995	-1.22119999	184	104	208
-0.734640002	0.138740003	-1.22099996	184	104	208
-0.731090009	0.134350002	-1.21539998	184	104	208
-0.728699982	0.134369999	-1.21560001	184	104	208
-0.728699982	0.135560006	-1.2155	184	104	208
-0.726809978	0.135690004	-1.21659994	184	104	208
-0.727320015	0.13459	-1.21759999	184	104	208
-0.724420011	0.135710001	-1.21679997	184	104	208
-0.723919988	0.134430006	-1.21609998	184	104	208
-0.723919988	0.133279994	-1.21619999	184	104	208
-0.725310028	0.133070007	-1.21430004	184	104	208
-0.724300027	0.131679997	-1.21270001	184	104	208
-0.721920013	0.131709993	-1.21290004	184	104	208
-0.720910013	0.130260006	-1.21130002	184	104	208
-0.722790003	0.130150005	-1.21019995	184	104	208
-0.724669993	0.130030006	-1.20910001	184	104	208
-0.72566998	0.131469995	-1.21070004	184	104	208
-0.72755003	0.131349996	-1.20959997	184	104	208
-0.727050006	0.129999995	-1.20889997	184	104	208
-0.726029992	0.128580004	-1.20729995	184	104	208
-0.728410006	0.128560007	-1.20710003	184	104	208
-0.72943002	0.129979998	-1.20869994	184	104	208
-0.729070008	0.132829994	-1.21210003	184	104	208
-0.727689981	0.133039996	-1.21399999	184	104	208
-0.72153002	0.134450004	-1.21630001	184	104	208
-0.721029997	0.133210003	-1.21560001	184	104	208
-0.720529974	0.135450006	-1.21449995	184	104	208
-0.719640017	0.135759994	-1.21730006	184	104	208
-0.719640017	0.134570003	-1.21739995	184	104	208
-0.717750013	0.134690002	-1.21850002	184	104	208
-0.717750013	0.135879993	-1.21829998	184	104	208
-0.715369999	0.135910004	-1.21850002	184	104	208
-0.714380026	0.134519994	-1.21700001	184	104	208
-0.714380026	0.133379996	-1.21710002	184	104	208
-0.71675998	0.133359998	-1.21689999	184	104	208
-0.71815002	0.133139998	-1.21490002	184	104	208
-0.717530012	0.131359994	-1.20969999	184	104	208
-0.717530012	0.130099997	-1.2098	184	104	208
-0.715160012	0.130119994	-1.21000004	184	104	208
-0.715160012	0.131380007	-1.20990002	184	104	208
-0.712289989	0.131310001	-1.20920002	184	104	208
-0.710910022	0.131520003	-1.2112	184	104	208
-0.707549989	0.131349996	-1.20959997	184	104	208
-0.708920002	0.129889995	-1.20780003	184	104	208
-0.710799992	0.129769996	-1.20679998	184	104	208
-0.710300028	0.128450006	-1.20609999	184	104	208
-0.712170005	0.128330007	-1.20500004	184	104	208
-0.713530004	0.128130004	-1.20309997	184	104	208
-0.712530017	0.126729995	-1.20150006	184	104	208
-0.713029981	0.125660002	-1.20239997	184	104	208
-0.714890003	0.125550002	-1.20140004	184	104	208
-0.715399981	0.126800001	-1.20210004	184	104	208
-0.717760026	0.126770005	-1.20190001	184	104	208
-0.717260003	0.125530005	-1.20120001	184	104	208
-0.716750026	0.124329999	-1.20039999	184	104	208
-0.718110025	0.124130003	-1.19850004	184	104	208
-0.719619989	0.125510007	-1.20089996	184	104	208
-0.721480012	0.124279998	-1.20000005	184	104	208
-0.722490013	0.125569999	-1.20159996	184	104	208
-0.724349976	0.125459999	-1.20050001	184	104	208
-0.725870013	0.126880005	-1.20290005	184	104	208
-0.723500013	0.126910001	-1.20319998	184	104	208
-0.721130013	0.126929998	-1.20340002	184	104	208
-0.720780015	0.128539994	-1.2069	184	104	208
-0.723150015	0.128519997	-1.20669997	184	104	208
-0.716899991	0.128289998	-1.20459998	184	104	208
-0.711170018	0.126929998	-1.20340002	184	104	208
-0.710169971	0.125599995	-1.20179999	184	104	208
-0.707809985	0.126770005	-1.20190001	184	104	208
-0.706939995	0.127069995	-1.20469999	184	104	208
-0.707440019	0.128380001	-1.20539999	184	104	208
-0.706059992	0.129820004	-1.20720005	184	104	208
-0.704680026	0.130019993	-1.20910001	184	104	208
-0.70231998	0.131300002	-1.20910001	184	104	208
-0.701830029	0.129950002	-1.20840001	184	104	208
-0.70043999	0.131410003	-1.21019995	184	104	208
-0.702400029	0.132990003	-1.21350002	184	104	208
-0.704280019	0.132870004	-1.21249998	184	104	208
-0.706650019	0.131650001	-1.21239996	184	104	208
-0.706250012	0.134399995	-1.21580005	184	104	208
-0.704360008	0.134509996	-1.21689999	184	104	208
-0.705340028	0.135900006	-1.21850002	184	104	208
-0.707229972	0.135780007	-1.21739995	184	104	208
-0.707719982	0.137140006	-1.21809995	184	104	208
-0.709609985	0.135759994	-1.21720004	184	104	208
-0.711499989	0.135639995	-1.21619999	184	104	208
-0.711499989	0.134450004	-1.21630001	184	104	208
-0.711989999	0.133399993	-1.21730006	184	104	208
-0.709119976	0.133330002	-1.21659994	184	104	208
-0.708620012	0.134379998	-1.21560001	184	104	208
-0.712490022	0.137099996	-1.2177	184	104	208
-0.711090028	0.137319997	-1.21969998	184	104	208
-0.707289994	0.137549996	-1.22179997	184	104	208
-0.706860006	0.140489995	-1.22520006	184	104	208
-0.708320022	0.142039999	-1.22759998	184	104	208
-0.701979995	0.135729998	-1.21689999	184	104	208
-0.700999975	0.134340003	-1.21529996	184	104	208
-0.700519979	0.133100003	-1.21459997	184	104	208
-0.691999972	0.134509996	-1.21689999	184	104	208
-0.689629972	0.134529993	-1.21700001	184	104	208
-0.689629972	0.13572	-1.21689999	184	104	208
-0.687740028	0.135839999	-1.21790004	184	104	208
-0.683000028	0.135869995	-1.21819997	184	104	208
-0.683000028	0.134680003	-1.2184	184	104	208
-0.681110024	0.135979995	-1.21920002	184	104	208
-0.680639982	0.137150005	-1.21819997	184	104	208
-0.680159986	0.134599999	-1.21759999	184	104	208
-0.6778	0.135800004	-1.21759999	184	104	208
-0.677330017	0.136969998	-1.21659994	184	104	208
-0.675440013	0.137079999	-1.21759999	184	104	208
-0.674969971	0.13572	-1.21689999	184	104	208
-0.674019992	0.134330004	-1.21529996	184	104	208
-0.674489975	0.133289993	-1.21630001	184	104	208
-0.676850021	0.134419993	-1.21599996	184	104	208
-0.675440013	0.132990003	-1.21350002	184	104	208
-0.672609985	0.131699994	-1.21290004	184	104	208
-0.67167002	0.133210003	-1.2155	184	104	208
-0.671199977	0.13425	-1.21449995	184	104	208
-0.67167002	0.135539994	-1.21519995	184	104	208
-0.669309974	0.133220002	-1.21560001	184	104	208
-0.668380022	0.131830007	-1.21399999	184	104	208
-0.668380022	0.134169996	-1.21370006	184	104	208
-0.66602999	0.134179994	-1.21379995	184	104	208
-0.663209975	0.134090006	-1.21309996	184	104	208
-0.663209975	0.132949993	-1.21319997	184	104	208
-0.663209975	0.131750003	-1.21329999	184	104	208
-0.664629996	0.131549999	-1.21150005	184	104	208
-0.664629996	0.132750005	-1.21130002	184	104	208
-0.660860002	0.132960007	-1.21329999	184	104	208
-0.660399973	0.131669998	-1.21249998	184	104	208
-0.659439981	0.134310007	-1.21500003	184	104	208
-0.661790013	0.134299994	-1.21490002	184	104	208
-0.660369992	0.135700002	-1.21669996	184	104	208
-0.658940017	0.134709999	-1.21870005	184	104	208
-0.659860015	0.136099994	-1.22029996	184	104	208
-0.657959998	0.137480006	-1.22109997	184	104	208
-0.655610025	0.137490004	-1.22119999	184	104	208
-0.653710008	0.137600005	-1.22220004	184	104	208
-0.651359975	0.137600005	-1.22230005	184	104	208
-0.649909973	0.137810007	-1.22409999	184	104	208
-0.647099972	0.138980001	-1.22309995	184	104	208
-0.646650016	0.137620002	-1.22239995	184	104	208
-0.644749999	0.13899	-1.22319996	184	104	208
-0.645650029	0.137930006	-1.22510004	184	104	208
-0.643299997	0.140459999	-1.22490001	184	104	208
-0.641839981	0.140670002	-1.22669995	184	104	208
-0.640380025	0.140880004	-1.22860003	184	104	208
-0.638019979	0.140880004	-1.22860003	184	104	208
-0.634790003	0.14068	-1.22689998	184	104	208
-0.633899987	0.139219999	-1.22520006	184	104	208
-0.633019984	0.137759998	-1.22360003	184	104	208
-0.634920001	0.137649998	-1.2227	184	104	208
-0.637269974	0.137649998	-1.22259998	184	104	208
-0.639159977	0.137539998	-1.22169995	184	104	208
-0.64151001	0.137529999	-1.22160006	184	104	208
-0.641960025	0.138899997	-1.22239995	184	104	208
-0.640500009	0.1391	-1.22420001	184	104	208
-0.638599992	0.139210001	-1.22510004	184	104	208
-0.636250019	0.139219999	-1.22520006	184	104	208
-0.631560028	0.140479997	-1.22510004	184	104	208
-0.630089998	0.140689999	-1.22689998	184	104	208
-0.628180027	0.140799999	-1.22790003	184	104	208
-0.62905997	0.142250001	-1.22950006	184	104	208
-0.626709998	0.14226	-1.22950006	184	104	208
-0.625840008	0.140799999	-1.22790003	184	104	208
-0.62349999	0.140799999	-1.22790003	184	104	208
-0.623929977	0.142159998	-1.22870004	184	104	208
-0.622020006	0.14226	-1.22959995	184	104	208
-0.620540023	0.143720001	-1.23119998	184	104	208
-0.618619978	0.143820003	-1.23210001	184	104	208
-0.617760003	0.14237	-1.23049998	184	104	208
-0.619239986	0.142159998	-1.22870004	184	104	208
-0.618809998	0.140799999	-1.22790003	184	104	208
-0.617950022	0.139339998	-1.2263	184	104	208
-0.617519975	0.137970001	-1.22549999	184	104	208
-0.615190029	0.139239997	-1.22539997	184	104	208
-0.61285001	0.139239997	-1.22539997	184	104	208
-0.614329994	0.137769997	-1.22370005	184	104	208
-0.611570001	0.137669995	-1.22280002	184	104	208
-0.609669983	0.139029995	-1.22360003	184	104	208
-0.608389974	0.137470007	-1.22099996	184	104	208
-0.60650003	0.137569994	-1.22189999	184	104	208
-0.60650003	0.138830006	-1.22179997	184	104	208
-0.605019987	0.139029995	-1.22360003	184	104	208
-0.604600012	0.137669995	-1.22280002	184	104	208
-0.602699995	0.137769997	-1.22370005	184	104	208
-0.602699995	0.139029995	-1.22350001	184	104	208
-0.600799978	0.139129996	-1.22440004	184	104	208
-0.599960029	0.137659997	-1.22280002	184	104	208
-0.597220004	0.137559995	-1.22179997	184	104	208
-0.595319986	0.137649998	-1.2227	184	104	208
-0.596149981	0.139119998	-1.22430003	184	104	208
-0.594669998	0.138060004	-1.2263	184	104	208
-0.592760026	0.14068	-1.22679996	184	104	208
-0.590849996	0.140780002	-1.2277	184	104	208
-0.590030015	0.139310002	-1.22599995	184	104	208
-0.591520011	0.139109999	-1.22430003	184	104	208
-0.593420029	0.139009997	-1.2234	184	104	208
-0.589869976	0.137439996	-1.22080004	184	104	208
-0.589869976	0.13617	-1.22090006	184	104	208
-0.59175998	0.136079997	-1.22010005	184	104	208
-0.593659997	0.135979995	-1.21920002	184	104	208
-0.595130026	0.135780007	-1.21739995	184	104	208
-0.594299972	0.134389997	-1.21580005	184	104	208
-0.591989994	0.134389997	-1.21570003	184	104	208
-0.59009999	0.13448	-1.21659994	184	104	208
-0.588209987	0.134580001	-1.21739995	184	104	208
-0.587800026	0.133330002	-1.21669996	184	104	208
-0.586319983	0.134670004	-1.21829998	184	104	208
-0.583609998	0.134560004	-1.21730006	184	104	208
-0.583199978	0.135649994	-1.21630001	184	104	208
-0.581309974	0.135749996	-1.21710002	184	104	208
-0.581309974	0.134560004	-1.21730006	184	104	208
-0.580910027	0.133310005	-1.21650004	184	104	208
-0.582790017	0.133220002	-1.21560001	184	104	208
-0.584680021	0.133129999	-1.2148	184	104	208
-0.588440001	0.132939994	-1.21309996	184	104	208
-0.590740025	0.132949993	-1.21309996	184	104	208
-0.592620015	0.132850006	-1.21229994	184	104	208
-0.59491998	0.132860005	-1.21229994	184	104	208
-0.594500005	0.131559998	-1.21159995	184	104	208
-0.597220004	0.131659999	-1.21249998	184	104	208
-0.599099994	0.131569996	-1.21159995	184	104	208
-0.59849	0.133159995	-1.21510005	184	104	208
-0.597440004	0.13459	-1.21759999	184	104	208
-0.599749982	0.134599999	-1.21759999	184	104	208
-0.600589991	0.135989994	-1.21930003	184	104	208
-0.598280013	0.135989994	-1.21930003	184	104	208
-0.599309981	0.13933	-1.22619998	184	104	208
-0.597819984	0.140790001	-1.22780001	184	104	208
-0.596319973	0.140990004	-1.22959995	184	104	208
-0.596319973	0.142250001	-1.22940004	184	104	208
-0.593999982	0.142240003	-1.22940004	184	104	208
-0.592090011	0.142340004	-1.23029995	184	104	208
-0.590579987	0.142550007	-1.23199999	184	104	208
-0.590579987	0.143790007	-1.23189998	184	104	208
-0.589070022	0.143999994	-1.23360002	184	104	208
-0.586749971	0.143989995	-1.23360002	184	104	208
-0.58563	0.144299999	-1.23629999	184	104	208
-0.584110022	0.145740002	-1.23790002	184	104	208
-0.584519982	0.147049993	-1.23860002	184	104	208
-0.582589984	0.147149995	-1.23950005	184	104	208
-0.582189977	0.145840004	-1.23870003	184	104	208
-0.580579996	0.14418	-1.23520005	184	104	208
-0.581690013	0.143869996	-1.23259997	184	104	208
-0.581290007	0.142519996	-1.23179996	184	104	208
-0.579370022	0.142609999	-1.23259997	184	104	208
-0.583199978	0.142419994	-1.23090005	184	104	208
-0.584299982	0.142110005	-1.22829998	184	104	208
-0.583490014	0.140650004	-1.22660005	184	104	208
-0.585399985	0.140560001	-1.22580004	184	104	208
-0.585399985	0.139300004	-1.22590005	184	104	208
-0.587710023	0.139310002	-1.22599995	184	104	208
-0.589760005	0.141080007	-1.23039997	184	104	208
-0.587849975	0.142429993	-1.23109996	184	104	208
-0.592909992	0.143800005	-1.23189998	184	104	208
-0.594820023	0.143700004	-1.23109996	184	104	208
-0.597570002	0.143810004	-1.23199999	184	104	208
-0.598649979	0.142250001	-1.22950006	184	104	208
-0.601819992	0.141210005	-1.23150003	184	104	208
-0.602240026	0.142570004	-1.23220003	184	104	208
-0.602649987	0.143920004	-1.23300004	184	104	208
-0.600730002	0.144020006	-1.23389995	184	104	208
-0.600059986	0.145669997	-1.23730004	184	104	208
-0.597720027	0.145669997	-1.23730004	184	104	208
-0.594969988	0.145549998	-1.23629999	184	104	208
-0.593039989	0.145659998	-1.23720002	184	104	208
-0.591109991	0.14576	-1.23800004	184	104	208
-0.591929972	0.147180006	-1.23969996	184	104	208
-0.590409994	0.148640007	-1.24129999	184	104	208
-0.588469982	0.148739994	-1.24220002	184	104	208
-0.588880002	0.150140002	-1.24290001	184	104	208
-0.58653003	0.150130004	-1.24290001	184	104	208
-0.584599972	0.150230005	-1.24370003	184	104	208
-0.584200025	0.148829997	-1.24300003	184	104	208
-0.585730016	0.148619995	-1.24119997	184	104	208
-0.586849988	0.147060007	-1.23870003	184	104	208
-0.586849988	0.145850003	-1.23880005	184	104	208
-0.588779986	0.146960005	-1.2378	184	104	208
-0.587970018	0.145539999	-1.23619998	184	104	208
-0.594680011	0.147290006	-1.24070001	184	104	208
-0.595089972	0.148650005	-1.2414	184	104	208
-0.593159974	0.148750007	-1.24230003	184	104	208
-0.591629982	0.150250003	-1.24389994	184	104	208
-0.594380021	0.150370002	-1.24479997	184	104	208
-0.596319973	0.150260001	-1.24399996	184	104	208
-0.599080026	0.15038	-1.24489999	184	104	208
-0.600199997	0.150049999	-1.24220002	184	104	208
-0.600199997	0.148760006	-1.24240005	184	104	208
-0.600610018	0.147620007	-1.24339998	184	104	208
-0.601719975	0.148550004	-1.24059999	184	104	208
-0.600889981	0.147090003	-1.23899996	184	104	208
-0.602400005	0.145669997	-1.23730004	184	104	208
-0.604740024	0.145679995	-1.23730004	184	104	208
-0.605830014	0.145359993	-1.23469996	184	104	208
-0.608590007	0.142989993	-1.23590004	184	104	208
-0.61093998	0.145469993	-1.23559999	184	104	208
-0.613709986	0.145579994	-1.23650002	184	104	208
-0.615629971	0.145469993	-1.23559999	184	104	208
-0.617980003	0.145469993	-1.23559999	184	104	208
-0.616270006	0.143820003	-1.23210001	184	104	208
-0.613499999	0.143720001	-1.23119998	184	104	208
-0.611590028	0.143820003	-1.23210001	184	104	208
-0.608820021	0.143720001	-1.23119998	184	104	208
-0.608820021	0.142470002	-1.23140001	184	104	208
-0.610319972	0.14226	-1.22959995	184	104	208
-0.609889984	0.14091	-1.22880006	184	104	208
-0.611800015	0.140799999	-1.22790003	184	104	208
-0.614139974	0.140809998	-1.22790003	184	104	208
-0.614560008	0.142159998	-1.22870004	184	104	208
-0.612649977	0.14226	-1.22959995	184	104	208
-0.616469979	0.140809998	-1.22790003	184	104	208
-0.620289981	0.140599996	-1.22609997	184	104	208
-0.624970019	0.139339998	-1.22619998	184	104	208
-0.626869977	0.139229998	-1.22529995	184	104	208
-0.629220009	0.139229998	-1.22529995	184	104	208
-0.630680025	0.139019996	-1.22350001	184	104	208
-0.62936002	0.137459993	-1.22099996	184	104	208
-0.627020001	0.137459993	-1.22099996	184	104	208
-0.62105	0.135900006	-1.21850002	184	104	208
-0.62105	0.134709999	-1.21860003	184	104	208
-0.619159997	0.134810001	-1.21949995	184	104	208
-0.620029986	0.136199996	-1.22119999	184	104	208
-0.622510016	0.134509996	-1.21679997	184	104	208
-0.622070014	0.133259997	-1.21599996	184	104	208
-0.623960018	0.134310007	-1.21500003	184	104	208
