-0.691280007	-0.00921669975	-1.06410003	252	139	90
-0.690199971	-0.00812640041	-1.06239998	252	139	90
-0.690199971	-0.00718590012	-1.06239998	252	139	90
-0.690739989	-0.00606819987	-1.06330001	252	139	90
-0.69234997	-0.00606229994	-1.06229997	252	139	90
-0.692889988	-0.00500450004	-1.06309998	252	139	90
-0.69234997	-0.00391109986	-1.06229997	252	139	90
-0.69234997	-0.00283839996	-1.06229997	252	139	90
-0.692889988	-0.00177800003	-1.06309998	252	139	90
-0.691280007	-0.00177980005	-1.06420004	252	139	90
-0.690739989	-0.000828519987	-1.06330001	252	139	90
-0.68858999	-0.00177870004	-1.06350005	252	139	90
-0.687510014	-0.00283719995	-1.0618	252	139	90
-0.689660013	-0.00283659995	-1.06159997	252	139	90
-0.690739989	-0.00391499978	-1.06330001	252	139	90
-0.691820025	-0.00501330011	-1.06500006	252	139	90
-0.690209985	-0.00501819979	-1.06599998	252	139	90
-0.690209985	-0.00392499985	-1.06599998	252	139	90
-0.688600004	-0.00392880011	-1.06710005	252	139	90
-0.688059986	-0.00501909992	-1.06620002	252	139	90
-0.686980009	-0.00607520016	-1.06449997	252	139	90
-0.687520027	-0.00720559992	-1.0654	252	139	90
-0.687520027	-0.0081487	-1.06529999	252	139	90
-0.689130008	-0.00814079959	-1.06429994	252	139	90
-0.68858999	-0.00719289994	-1.06350005	252	139	90
-0.68858999	-0.00606930023	-1.06350005	252	139	90
-0.687520027	-0.00284669991	-1.0654	252	139	90
-0.685370028	-0.00284720003	-1.06560004	252	139	90
-0.685909986	-0.0039264001	-1.06640005	252	139	90
-0.683220029	-0.00392389996	-1.06570005	252	139	90
-0.683220029	-0.00501690013	-1.06570005	252	139	90
-0.682690024	-0.00607720017	-1.06490004	252	139	90
-0.682690024	-0.00720229978	-1.06490004	252	139	90
-0.682690024	-0.00814499985	-1.06490004	252	139	90
-0.682150006	-0.00921589974	-1.06400001	252	139	90
-0.680540025	-0.00814639963	-1.06500006	252	139	90
-0.680540025	-0.00720349979	-1.06509995	252	139	90
-0.681079984	-0.0060831001	-1.06589997	252	139	90
-0.681609988	-0.00502170017	-1.0668	252	139	90
-0.681609988	-0.00392770022	-1.0668	252	139	90
-0.680000007	-0.0039313999	-1.06780005	252	139	90
-0.680000007	-0.00502650021	-1.06780005	252	139	90
-0.680530012	-0.00609849999	-1.06860006	252	139	90
-0.678910017	-0.00503520016	-1.06959999	252	139	90
-0.679440022	-0.00610919995	-1.07050002	252	139	90
-0.679970026	-0.00724590011	-1.07130003	252	139	90
-0.679440022	-0.00818779971	-1.07050002	252	139	90
-0.678349972	-0.00820210017	-1.07229996	252	139	90
-0.678879976	-0.00725849997	-1.07319999	252	139	90
-0.677250028	-0.00726540014	-1.07420003	252	139	90
-0.677779973	-0.00822279975	-1.07500005	252	139	90
-0.676150024	-0.007278	-1.07609999	252	139	90
-0.676680028	-0.00823710021	-1.07690001	252	139	90
-0.67505002	-0.00824480038	-1.07790005	252	139	90
-0.67505002	-0.00729059987	-1.07790005	252	139	90
-0.67505002	-0.00615169993	-1.07790005	252	139	90
-0.673409998	-0.00507899979	-1.07889998	252	139	90
-0.673940003	-0.00616229977	-1.07980001	252	139	90
-0.673409998	-0.00729739992	-1.07889998	252	139	90
-0.671259999	-0.00729840016	-1.07910001	252	139	90
-0.670729995	-0.00824709982	-1.07819998	252	139	90
-0.671840012	-0.00823289994	-1.07640004	252	139	90
-0.671320021	-0.00931540038	-1.07550001	252	139	90
-0.669160008	-0.00931669958	-1.07570004	252	139	90
-0.66753	-0.00823520031	-1.07669997	252	139	90
-0.668060005	-0.00728779985	-1.07749999	252	139	90
-0.668060005	-0.00614940003	-1.07749999	252	139	90
-0.666419983	-0.0072945999	-1.07850003	252	139	90
-0.666419983	-0.0082492996	-1.07850003	252	139	90
-0.665300012	-0.00730710011	-1.08039999	252	139	90
-0.663670003	-0.00731380004	-1.08140004	252	139	90
-0.662119985	-0.00825139973	-1.07879996	252	139	90
-0.663749993	-0.00824380014	-1.07780004	252	139	90
-0.663749993	-0.00615100004	-1.07780004	252	139	90
-0.663230002	-0.00506970007	-1.07700002	252	139	90
-0.662710011	-0.00396210002	-1.07609999	252	139	90
-0.662199974	-0.00287299999	-1.07529998	252	139	90
-0.661679983	-0.00179689995	-1.07439995	252	139	90
-0.661679983	-0.000837159983	-1.07439995	252	139	90
-0.659529984	-0.000837259984	-1.07449996	252	139	90
-0.659529984	-0.00179709995	-1.07449996	252	139	90
-0.660049975	-0.00287339999	-1.07539999	252	139	90
-0.661080003	-0.00396570005	-1.07710004	252	139	90
-0.661599994	-0.00507429987	-1.07790005	252	139	90
-0.661599994	-0.00615169993	-1.07790005	252	139	90
-0.660570025	-0.00932139996	-1.07620001	252	139	90
-0.662199974	-0.00931289978	-1.07519996	252	139	90
-0.663820028	-0.00930429995	-1.07420003	252	139	90
-0.66486001	-0.00614040019	-1.07599998	252	139	90
-0.665380001	-0.00506900018	-1.07679999	252	139	90
-0.66753	-0.00396420015	-1.07669997	252	139	90
-0.667010009	-0.00179929996	-1.07579994	252	139	90
-0.66753	-0.000838939974	-1.07669997	252	139	90
-0.669160008	-0.00179909996	-1.07570004	252	139	90
-0.670790017	-0.0028715001	-1.0747	252	139	90
-0.671320021	-0.00395999989	-1.07550001	252	139	90
-0.67347002	-0.00395940011	-1.07539999	252	139	90
-0.674000025	-0.00287569989	-1.07620001	252	139	90
-0.674520016	-0.00180139998	-1.07710004	252	139	90
-0.674000025	-0.000838589971	-1.07620001	252	139	90
-0.675629973	-0.000837809988	-1.07519996	252	139	90
-0.675629973	-0.00179829996	-1.07519996	252	139	90
-0.676150024	-0.00287529989	-1.07609999	252	139	90
-0.676150024	-0.0050654998	-1.07609999	252	139	90
-0.677779973	-0.00506079989	-1.07509995	252	139	90
-0.677779973	-0.00395830022	-1.07509995	252	139	90
-0.677250028	-0.00287030009	-1.07420003	252	139	90
-0.676729977	-0.00179520005	-1.07340002	252	139	90
-0.678349972	-0.00179350004	-1.07239997	252	139	90
-0.677820027	-0.000834910024	-1.07149994	252	139	90
-0.675140023	-0.000834369974	-1.07079995	252	139	90
-0.677290022	-0.00394200021	-1.07070005	252	139	90
-0.677850008	-0.00393209979	-1.06789994	252	139	90
-0.679459989	-0.00178439997	-1.06690001	252	139	90
-0.677850008	-0.00083213998	-1.06799996	252	139	90
-0.67839998	-0.000830030011	-1.06519997	252	139	90
-0.680010021	-0.000829230004	-1.06420004	252	139	90
-0.680010021	-0.00177990005	-1.06420004	252	139	90
-0.680010021	-0.0028436	-1.06420004	252	139	90
-0.682150006	-0.00177960005	-1.06410003	252	139	90
-0.682150006	-0.000829100027	-1.06410003	252	139	90
-0.683759987	-0.000828300021	-1.06299996	252	139	90
-0.68483001	-0.00082685001	-1.06120002	252	139	90
-0.686969995	-0.000826700008	-1.06099999	252	139	90
-0.685909986	-0.00177760003	-1.06289995	252	139	90
-0.68483001	-0.00178070005	-1.06470001	252	139	90
-0.684300005	-0.00500810007	-1.06389999	252	139	90
-0.683759987	-0.00606659986	-1.06299996	252	139	90
-0.68483001	-0.00720109977	-1.06470001	252	139	90
-0.68483001	-0.00814360008	-1.06470001	252	139	90
-0.683759987	-0.0104400003	-1.06649995	252	139	90
-0.682139993	-0.0104499999	-1.06760001	252	139	90
-0.682139993	-0.00924670044	-1.06760001	252	139	90
-0.678929985	-0.00815409981	-1.0661	252	139	90
-0.678929985	-0.00721039996	-1.0661	252	139	90
-0.677820027	-0.00928040035	-1.07149994	252	139	90
-0.677820027	-0.0104879998	-1.07149994	252	139	90
-0.676199973	-0.00928920042	-1.07249999	252	139	90
-0.678309977	-0.00614009984	-1.07589996	252	139	90
-0.679939985	-0.00613430003	-1.07490003	252	139	90
-0.679409981	-0.00505599985	-1.074	252	139	90
-0.679409981	-0.00286979997	-1.07410002	252	139	90
-0.680499971	-0.00179320003	-1.07219994	252	139	90
-0.679970026	-0.00286259991	-1.07130003	252	139	90
-0.681060016	-0.00285760011	-1.06949997	252	139	90
-0.680540025	-0.00283639994	-1.06149995	252	139	90
-0.677209973	-0.00396820018	-1.07780004	252	139	90
-0.677730024	-0.00615559984	-1.07860005	252	139	90
-0.676620007	-0.0093582999	-1.08050001	252	139	90
-0.676620007	-0.0105760004	-1.08039999	252	139	90
-0.676100016	-0.0115759997	-1.07959998	252	139	90
-0.674459994	-0.0115870005	-1.08060002	252	139	90
-0.673940003	-0.0105689997	-1.07980001	252	139	90
-0.672299981	-0.011589	-1.08070004	252	139	90
-0.67177999	-0.0126679996	-1.07990003	252	139	90
-0.669619977	-0.0115809999	-1.08000004	252	139	90
-0.669619977	-0.0105720004	-1.08010006	252	139	90
-0.667460024	-0.0105729997	-1.08019996	252	139	90
-0.667460024	-0.0115830004	-1.08019996	252	139	90
-0.667460024	-0.0126710003	-1.08019996	252	139	90
-0.669099987	-0.0126590002	-1.07920003	252	139	90
-0.667460024	-0.014769	-1.08010006	252	139	90
-0.665820003	-0.0126830004	-1.0812	252	139	90
-0.665820003	-0.011593	-1.0812	252	139	90
-0.664179981	-0.0116039999	-1.08220005	252	139	90
-0.664179981	-0.0126940003	-1.08220005	252	139	90
-0.663670003	-0.0138269998	-1.08130002	252	139	90
-0.664179981	-0.0147970002	-1.08210003	252	139	90
-0.66573	-0.0159300007	-1.08469999	252	139	90
-0.66624999	-0.017159	-1.0855	252	139	90
-0.66573	-0.0202210005	-1.08459997	252	139	90
-0.66624999	-0.0212849993	-1.08539999	252	139	90
-0.667379975	-0.0223890003	-1.08360004	252	139	90
-0.667900026	-0.0235309992	-1.08440006	252	139	90
-0.668410003	-0.0246479996	-1.08519995	252	139	90
-0.668410003	-0.0257300008	-1.08519995	252	139	90
-0.666769981	-0.0257530008	-1.0862	252	139	90
-0.66624999	-0.0246510003	-1.08539999	252	139	90
-0.666769981	-0.0235709995	-1.08630002	252	139	90
-0.668929994	-0.0212990008	-1.0862	252	139	90
-0.668410003	-0.0202350002	-1.08529997	252	139	90
-0.670059979	-0.0212619994	-1.08430004	252	139	90
-0.669019997	-0.0223680008	-1.0826	252	139	90
-0.666859984	-0.0191830005	-1.08280003	252	139	90
-0.664179981	-0.0191699993	-1.08210003	252	139	90
-0.664179981	-0.0181029998	-1.08210003	252	139	90
-0.663670003	-0.0223389994	-1.08109999	252	139	90
-0.670660019	-0.0170980003	-1.08169997	252	139	90
-0.673349977	-0.0181079991	-1.08239996	252	139	90
-0.672219992	-0.0181389991	-1.08420002	252	139	90
-0.674910009	-0.0171489995	-1.08490002	252	139	90
-0.676559985	-0.0171329994	-1.08389997	252	139	90
-0.676559985	-0.0181339998	-1.08389997	252	139	90
-0.678200006	-0.0181169994	-1.08290005	252	139	90
-0.678200006	-0.0171169993	-1.08290005	252	139	90
-0.679840028	-0.0181000009	-1.0819	252	139	90
-0.680369973	-0.0191820003	-1.08270001	252	139	90
-0.680949986	-0.0191339999	-1.08000004	252	139	90
-0.680429995	-0.0201190002	-1.07910001	252	139	90
-0.682060003	-0.0200999994	-1.07809997	252	139	90
-0.680999994	-0.0190699995	-1.07640004	252	139	90
-0.68046999	-0.0179949999	-1.07560003	252	139	90
-0.68046999	-0.0170019995	-1.07560003	252	139	90
-0.68046999	-0.0157970004	-1.07560003	252	139	90
-0.679369986	-0.0170310009	-1.07749999	252	139	90
-0.680429995	-0.0180539992	-1.07920003	252	139	90
-0.679319978	-0.0170879997	-1.08099997	252	139	90
-0.680369973	-0.0159019995	-1.08280003	252	139	90
-0.68147999	-0.0158740003	-1.08089995	252	139	90
-0.68147999	-0.0147799999	-1.08089995	252	139	90
-0.681420028	-0.0148290005	-1.08449996	252	139	90
-0.680299997	-0.0192450006	-1.08630002	252	139	90
-0.678129971	-0.024673	-1.08630002	252	139	90
-0.676999986	-0.0247150008	-1.08819997	252	139	90
-0.678049982	-0.0258409996	-1.08990002	252	139	90
-0.679180026	-0.0257959999	-1.08800006	252	139	90
-0.677529991	-0.0279580001	-1.08899999	252	139	90
-0.679700017	-0.0290559996	-1.08879995	252	139	90
-0.680830002	-0.0290060006	-1.0869	252	139	90
-0.678650022	-0.0300999992	-1.08710003	252	139	90
-0.678650022	-0.0311719999	-1.08700001	252	139	90
-0.681420028	-0.0300200004	-1.08420002	252	139	90
-0.681420028	-0.0289329998	-1.08420002	252	139	90
-0.683070004	-0.0289060008	-1.08319998	252	139	90
-0.683070004	-0.0299919993	-1.08309996	252	139	90
-0.684710026	-0.0288789999	-1.08220005	252	139	90
-0.683650017	-0.0299159996	-1.08039999	252	139	90
-0.685289979	-0.034159001	-1.07930005	252	139	90
-0.686919987	-0.0330520011	-1.0783	252	139	90
-0.689090014	-0.0330459997	-1.07809997	252	139	90
-0.688560009	-0.0340939984	-1.07720006	252	139	90
-0.690190017	-0.0340609998	-1.07620001	252	139	90
-0.692359984	-0.0340549983	-1.07599998	252	139	90
-0.692889988	-0.0330080017	-1.07690001	252	139	90
-0.691799998	-0.0330660008	-1.07869995	252	139	90
-0.691799998	-0.0352340005	-1.07869995	252	139	90
-0.689629972	-0.0352399983	-1.07889998	252	139	90
-0.68799001	-0.035273999	-1.07990003	252	139	90
-0.68799001	-0.0341800004	-1.07990003	252	139	90
-0.686349988	-0.0353070013	-1.08089995	252	139	90
-0.685819983	-0.0363680013	-1.08010006	252	139	90
-0.685819983	-0.0374470018	-1.08000004	252	139	90
-0.685819983	-0.038555	-1.08000004	252	139	90
-0.684180021	-0.0385919996	-1.08099997	252	139	90
-0.684180021	-0.0397440009	-1.08099997	252	139	90
-0.682539999	-0.0397819988	-1.08200002	252	139	90
-0.682539999	-0.0386280008	-1.08200002	252	139	90
-0.682539999	-0.0375179984	-1.08210003	252	139	90
-0.683070004	-0.0364650004	-1.08290005	252	139	90
-0.684710026	-0.0364309996	-1.0819	252	139	90
-0.684180021	-0.035312999	-1.08109999	252	139	90
-0.683650017	-0.0374529995	-1.08019996	252	139	90
-0.680899978	-0.0375539996	-1.08309996	252	139	90
-0.680899978	-0.0386650003	-1.08299994	252	139	90
-0.681420028	-0.0398500003	-1.08389997	252	139	90
-0.682479978	-0.0410079993	-1.0855	252	139	90
-0.683529973	-0.0421070009	-1.08720005	252	139	90
-0.683529973	-0.0431570001	-1.08710003	252	139	90
-0.683529973	-0.0442290008	-1.08710003	252	139	90
-0.685180008	-0.0441880003	-1.08609998	252	139	90
-0.684650004	-0.0452699997	-1.08519995	252	139	90
-0.682479978	-0.0452769995	-1.08529997	252	139	90
-0.681349993	-0.0453549996	-1.08720005	252	139	90
-0.681349993	-0.0442360006	-1.08729994	252	139	90
-0.681349993	-0.0431639999	-1.08729994	252	139	90
-0.679180026	-0.0431700014	-1.08749998	252	139	90
-0.680230021	-0.0421859995	-1.08920002	252	139	90
-0.679700017	-0.0411170013	-1.08840001	252	139	90
-0.680230021	-0.04005	-1.08930004	252	139	90
-0.679700017	-0.0388589986	-1.08850002	252	139	90
-0.681349993	-0.0388230011	-1.08749998	252	139	90
-0.681879997	-0.0400130004	-1.08829999	252	139	90
-0.682399988	-0.0411430001	-1.0891	252	139	90
-0.682399988	-0.0421789996	-1.08899999	252	139	90
-0.680230021	-0.0443120003	-1.0891	252	139	90
-0.680750012	-0.0454690009	-1.08990002	252	139	90
-0.680230021	-0.0466240011	-1.08899999	252	139	90
-0.679700017	-0.047727	-1.08809996	252	139	90
-0.681349993	-0.0476819985	-1.08710003	252	139	90
-0.681349993	-0.0465440005	-1.08720005	252	139	90
-0.683529973	-0.0465370007	-1.08700001	252	139	90
-0.684059978	-0.0477119982	-1.08780003	252	139	90
-0.685180008	-0.0476300009	-1.08589995	252	139	90
-0.685710013	-0.0487530008	-1.08669996	252	139	90
-0.687359989	-0.0487070009	-1.08570004	252	139	90
-0.687359989	-0.0476219989	-1.08570004	252	139	90
-0.689540029	-0.0476140007	-1.0855	252	139	90
-0.688419998	-0.0465580001	-1.08749998	252	139	90
-0.686240017	-0.0465659983	-1.08770001	252	139	90
-0.686829984	-0.0452629998	-1.08500004	252	139	90
-0.686829984	-0.0441460013	-1.08500004	252	139	90
-0.68629998	-0.0430420004	-1.08420002	252	139	90
-0.687940001	-0.0430009998	-1.08319998	252	139	90
-0.687940001	-0.0419550017	-1.08319998	252	139	90
-0.68848002	-0.0409560017	-1.08410001	252	139	90
-0.690119982	-0.0398240015	-1.08309996	252	139	90
-0.692300022	-0.0398170017	-1.08290005	252	139	90
-0.692830026	-0.040941	-1.08369994	252	139	90
-0.694480002	-0.0419330001	-1.08270001	252	139	90
-0.695010006	-0.0409340002	-1.08350003	252	139	90
-0.694480002	-0.0398100019	-1.08270001	252	139	90
-0.693939984	-0.0386260003	-1.0819	252	139	90
-0.695580006	-0.0385879986	-1.08089995	252	139	90
-0.695580006	-0.0374789983	-1.08089995	252	139	90
-0.695039988	-0.0363700017	-1.08010006	252	139	90
-0.692870021	-0.0363770016	-1.08029997	252	139	90
-0.692870021	-0.0374570005	-1.08029997	252	139	90
-0.691229999	-0.0374930017	-1.08130002	252	139	90
-0.691229999	-0.0364120007	-1.08140004	252	139	90
-0.689050019	-0.0364179984	-1.08159995	252	139	90
-0.689589977	-0.0375289991	-1.08239996	252	139	90
-0.691229999	-0.0386019982	-1.08130002	252	139	90
-0.68799001	-0.0385489985	-1.07980001	252	139	90
-0.687409997	-0.0397999994	-1.08249998	252	139	90
-0.685239971	-0.0408990011	-1.0826	252	139	90
-0.684710026	-0.0418960005	-1.08169997	252	139	90
-0.683600008	-0.0419690013	-1.08360004	252	139	90
-0.683070004	-0.0409049988	-1.08280003	252	139	90
-0.681420028	-0.0364999995	-1.08399999	252	139	90
-0.679250002	-0.0365049988	-1.08410001	252	139	90
-0.679250002	-0.0375889987	-1.08410001	252	139	90
-0.67760998	-0.0376240015	-1.08510005	252	139	90
-0.678650022	-0.0365969986	-1.0869	252	139	90
-0.679780006	-0.035441	-1.08500004	252	139	90
-0.678049982	-0.036688	-1.08959997	252	139	90
-0.678569973	-0.0378069989	-1.09039998	252	139	90
-0.679090023	-0.0412199982	-1.09109998	252	139	90
-0.679090023	-0.0433119982	-1.09099996	252	139	90
-0.678569973	-0.0443539992	-1.09010005	252	139	90
-0.679620028	-0.0455470011	-1.09179997	252	139	90
-0.680140018	-0.0467769988	-1.09259999	252	139	90
-0.679090023	-0.0489359982	-1.09080005	252	139	90
-0.678569973	-0.0478090011	-1.09000003	252	139	90
-0.679700017	-0.0508709997	-1.08800006	252	139	90
-0.684589982	-0.0508950017	-1.08850002	252	139	90
-0.685109973	-0.051998999	-1.08930004	252	139	90
-0.685109973	-0.0531449988	-1.08920002	252	139	90
-0.684589982	-0.0542199984	-1.08829999	252	139	90
-0.691129982	-0.0465859994	-1.08809996	252	139	90
-0.690069973	-0.0453259982	-1.08650005	252	139	90
-0.692250013	-0.044199001	-1.08640003	252	139	90
-0.691190004	-0.0430609994	-1.08469999	252	139	90
-0.691720009	-0.0410120003	-1.08560002	252	139	90
-0.694440007	-0.0420709997	-1.0862	252	139	90
-0.697730005	-0.0409579985	-1.08420002	252	139	90
-0.697730005	-0.043037001	-1.08410001	252	139	90
-0.699909985	-0.0430289991	-1.08389997	252	139	90
-0.702099979	-0.0430199988	-1.08369994	252	139	90
-0.702639997	-0.0420060009	-1.08459997	252	139	90
-0.700990021	-0.0420470014	-1.08560002	252	139	90
-0.700450003	-0.0409820005	-1.0848	252	139	90
-0.70156002	-0.0409100018	-1.08290005	252	139	90
-0.701020002	-0.0397869982	-1.08210003	252	139	90
-0.703199983	-0.039779	-1.0819	252	139	90
-0.703199983	-0.0408710018	-1.0819	252	139	90
-0.704840004	-0.0408309996	-1.08080006	252	139	90
-0.705380023	-0.0397710018	-1.08169997	252	139	90
-0.705929995	-0.0386480018	-1.0826	252	139	90
-0.707570016	-0.0386100002	-1.08150005	252	139	90
-0.708109975	-0.0397940017	-1.08229995	252	139	90
-0.710300028	-0.0397850014	-1.08210003	252	139	90
-0.71085	-0.0409080014	-1.08290005	252	139	90
-0.711390018	-0.0419720002	-1.08369994	252	139	90
-0.709749997	-0.0420130007	-1.08469999	252	139	90
-0.713590026	-0.0409310013	-1.08350003	252	139	90
-0.714129984	-0.0398689993	-1.08440006	252	139	90
-0.715229988	-0.039797999	-1.08239996	252	139	90
-0.715229988	-0.0408900008	-1.08239996	252	139	90
-0.717970014	-0.0419429988	-1.08290005	252	139	90
-0.718519986	-0.0409439988	-1.08379996	252	139	90
-0.720719993	-0.0409349985	-1.08360004	252	139	90
-0.722370028	-0.0420630015	-1.08599997	252	139	90
-0.720719993	-0.0399729982	-1.08720005	252	139	90
-0.722930014	-0.0366039984	-1.08710003	252	139	90
-0.726790011	-0.0355819985	-1.08930004	252	139	90
-0.72457999	-0.0322180018	-1.08609998	252	139	90
-0.720719993	-0.033222001	-1.08379996	252	139	90
-0.720170021	-0.0342760012	-1.08299994	252	139	90
-0.720170021	-0.0353729986	-1.08290005	252	139	90
-0.71687001	-0.0342309996	-1.08150005	252	139	90
-0.716319978	-0.0331269987	-1.08070004	252	139	90
-0.71796	-0.0320280008	-1.07969999	252	139	90
-0.717410028	-0.0298749991	-1.07889998	252	139	90
-0.717930019	-0.0287200008	-1.07620001	252	139	90
-0.715200007	-0.0308430009	-1.07560003	252	139	90
-0.713569999	-0.0298120007	-1.07669997	252	139	90
-0.712469995	-0.0308260005	-1.07500005	252	139	90
-0.710839987	-0.0308570005	-1.07599998	252	139	90
-0.710839987	-0.0297960006	-1.07609999	252	139	90
-0.711390018	-0.02874	-1.07690001	252	139	90
-0.710290015	-0.0276059993	-1.07529998	252	139	90
-0.709739983	-0.0265219994	-1.07449996	252	139	90
-0.709739983	-0.0254759993	-1.07449996	252	139	90
-0.709739983	-0.0244050007	-1.07449996	252	139	90
-0.711369991	-0.0243810005	-1.07350004	252	139	90
-0.710810006	-0.0232759994	-1.07270002	252	139	90
-0.710810006	-0.0254309997	-1.07260001	252	139	90
-0.712440014	-0.0254059993	-1.07149994	252	139	90
-0.712989986	-0.0243560001	-1.07239997	252	139	90
-0.715170026	-0.0243510008	-1.07210004	252	139	90
-0.71627003	-0.0254590008	-1.07379997	252	139	90
-0.71408999	-0.0233069994	-1.07410002	252	139	90
-0.712989986	-0.0210299995	-1.07249999	252	139	90
-0.712989986	-0.0199950002	-1.07249999	252	139	90
-0.714609981	-0.0199749991	-1.07140005	252	139	90
-0.714609981	-0.021009	-1.07140005	252	139	90
-0.712440014	-0.0221420005	-1.07159996	252	139	90
-0.709710002	-0.0221289992	-1.07099998	252	139	90
-0.709710002	-0.0210020002	-1.07099998	252	139	90
-0.709710002	-0.0199679993	-1.0711	252	139	90
-0.708609998	-0.0189459994	-1.06939995	252	139	90
-0.70915997	-0.0179050006	-1.07029998	252	139	90
-0.708609998	-0.0169040002	-1.06939995	252	139	90
-0.706439972	-0.0169079993	-1.0697	252	139	90
-0.705900013	-0.0178810004	-1.06879997	252	139	90
-0.706439972	-0.0189500004	-1.06959999	252	139	90
-0.706439972	-0.0199420005	-1.06959999	252	139	90
-0.704819977	-0.0209940001	-1.07070005	252	139	90
-0.703729987	-0.0199299995	-1.06900001	252	139	90
-0.70156002	-0.0199340004	-1.06920004	252	139	90
-0.70156002	-0.0209660009	-1.06920004	252	139	90
-0.699940026	-0.0209870003	-1.07029998	252	139	90
-0.697780013	-0.0209909994	-1.07050002	252	139	90
-0.696699977	-0.0210280009	-1.07239997	252	139	90
-0.695070028	-0.0210480001	-1.07340002	252	139	90
-0.695070028	-0.0200130008	-1.07340002	252	139	90
-0.692910016	-0.0200159997	-1.07360005	252	139	90
-0.691829979	-0.0210190006	-1.07190001	252	139	90
-0.691829979	-0.0221469998	-1.07190001	252	139	90
-0.690209985	-0.0221689995	-1.07290006	252	139	90
-0.690209985	-0.0210389998	-1.07290006	252	139	90
-0.690209985	-0.0200040005	-1.07299995	252	139	90
-0.688049972	-0.0210430007	-1.07309997	252	139	90
-0.687510014	-0.0199919995	-1.07229996	252	139	90
-0.687510014	-0.0189980008	-1.07229996	252	139	90
-0.688600004	-0.0189650003	-1.07050002	252	139	90
-0.688600004	-0.0169210006	-1.07050002	252	139	90
-0.690750003	-0.0169179998	-1.07029998	252	139	90
-0.690219998	-0.0157069992	-1.06949997	252	139	90
-0.68967998	-0.0146120004	-1.06860006	252	139	90
-0.691829979	-0.01461	-1.06850004	252	139	90
-0.692369998	-0.0136740003	-1.06930006	252	139	90
-0.690750003	-0.0136869997	-1.07029998	252	139	90
-0.692369998	-0.0157040004	-1.06930006	252	139	90
-0.692369998	-0.0169019997	-1.06930006	252	139	90
-0.692910016	-0.0179019999	-1.07009995	252	139	90
-0.692369998	-0.0189430006	-1.06920004	252	139	90
-0.69453001	-0.0189389996	-1.06900001	252	139	90
-0.695070028	-0.0199459996	-1.06990004	252	139	90
-0.696690023	-0.0199270006	-1.06879997	252	139	90
-0.698310018	-0.0189169999	-1.06780005	252	139	90
-0.698849976	-0.0199229997	-1.06860006	252	139	90
-0.699400008	-0.0178919993	-1.06949997	252	139	90
-0.699940026	-0.0169179998	-1.07029998	252	139	90
-0.702109993	-0.0169149991	-1.07009995	252	139	90
-0.702109993	-0.0179030001	-1.07009995	252	139	90
-0.702660024	-0.0189730003	-1.07089996	252	139	90
-0.703729987	-0.0168980006	-1.06910002	252	139	90
-0.703729987	-0.0157009996	-1.06910002	252	139	90
-0.70480001	-0.0156730004	-1.06719995	252	139	90
-0.704249978	-0.0136369998	-1.06640005	252	139	90
-0.704249978	-0.0125089996	-1.06640005	252	139	90
-0.703700006	-0.0114259999	-1.06560004	252	139	90
-0.703149974	-0.0104219997	-1.06470001	252	139	90
-0.704249978	-0.00923660025	-1.06640005	252	139	90
-0.706409991	-0.0104360003	-1.06620002	252	139	90
-0.708019972	-0.0104259998	-1.06509995	252	139	90
-0.70747	-0.0114120003	-1.06429994	252	139	90
-0.708019972	-0.0124939997	-1.06509995	252	139	90
-0.707509995	-0.0136550004	-1.06780005	252	139	90
-0.707509995	-0.0146009997	-1.06780005	252	139	90
-0.707509995	-0.0156820007	-1.06780005	252	139	90
-0.710229993	-0.0156909991	-1.06840003	252	139	90
-0.710229993	-0.0146089997	-1.06840003	252	139	90
-0.710229993	-0.0136630004	-1.06840003	252	139	90
-0.711849988	-0.0136489999	-1.06729996	252	139	90
-0.712400019	-0.0146059999	-1.06819999	252	139	90
-0.711849988	-0.0156750008	-1.06729996	252	139	90
-0.714569986	-0.0156830009	-1.06789994	252	139	90
-0.715680003	-0.0146249998	-1.06959999	252	139	90
-0.715680003	-0.0136780003	-1.06959999	252	139	90
-0.716740012	-0.0114489999	-1.06770003	252	139	90
-0.715629995	-0.0104350001	-1.0661	252	139	90
-0.715629995	-0.0125050005	-1.06599998	252	139	90
-0.713460028	-0.0125080002	-1.06630003	252	139	90
-0.713460028	-0.011434	-1.06630003	252	139	90
-0.712909997	-0.0104289996	-1.06550002	252	139	90
-0.711290002	-0.0114359995	-1.06649995	252	139	90
-0.711290002	-0.012511	-1.06649995	252	139	90
-0.71073997	-0.010431	-1.06570005	252	139	90
-0.710189998	-0.00922339968	-1.06490004	252	139	90
-0.71073997	-0.00815160014	-1.06570005	252	139	90
-0.711290002	-0.00721380021	-1.06659997	252	139	90
-0.709129989	-0.00721540023	-1.0668	252	139	90
-0.710229993	-0.00817249995	-1.06850004	252	139	90
-0.707509995	-0.00924910046	-1.06789994	252	139	90
-0.706960022	-0.0081615001	-1.06700003	252	139	90
-0.708570004	-0.00923269987	-1.06599998	252	139	90
-0.711799979	-0.00921410043	-1.06379998	252	139	90
-0.713400006	-0.00920480024	-1.06270003	252	139	90
-0.713959992	-0.00813519955	-1.06359994	252	139	90
-0.712909997	-0.00814970024	-1.06550002	252	139	90
-0.714020014	-0.00721779978	-1.06719995	252	139	90
-0.715070009	-0.00720490003	-1.06529999	252	139	90
-0.71667999	-0.00813960005	-1.06420004	252	139	90
-0.716130018	-0.00920990016	-1.06330001	252	139	90
-0.717729986	-0.0081249997	-1.06229997	252	139	90
-0.717239976	-0.00607790006	-1.06500006	252	139	90
-0.717800021	-0.00501739979	-1.06579995	252	139	90
-0.716130018	-0.00391520001	-1.06340003	252	139	90
-0.715569973	-0.00177710003	-1.0625	252	139	90
-0.716130018	-0.000828559976	-1.06340003	252	139	90
-0.714519978	-0.000829400029	-1.06439996	252	139	90
-0.713959992	-0.00177890004	-1.06359994	252	139	90
-0.711799979	-0.000828940014	-1.06389999	252	139	90
-0.711239994	-0.00177790003	-1.06299996	252	139	90
-0.710129976	-0.00283590006	-1.06140006	252	139	90
-0.709580004	-0.00390470005	-1.06050003	252	139	90
-0.709580004	-0.00499230018	-1.06050003	252	139	90
-0.710129976	-0.00605699979	-1.06130004	252	139	90
-0.708530009	-0.00606309995	-1.06239998	252	139	90
-0.707970023	-0.00499729998	-1.06159997	252	139	90
-0.707970023	-0.00390860019	-1.06159997	252	139	90
-0.707419991	-0.0017741	-1.06079996	252	139	90
-0.707970023	-0.000827179989	-1.06159997	252	139	90
-0.705259979	-0.00082671002	-1.06099999	252	139	90
-0.704710007	-0.0017731	-1.06019998	252	139	90
-0.70310998	-0.000826889998	-1.06120002	252	139	90
-0.70310998	-0.00283550005	-1.06120002	252	139	90
-0.701499999	-0.00391109986	-1.06229997	252	139	90
-0.701499999	-0.00500050001	-1.06229997	252	139	90
-0.699899971	-0.00500549981	-1.06330001	252	139	90
-0.698800027	-0.00390890008	-1.06159997	252	139	90
-0.698800027	-0.00283670006	-1.06169999	252	139	90
-0.700399995	-0.00283390004	-1.06060004	252	139	90
-0.700909972	-0.00176929997	-1.05789995	252	139	90
-0.698759973	-0.00176959997	-1.05809999	252	139	90
-0.698759973	-0.000824449991	-1.05809999	252	139	90
-0.697160006	-0.000825270021	-1.05910003	252	139	90
-0.697160006	-0.00177139998	-1.05910003	252	139	90
-0.695559978	-0.0017731	-1.06019998	252	139	90
-0.695559978	-0.00082607998	-1.06019998	252	139	90
-0.696650028	-0.00283730007	-1.06190002	252	139	90
-0.696650028	-0.00390959997	-1.06190002	252	139	90
-0.696650028	-0.00499860011	-1.06190002	252	139	90
-0.694500029	-0.00499959989	-1.06210005	252	139	90
-0.695039988	-0.00391349988	-1.06289995	252	139	90
-0.695039988	-0.00284010009	-1.06289995	252	139	90
-0.695590019	-0.00177910004	-1.06369996	252	139	90
-0.695590019	-0.000828859978	-1.06379998	252	139	90
-0.694519997	-0.000830330013	-1.06560004	252	139	90
-0.695590019	-0.00607070001	-1.06369996	252	139	90
-0.696680009	-0.0072058998	-1.0654	252	139	90
-0.696680009	-0.00814899988	-1.0654	252	139	90
-0.696129978	-0.00922049955	-1.06449997	252	139	90
-0.696680009	-0.0104280002	-1.0654	252	139	90
-0.696129978	-0.0114150001	-1.06449997	252	139	90
-0.69828999	-0.0114129996	-1.06429994	252	139	90
-0.699899971	-0.0104080001	-1.06330001	252	139	90
-0.700990021	-0.0114190001	-1.06490004	252	139	90
-0.702090025	-0.0136390002	-1.06659997	252	139	90
-0.701539993	-0.0145720001	-1.06570005	252	139	90
-0.703149974	-0.0145579996	-1.06470001	252	139	90
-0.704760015	-0.0124770002	-1.06359994	252	139	90
-0.70310998	-0.0113789998	-1.06120002	252	139	90
-0.702049971	-0.0081313001	-1.06309998	252	139	90
-0.702049971	-0.00719020003	-1.06309998	252	139	90
-0.702600002	-0.0060717999	-1.06389999	252	139	90
-0.704760015	-0.00607049977	-1.06369996	252	139	90
-0.705309987	-0.00501130009	-1.06449997	252	139	90
-0.704760015	-0.00391650014	-1.06369996	252	139	90
-0.706920028	-0.00500629982	-1.06350005	252	139	90
-0.705820024	-0.00605970016	-1.0618	252	139	90
-0.705309987	-0.00719999988	-1.06449997	252	139	90
-0.701539993	-0.00608259998	-1.06579995	252	139	90
-0.700990021	-0.00720300013	-1.06500006	252	139	90
-0.698830009	-0.00607899996	-1.06519997	252	139	90
-0.69828999	-0.00719879987	-1.06439996	252	139	90
-0.69828999	-0.00814099982	-1.06429994	252	139	90
-0.697740018	-0.00921139959	-1.06350005	252	139	90
-0.697189987	-0.0104010003	-1.06270003	252	139	90
-0.698800027	-0.00919509958	-1.06159997	252	139	90
-0.699349999	-0.00812659971	-1.0625	252	139	90
-0.694519997	-0.00922949985	-1.06560004	252	139	90
-0.693449974	-0.0104489997	-1.0675	252	139	90
-0.693449974	-0.0114460001	-1.0675	252	139	90
-0.693989992	-0.0125320004	-1.06830001	252	139	90
-0.69453001	-0.0136719998	-1.06910002	252	139	90
-0.695609987	-0.0136479996	-1.06719995	252	139	90
-0.695060015	-0.0145810004	-1.06640005	252	139	90
-0.695609987	-0.0156730004	-1.06719995	252	139	90
-0.69777	-0.0156699996	-1.06700003	252	139	90
-0.697220027	-0.0145779997	-1.06620002	252	139	90
-0.698830009	-0.0145640001	-1.06509995	252	139	90
-0.700469971	-0.0136529999	-1.06760001	252	139	90
-0.700469971	-0.0125240004	-1.06770003	252	139	90
-0.698849976	-0.0125369998	-1.06869996	252	139	90
-0.698849976	-0.0136660002	-1.06869996	252	139	90
-0.701020002	-0.0156919993	-1.06850004	252	139	90
-0.703180015	-0.0178709999	-1.06819999	252	139	90
-0.702629983	-0.0189089999	-1.06729996	252	139	90
-0.698319972	-0.0189800002	-1.07130003	252	139	90
-0.698319972	-0.0179239996	-1.07140005	252	139	90
-0.696160018	-0.0179270003	-1.07159996	252	139	90
-0.695070028	-0.0169120003	-1.06990004	252	139	90
-0.696690023	-0.0168949999	-1.06889999	252	139	90
-0.693449974	-0.0156759992	-1.06739998	252	139	90
-0.693449974	-0.0145950001	-1.06739998	252	139	90
-0.691290021	-0.0125240004	-1.06760001	252	139	90
-0.687520027	-0.0136679998	-1.06889999	252	139	90
-0.686980009	-0.0146030001	-1.06799996	252	139	90
-0.687520027	-0.0156970005	-1.06879997	252	139	90
-0.687520027	-0.0178810004	-1.06879997	252	139	90
-0.685899973	-0.0178980008	-1.06980002	252	139	90
-0.686439991	-0.0169239994	-1.07070005	252	139	90
-0.686439991	-0.0157239996	-1.07070005	252	139	90
-0.686439991	-0.0146399997	-1.07070005	252	139	90
-0.684819996	-0.0146540003	-1.07169998	252	139	90
-0.684279978	-0.0157270003	-1.07089996	252	139	90
-0.684279978	-0.0169270001	-1.07089996	252	139	90
-0.683749974	-0.0179009996	-1.07000005	252	139	90
-0.682129979	-0.017918	-1.07099998	252	139	90
-0.682129979	-0.0169300009	-1.07099998	252	139	90
-0.682659984	-0.0157420002	-1.07190001	252	139	90
-0.682129979	-0.014645	-1.0711	252	139	90
-0.679970026	-0.0169319995	-1.07120001	252	139	90
-0.680499971	-0.0179350004	-1.07200003	252	139	90
-0.681569993	-0.0190219991	-1.07369995	252	139	90
-0.682099998	-0.0200340003	-1.07449996	252	139	90
-0.681569993	-0.0210539997	-1.07369995	252	139	90
-0.68046999	-0.0210900009	-1.07550001	252	139	90
-0.680999994	-0.0222399998	-1.07640004	252	139	90
-0.681529999	-0.0233740006	-1.07720006	252	139	90
-0.680429995	-0.0234149992	-1.07910001	252	139	90
-0.680949986	-0.024526	-1.07990003	252	139	90
-0.679899991	-0.0222789999	-1.07819998	252	139	90
-0.677730024	-0.0211469997	-1.07840002	252	139	90
-0.678789973	-0.0201379992	-1.08010006	252	139	90
-0.678309977	-0.021094	-1.07570004	252	139	90
-0.679939985	-0.0244069993	-1.07459998	252	139	90
-0.681039989	-0.0243650004	-1.07280004	252	139	90
-0.681039989	-0.0254340004	-1.07270002	252	139	90
-0.678879976	-0.0254379995	-1.07290006	252	139	90
-0.679939985	-0.0265239999	-1.07459998	252	139	90
-0.678309977	-0.0265490003	-1.07560003	252	139	90
-0.679369986	-0.0255430005	-1.07729995	252	139	90
-0.682630002	-0.0233340003	-1.07529998	252	139	90
-0.682630002	-0.0222190004	-1.07539999	252	139	90
-0.684260011	-0.0221980009	-1.07430005	252	139	90
-0.684260011	-0.0233110003	-1.07430005	252	139	90
-0.683730006	-0.0243800003	-1.07340002	252	139	90
-0.685350001	-0.0243570004	-1.07239997	252	139	90
-0.687510014	-0.0243519992	-1.07219994	252	139	90
-0.688049972	-0.0254410002	-1.07299995	252	139	90
-0.688579977	-0.0275689997	-1.07379997	252	139	90
-0.689649999	-0.0265480001	-1.07560003	252	139	90
-0.691820025	-0.0265439991	-1.07539999	252	139	90
-0.691280007	-0.027586	-1.07449996	252	139	90
-0.690750003	-0.0286509991	-1.07360005	252	139	90
-0.692910016	-0.0275589991	-1.07350004	252	139	90
-0.692910016	-0.0264970008	-1.07350004	252	139	90
-0.693449974	-0.0254720002	-1.07430005	252	139	90
-0.693989992	-0.0244200006	-1.07519996	252	139	90
-0.693989992	-0.0233319998	-1.07519996	252	139	90
-0.69562	-0.0233089998	-1.07420003	252	139	90
-0.69562	-0.0243970007	-1.07420003	252	139	90
-0.69562	-0.0254670009	-1.07410002	252	139	90
-0.69562	-0.0265129991	-1.07410002	252	139	90
-0.69453001	-0.0275320001	-1.07239997	252	139	90
-0.69453001	-0.0286180004	-1.07239997	252	139	90
-0.693449974	-0.0286679994	-1.07430005	252	139	90
-0.69453001	-0.0297909994	-1.07589996	252	139	90
-0.696699977	-0.029786	-1.07570004	252	139	90
-0.696699977	-0.030847	-1.07570004	252	139	90
-0.697239995	-0.0319329984	-1.07650006	252	139	90
-0.697780013	-0.0330220014	-1.07729995	252	139	90
-0.695599973	-0.0330279991	-1.07749999	252	139	90
-0.695599973	-0.0319640003	-1.07749999	252	139	90
-0.693970025	-0.0319949985	-1.07860005	252	139	90
-0.695580006	-0.0310040005	-1.08109999	252	139	90
-0.697220027	-0.0309740007	-1.08010006	252	139	90
-0.696680009	-0.0341559984	-1.07920003	252	139	90
-0.697759986	-0.0353030004	-1.08080006	252	139	90
-0.697759986	-0.0363919996	-1.08080006	252	139	90
-0.698300004	-0.0375009999	-1.08159995	252	139	90
-0.699940026	-0.0374649987	-1.08050001	252	139	90
-0.69885999	-0.0363279991	-1.07889998	252	139	90
-0.699400008	-0.0352689996	-1.07980001	252	139	90
-0.699940026	-0.0342019983	-1.08060002	252	139	90
-0.701579988	-0.0341689996	-1.07959998	252	139	90
-0.701579988	-0.0352619998	-1.07949996	252	139	90
-0.701030016	-0.0363209993	-1.07869995	252	139	90
-0.703760028	-0.0363419987	-1.07930005	252	139	90
-0.703760028	-0.035255	-1.07930005	252	139	90
-0.703760028	-0.0341619998	-1.07939994	252	139	90
-0.703760028	-0.0330859981	-1.07939994	252	139	90
-0.703209996	-0.0319960006	-1.07860005	252	139	90
-0.704850018	-0.0330279991	-1.07749999	252	139	90
-0.706480026	-0.0329950005	-1.07640004	252	139	90
-0.705929995	-0.0319080018	-1.07560003	252	139	90
-0.704840004	-0.0307979994	-1.074	252	139	90
-0.704840004	-0.0297389999	-1.074	252	139	90
-0.704289973	-0.0286400001	-1.07319999	252	139	90
-0.704289973	-0.0275539998	-1.07319999	252	139	90
-0.704840004	-0.0265129991	-1.07410002	252	139	90
-0.704289973	-0.0254469998	-1.0733	252	139	90
-0.704289973	-0.0243769996	-1.0733	252	139	90
-0.703750014	-0.0232720003	-1.07249999	252	139	90
-0.704289973	-0.0221779998	-1.07340002	252	139	90
-0.706470013	-0.0221730005	-1.07309997	252	139	90
-0.706470013	-0.0232859999	-1.07309997	252	139	90
-0.706470013	-0.0243720002	-1.07309997	252	139	90
-0.708090007	-0.023263	-1.07210004	252	139	90
-0.708090007	-0.0221510008	-1.07210004	252	139	90
-0.707539976	-0.0210059993	-1.07130003	252	139	90
-0.711889982	-0.0189709999	-1.07079995	252	139	90
-0.711889982	-0.0169270001	-1.07089996	252	139	90
-0.713509977	-0.0178970005	-1.06980002	252	139	90
-0.714060009	-0.0169229992	-1.07060003	252	139	90
-0.715680003	-0.0189479999	-1.06949997	252	139	90
-0.717339993	-0.0199859999	-1.07200003	252	139	90
-0.71845001	-0.0210529994	-1.07360005	252	139	90
-0.717930019	-0.0222399998	-1.07640004	252	139	90
-0.718490005	-0.0233740006	-1.07720006	252	139	90
-0.72122997	-0.0222689994	-1.07780004	252	139	90
-0.720669985	-0.0255319998	-1.07690001	252	139	90
-0.717410028	-0.0266340002	-1.079	252	139	90
-0.714649975	-0.0286819991	-1.07480001	252	139	90
-0.713540018	-0.0275509991	-1.07309997	252	139	90
-0.711920023	-0.0286660008	-1.07420003	252	139	90
-0.710810006	-0.0275359992	-1.07260001	252	139	90
-0.712469995	-0.0265369993	-1.07509995	252	139	90
-0.707560003	-0.0265280008	-1.0747	252	139	90
-0.707560003	-0.0254820008	-1.0747	252	139	90
-0.707560003	-0.0275909994	-1.0747	252	139	90
-0.707560003	-0.0286790002	-1.0747	252	139	90
-0.708660007	-0.0298020002	-1.07630002	252	139	90
-0.708660007	-0.0308640003	-1.07630002	252	139	90
-0.709200025	-0.0319509991	-1.07710004	252	139	90
-0.708109975	-0.0329620019	-1.07539999	252	139	90
-0.709200025	-0.0351779982	-1.07700002	252	139	90
-0.709200025	-0.0362630002	-1.07690001	252	139	90
-0.707570016	-0.0362990014	-1.07799995	252	139	90
-0.707570016	-0.0352130011	-1.07799995	252	139	90
-0.707570016	-0.0341220014	-1.07809997	252	139	90
-0.705940008	-0.0352480002	-1.07910001	252	139	90
-0.705389977	-0.0363069996	-1.07819998	252	139	90
-0.706480026	-0.0374419987	-1.07990003	252	139	90
-0.704299986	-0.0374500006	-1.08010006	252	139	90
-0.702660024	-0.0374870002	-1.0812	252	139	90
-0.703199983	-0.0386260003	-1.08200002	252	139	90
-0.707019985	-0.0408219993	-1.08060002	252	139	90
-0.709209979	-0.0385719985	-1.08039999	252	139	90
-0.708660007	-0.0374340005	-1.07959998	252	139	90
-0.710300028	-0.0373970009	-1.07860005	252	139	90
-0.71085	-0.0385340005	-1.07939994	252	139	90
-0.712480009	-0.0384959988	-1.0783	252	139	90
-0.711929977	-0.0373600014	-1.07749999	252	139	90
-0.711929977	-0.0362830013	-1.07749999	252	139	90
-0.713569999	-0.0373230018	-1.07640004	252	139	90
-0.715219975	-0.0385169983	-1.07889998	252	139	90
-0.715219975	-0.0363310017	-1.079	252	139	90
-0.715219975	-0.0352450013	-1.079	252	139	90
-0.713029981	-0.0352520011	-1.07930005	252	139	90
-0.713029981	-0.0341599993	-1.07930005	252	139	90
-0.712480009	-0.0330579989	-1.07850003	252	139	90
-0.712480009	-0.0319930017	-1.07850003	252	139	90
-0.714670002	-0.0319859982	-1.0783	252	139	90
-0.710300028	-0.0341410004	-1.07869995	252	139	90
-0.707019985	-0.0342079997	-1.08080006	252	139	90
-0.700489998	-0.0330410004	-1.07790005	252	139	90
-0.69994998	-0.0319520012	-1.07710004	252	139	90
-0.70104003	-0.0297740009	-1.07529998	252	139	90
-0.702669978	-0.0297449995	-1.07420003	252	139	90
-0.702669978	-0.0308049992	-1.07420003	252	139	90
-0.703209996	-0.0318900011	-1.07500005	252	139	90
-0.703209996	-0.0286909994	-1.07509995	252	139	90
-0.703209996	-0.0276020002	-1.07509995	252	139	90
-0.703209996	-0.0265389998	-1.07519996	252	139	90
-0.701579988	-0.0265650004	-1.07620001	252	139	90
-0.701579988	-0.0276289992	-1.07620001	252	139	90
-0.702669978	-0.0287640002	-1.07780004	252	139	90
-0.698870003	-0.0287020002	-1.07550001	252	139	90
-0.698329985	-0.0297570005	-1.0747	252	139	90
-0.698329985	-0.0308170002	-1.07459998	252	139	90
-0.69994998	-0.0307870004	-1.07360005	252	139	90
-0.698870003	-0.0265490003	-1.07560003	252	139	90
-0.69994998	-0.0254580006	-1.07369995	252	139	90
-0.69994998	-0.0243870001	-1.07379997	252	139	90
-0.69994998	-0.0232999995	-1.07379997	252	139	90
-0.699410021	-0.0221699998	-1.07299995	252	139	90
-0.697780013	-0.0221909992	-1.074	252	139	90
-0.698329985	-0.0233229995	-1.07480001	252	139	90
-0.697239995	-0.0243730005	-1.07309997	252	139	90
-0.696699977	-0.0254229996	-1.07229996	252	139	90
-0.696699977	-0.0275270008	-1.07219994	252	139	90
-0.701579988	-0.0243629999	-1.07270002	252	139	90
-0.702120006	-0.0254519992	-1.07350004	252	139	90
-0.702669978	-0.0233130008	-1.07439995	252	139	90
-0.701579988	-0.0221650004	-1.07270002	252	139	90
-0.693989992	-0.0221430007	-1.07169998	252	139	90
-0.690750003	-0.0243859999	-1.07369995	252	139	90
-0.690750003	-0.0254570004	-1.07369995	252	139	90
-0.689649999	-0.0233399998	-1.07560003	252	139	90
-0.689649999	-0.022225	-1.07560003	252	139	90
-0.687489986	-0.0222290009	-1.07579994	252	139	90
-0.688019991	-0.0233619995	-1.07669997	252	139	90
-0.692359984	-0.0233539995	-1.07630002	252	139	90
-0.692359984	-0.0297970008	-1.07609999	252	139	90
-0.690729976	-0.0319509991	-1.07710004	252	139	90
-0.696120024	-0.0353379995	-1.0819	252	139	90
-0.696120024	-0.0397710018	-1.08169997	252	139	90
-0.697759986	-0.0397330001	-1.08070004	252	139	90
-0.698319972	-0.0384839997	-1.07799995	252	139	90
-0.696139991	-0.0384909995	-1.07819998	252	139	90
-0.696120024	-0.0440040007	-1.08150005	252	139	90
-0.693939984	-0.0440119989	-1.08169997	252	139	90
-0.689589977	-0.0419149995	-1.08220005	252	139	90
-0.68848002	-0.0441039987	-1.08399999	252	139	90
-0.686240017	-0.043184001	-1.08780003	252	139	90
-0.680140018	-0.0423239991	-1.09280002	252	139	90
-0.680140018	-0.0401819982	-1.09290004	252	139	90
-0.680660009	-0.0390469991	-1.09379995	252	139	90
-0.67900002	-0.0402499996	-1.09469998	252	139	90
-0.67900002	-0.0413549989	-1.09469998	252	139	90
-0.677850008	-0.0414250009	-1.09660006	252	139	90
-0.680559993	-0.0424959995	-1.09720004	252	139	90
-0.682120025	-0.0392660014	-1.09990001	252	139	90
-0.682640016	-0.0359579995	-1.10090005	252	139	90
-0.680970013	-0.0359909981	-1.10189998	252	139	90
-0.679289997	-0.0360249989	-1.10290003	252	139	90
-0.679289997	-0.0349080004	-1.10290003	252	139	90
-0.679809988	-0.0338339992	-1.10380006	252	139	90
-0.678129971	-0.0349670015	-1.10479999	252	139	90
-0.678129971	-0.0371990018	-1.10469997	252	139	90
-0.679159999	-0.0383620001	-1.10640001	252	139	90
-0.679159999	-0.0361419991	-1.10650003	252	139	90
-0.679159999	-0.0339180008	-1.10650003	252	139	90
-0.67967999	-0.0317579992	-1.10749996	252	139	90
-0.681879997	-0.032846	-1.10730004	252	139	90
-0.683049977	-0.0327909999	-1.10539997	252	139	90
-0.682640016	-0.0326590016	-1.10099995	252	139	90
-0.679929972	-0.0337250009	-1.10020006	252	139	90
-0.679409981	-0.0315279998	-1.09940004	252	139	90
-0.679409981	-0.0304439999	-1.09949994	252	139	90
-0.677739978	-0.0293690003	-1.10049999	252	139	90
-0.678369999	-0.0292959996	-1.09780002	252	139	90
-0.680040002	-0.0314499997	-1.09669995	252	139	90
-0.67900002	-0.0368660018	-1.0948	252	139	90
-0.680040002	-0.0380190015	-1.09650004	252	139	90
-0.677739978	-0.0370489992	-1.10029995	252	139	90
-0.679289997	-0.0382380001	-1.10280001	252	139	90
-0.682529986	-0.0394250005	-1.10430002	252	139	90
-0.681360006	-0.04067	-1.10619998	252	139	90
-0.681879997	-0.0395219997	-1.10710001	252	139	90
-0.680710018	-0.039588999	-1.10889995	252	139	90
-0.680710018	-0.0407710001	-1.10889995	252	139	90
-0.680199981	-0.0418570004	-1.10800004	252	139	90
-0.680199981	-0.0439819992	-1.10790002	252	139	90
-0.681230009	-0.0451439992	-1.10959995	252	139	90
-0.68175	-0.0463219993	-1.11039996	252	139	90
-0.679539979	-0.0475430004	-1.11049998	252	139	90
-0.680710018	-0.0486229993	-1.10860002	252	139	90
-0.67967999	-0.047389999	-1.10689998	252	139	90
-0.67967999	-0.0507210009	-1.10679996	252	139	90
-0.680710018	-0.0518269986	-1.10839999	252	139	90
-0.681879997	-0.0517389998	-1.10650003	252	139	90
-0.681360006	-0.0527799986	-1.1056	252	139	90
-0.67967999	-0.0539930016	-1.10660005	252	139	90
-0.679159999	-0.0550849997	-1.10570002	252	139	90
-0.680329978	-0.0549920015	-1.10380006	252	139	90
-0.679809988	-0.0538179986	-1.10300004	252	139	90
-0.680329978	-0.0505959988	-1.10399997	252	139	90
-0.679539979	-0.0519150011	-1.11029994	252	139	90
-0.680570006	-0.0509640016	-1.11210001	252	139	90
-0.680570006	-0.0530809984	-1.11199999	252	139	90
-0.680050015	-0.0542090014	-1.11099994	252	139	90
-0.680570006	-0.0553920008	-1.11179996	252	139	90
-0.68175	-0.0529920012	-1.11010003	252	139	90
-0.683300018	-0.049922999	-1.1128	252	139	90
-0.682110012	-0.0488930009	-1.11469996	252	139	90
-0.682630002	-0.0465429984	-1.11570001	252	139	90
-0.681079984	-0.0452900007	-1.11319995	252	139	90
-0.681079984	-0.0441920012	-1.11319995	252	139	90
-0.682259977	-0.0430440009	-1.11140001	252	139	90
-0.682009995	-0.0437990017	-1.10329998	252	139	90
-0.684170008	-0.0501610003	-1.11810005	252	139	90
-0.68175	-0.0329530016	-1.11090004	252	139	90
-0.678650022	-0.0295100007	-1.10580003	252	139	90
-0.678129971	-0.0305950008	-1.1049	252	139	90
-0.679289997	-0.0305429995	-1.10309994	252	139	90
-0.679289997	-0.0316310003	-1.10300004	252	139	90
-0.677959979	-0.0433860011	-1.09290004	252	139	90
-0.677959979	-0.0444639996	-1.09290004	252	139	90
-0.698270023	-0.0452580005	-1.08490002	252	139	90
-0.699379981	-0.0451789983	-1.08299994	252	139	90
-0.698840022	-0.0440299995	-1.08220005	252	139	90
-0.70156002	-0.0440549999	-1.08280003	252	139	90
-0.702099979	-0.0452050008	-1.08360004	252	139	90
-0.699339986	-0.0420879982	-1.08669996	252	139	90
-0.709190011	-0.0453619994	-1.08739996	252	139	90
-0.709190011	-0.0465510003	-1.08729994	252	139	90
-0.716329992	-0.0452169999	-1.08389997	252	139	90
-0.718509972	-0.0385680012	-1.08029997	252	139	90
-0.716849983	-0.0373720005	-1.07790005	252	139	90
-0.685350001	-0.0210299995	-1.07249999	252	139	90
-0.684819996	-0.0199800003	-1.07169998	252	139	90
-0.684819996	-0.0189859997	-1.07169998	252	139	90
-0.683189988	-0.0190040004	-1.07270002	252	139	90
-0.683189988	-0.0199989993	-1.07270002	252	139	90
-0.682129979	-0.021001	-1.07099998	252	139	90
-0.68967998	-0.0189309996	-1.06860006	252	139	90
-0.68967998	-0.0178779997	-1.06860006	252	139	90
-0.68483001	-0.0136599997	-1.06819999	252	139	90
-0.683759987	-0.012511	-1.06649995	252	139	90
-0.685370028	-0.0124989999	-1.06550002	252	139	90
-0.68483001	-0.0114160003	-1.06470001	252	139	90
-0.69234997	-0.00812490005	-1.06219995	252	139	90
-0.693430007	-0.00719590019	-1.06389999	252	139	90
-0.695609987	-0.0114439996	-1.06729996	252	139	90
-0.696150005	-0.0125289997	-1.06809998	252	139	90
-0.696690023	-0.0104630003	-1.06889999	252	139	90
-0.702629983	-0.0125219999	-1.06739998	252	139	90
-0.710780025	-0.017887	-1.06920004	252	139	90
-0.712400019	-0.0189229995	-1.06809998	252	139	90
-0.713460028	-0.0178369991	-1.06620002	252	139	90
-0.717899978	-0.0169590004	-1.07290006	252	139	90
-0.719519973	-0.015741	-1.07179999	252	139	90
-0.720640004	-0.0137280002	-1.07350004	252	139	90
-0.722819984	-0.0125900004	-1.0733	252	139	90
-0.722859979	-0.0147240004	-1.07679999	252	139	90
-0.722310007	-0.0190609992	-1.07589996	252	139	90
-0.726199985	-0.022349	-1.08169997	252	139	90
-0.722360015	-0.0267299991	-1.08290005	252	139	90
-0.722920001	-0.0278229993	-1.08369994	252	139	90
-0.728950024	-0.0158949997	-1.08229995	252	139	90
-0.731190026	-0.0148449996	-1.08570004	252	139	90
-0.720529974	-0.00923640002	-1.06640005	252	139	90
-0.719470024	-0.00722560007	-1.06830001	252	139	90
-0.721650004	-0.00609540008	-1.06809998	252	139	90
-0.724940002	-0.00285760011	-1.06949997	252	139	90
-0.726069987	-0.00179140002	-1.0711	252	139	90
-0.723819971	-0.000832030026	-1.06780005	252	139	90
-0.71717	-0.00177520001	-1.06149995	252	139	90
-0.716059983	-0.000825779978	-1.05980003	252	139	90
-0.716059983	-0.00283170003	-1.05980003	252	139	90
-0.714450002	-0.00283459993	-1.06089997	252	139	90
-0.712289989	-0.00283530005	-1.06110001	252	139	90
-0.712289989	-0.00390690006	-1.06110001	252	139	90
-0.712289989	-0.00605570013	-1.06110001	252	139	90
-0.713959992	-0.00500679994	-1.06359994	252	139	90
-0.708019972	-0.00392179983	-1.06519997	252	139	90
-0.705820024	-0.00283719995	-1.0618	252	139	90
-0.706309974	-0.00282990001	-1.05910003	252	139	90
-0.678200006	-0.0277960002	-1.08270001	252	139	90
-0.674830019	-0.0279399995	-1.08829999	252	139	90
-0.673179984	-0.0279660001	-1.08930004	252	139	90
-0.671000004	-0.0279690009	-1.08940005	252	139	90
-0.669969976	-0.02685	-1.08780003	252	139	90
-0.671620011	-0.0268249996	-1.08679998	252	139	90
-0.67110002	-0.0257469993	-1.08589995	252	139	90
-0.66832	-0.0279510003	-1.08870006	252	139	90
-0.669350028	-0.0269169994	-1.0905	252	139	90
-0.677150011	-0.0158789996	-1.0812	252	139	90
-0.674989998	-0.0126860002	-1.08140004	252	139	90
-0.678789973	-0.0115839997	-1.08029997	252	139	90
-0.678260028	-0.0105659999	-1.07939994	252	139	90
