0.705540001	-0.530820012	-1.48000002	253	107	82
0.708039999	-0.530350029	-1.47870004	253	107	82
0.709020019	-0.532440007	-1.47979999	253	107	82
0.711520016	-0.533500016	-1.47790003	253	107	82
0.710529983	-0.53441	-1.47570002	253	107	82
0.711019993	-0.536119998	-1.47599995	253	107	82
0.711019993	-0.537540019	-1.47549999	253	107	82
0.713509977	-0.537050009	-1.47420001	253	107	82
0.716000021	-0.536570013	-1.47280002	253	107	82
0.718490005	-0.536080003	-1.47150004	253	107	82
0.719980001	-0.535549998	-1.47449994	253	107	82
0.720979989	-0.534739971	-1.47660005	253	107	82
0.717989981	-0.534929991	-1.47710001	253	107	82
0.718479991	-0.536629975	-1.47739995	253	107	82
0.715489984	-0.536819994	-1.47790003	253	107	82
0.713020027	-0.533930004	-1.47440004	253	107	82
0.713509977	-0.529690027	-1.47679996	253	107	82
0.707549989	-0.533089995	-1.47669995	253	107	82
0.707059979	-0.534300029	-1.47539997	253	107	82
0.708039999	-0.536300004	-1.47650003	253	107	82
0.706030011	-0.53707999	-1.47860003	253	107	82
0.706570029	-0.536830008	-1.47350001	253	107	82
0.703050017	-0.532800019	-1.48070002	253	107	82
0.702560008	-0.531000018	-1.48049998	253	107	82
0.703050017	-0.529789984	-1.48179996	253	107	82
0.70006001	-0.52996999	-1.48230004	253	107	82
0.70006001	-0.531470001	-1.48179996	253	107	82
0.70006001	-0.532970011	-1.48119998	253	107	82
0.696510017	-0.530359983	-1.48790002	253	107	82
0.696510017	-0.527429998	-1.48899996	253	107	82
0.697470009	-0.526459992	-1.49119997	253	107	82
0.696990013	-0.524739981	-1.49080002	253	107	82
0.697960019	-0.523899972	-1.49300003	253	107	82
0.695439994	-0.524360001	-1.49430001	253	107	82
0.692920029	-0.524810016	-1.49559999	253	107	82
0.693880022	-0.523909986	-1.49779999	253	107	82
0.694360018	-0.522700012	-1.49909997	253	107	82
0.694360018	-0.521139979	-1.49969995	253	107	82
0.694840014	-0.518410027	-1.50150001	253	107	82
0.690400004	-0.520730019	-1.49849999	253	107	82
0.689450026	-0.521709979	-1.49629998	253	107	82
0.689930022	-0.523500025	-1.49660003	253	107	82
0.689930022	-0.524980009	-1.49609995	253	107	82
0.688489974	-0.525529981	-1.49310005	253	107	82
0.688489974	-0.526960015	-1.49259996	253	107	82
0.685500026	-0.527130008	-1.49300003	253	107	82
0.685970008	-0.525979996	-1.49440002	253	107	82
0.686450005	-0.524850011	-1.4957	253	107	82
0.686930001	-0.523660004	-1.49699998	253	107	82
0.686450005	-0.521870017	-1.49670005	253	107	82
0.686450005	-0.520319998	-1.49730003	253	107	82
0.68392998	-0.52076	-1.49860001	253	107	82
0.682980001	-0.521740019	-1.4964	253	107	82
0.682980001	-0.52323997	-1.49580002	253	107	82
0.682980001	-0.524720013	-1.49530005	253	107	82
0.682500005	-0.525849998	-1.49399996	253	107	82
0.682030022	-0.526989996	-1.49269998	253	107	82
0.679509997	-0.526009977	-1.49440002	253	107	82
0.680930018	-0.525460005	-1.49740005	253	107	82
0.681879997	-0.524559975	-1.49960005	253	107	82
0.678879976	-0.524720013	-1.50010002	253	107	82
0.678409994	-0.52591002	-1.49870002	253	107	82
0.675890028	-0.526359975	-1.5	253	107	82
0.676360011	-0.525160015	-1.50129998	253	107	82
0.674470007	-0.522499979	-1.49849999	253	107	82
0.674470007	-0.520940006	-1.49909997	253	107	82
0.675890028	-0.520229995	-1.50209999	253	107	82
0.676360011	-0.519070029	-1.50349998	253	107	82
0.678409994	-0.518339992	-1.50139999	253	107	82
0.678409994	-0.519789994	-1.50090003	253	107	82
0.678879976	-0.52165997	-1.50109994	253	107	82
0.681410015	-0.521210015	-1.49989998	253	107	82
0.681879997	-0.519919991	-1.50119996	253	107	82
0.681410015	-0.518190026	-1.50090003	253	107	82
0.682829976	-0.517620027	-1.50390005	253	107	82
0.679830015	-0.517769992	-1.5043	253	107	82
0.684880018	-0.518320024	-1.50129998	253	107	82
0.685360014	-0.520049989	-1.50160003	253	107	82
0.688359976	-0.51989001	-1.50109994	253	107	82
0.686779976	-0.518029988	-1.50510001	253	107	82
0.680459976	-0.522189975	-1.49759996	253	107	82
0.677470028	-0.522350013	-1.49810004	253	107	82
0.676050007	-0.525870025	-1.49409997	253	107	82
0.67306	-0.526030004	-1.49450004	253	107	82
0.669130027	-0.525590003	-1.49329996	253	107	82
0.668190002	-0.523590028	-1.4921	253	107	82
0.665210009	-0.523739994	-1.49249995	253	107	82
0.662699997	-0.525600016	-1.49329996	253	107	82
0.663630009	-0.524760008	-1.49539995	253	107	82
0.664569974	-0.523869991	-1.49759996	253	107	82
0.665030003	-0.522660017	-1.49899995	253	107	82
0.665499985	-0.521390021	-1.50039995	253	107	82
0.662970006	-0.521830022	-1.50160003	253	107	82
0.662039995	-0.522809982	-1.49940002	253	107	82
0.661580026	-0.5255	-1.49749994	253	107	82
0.660650015	-0.52342999	-1.4964	253	107	82
0.659250021	-0.525449991	-1.49290001	253	107	82
0.666149974	-0.527180016	-1.49319994	253	107	82
0.667089999	-0.526329994	-1.49539995	253	107	82
0.667089999	-0.52342999	-1.4964	253	107	82
0.667550027	-0.522220016	-1.49769998	253	107	82
0.670069993	-0.521780014	-1.49650002	253	107	82
0.670069993	-0.523280025	-1.49600005	253	107	82
0.669130027	-0.519640028	-1.49530005	253	107	82
0.666149974	-0.519789994	-1.49580002	253	107	82
0.665960014	-0.518660009	-1.50230002	253	107	82
0.666899979	-0.52068001	-1.50339997	253	107	82
0.669420004	-0.520240009	-1.50220001	253	107	82
0.669889987	-0.519089997	-1.50349998	253	107	82
0.672420025	-0.520089984	-1.50170004	253	107	82
0.67335999	-0.519219995	-1.50390005	253	107	82
0.66437	-0.521109998	-1.50469995	253	107	82
0.663900018	-0.519379973	-1.5043	253	107	82
0.661369979	-0.519810021	-1.50559998	253	107	82
0.660440028	-0.52068001	-1.50339997	253	107	82
0.654460013	-0.520959973	-1.50419998	253	107	82
0.654460013	-0.519509971	-1.50469995	253	107	82
0.653540015	-0.52196002	-1.50199997	253	107	82
0.652620018	-0.52293998	-1.49979997	253	107	82
0.65170002	-0.523850024	-1.49759996	253	107	82
0.649640024	-0.523079991	-1.50020003	253	107	82
0.651009977	-0.522390008	-1.50320005	253	107	82
0.651009977	-0.520810008	-1.50380003	253	107	82
0.650550008	-0.519070029	-1.50349998	253	107	82
0.648029983	-0.519500017	-1.50469995	253	107	82
0.648479998	-0.521229982	-1.505	253	107	82
0.648479998	-0.522819996	-1.50450003	253	107	82
0.644580007	-0.520780027	-1.50370002	253	107	82
0.645039976	-0.519630015	-1.50510001	253	107	82
0.646399975	-0.519060016	-1.50810003	253	107	82
0.645950019	-0.517279983	-1.50779998	253	107	82
0.644320011	-0.516770005	-1.51119995	253	107	82
0.640879989	-0.515100002	-1.51119995	253	107	82
0.641139984	-0.516260028	-1.50479996	253	107	82
0.641139984	-0.517750025	-1.5043	253	107	82
0.641600013	-0.519469976	-1.50460005	253	107	82
0.641600013	-0.520919979	-1.50409997	253	107	82
0.640240014	-0.521619976	-1.50100005	253	107	82
0.642759979	-0.521200001	-1.49979997	253	107	82
0.641390026	-0.523379982	-1.49619997	253	107	82
0.641390026	-0.524860024	-1.4957	253	107	82
0.639330029	-0.525579989	-1.49779999	253	107	82
0.638870001	-0.523800015	-1.49740005	253	107	82
0.636349976	-0.52421999	-1.49870002	253	107	82
0.635900021	-0.525409997	-1.49730003	253	107	82
0.637969971	-0.526120007	-1.49469995	253	107	82
0.639569998	-0.525099993	-1.49189997	253	107	82
0.643000007	-0.522360027	-1.49329996	253	107	82
0.643909991	-0.521449983	-1.49549997	253	107	82
0.640030026	-0.521000028	-1.49419999	253	107	82
0.637510002	-0.521420002	-1.49539995	253	107	82
0.633639991	-0.520959973	-1.49409997	253	107	82
0.633639991	-0.525359988	-1.49259996	253	107	82
0.636349976	-0.521160007	-1.49969995	253	107	82
0.648479998	-0.526130021	-1.49020004	253	107	82
0.648020029	-0.52737999	-1.48880005	253	107	82
0.650529981	-0.526939988	-1.48759997	253	107	82
0.651449978	-0.525990009	-1.48979998	253	107	82
0.650529981	-0.529879987	-1.48650002	253	107	82
0.651449978	-0.531899989	-1.48769999	253	107	82
0.649600029	-0.533710003	-1.48329997	253	107	82
0.64914	-0.531910002	-1.48300004	253	107	82
0.651639998	-0.531470001	-1.48179996	253	107	82
0.652109981	-0.533270001	-1.48210001	253	107	82
0.654609978	-0.53283	-1.48080003	253	107	82
0.653680027	-0.530730009	-1.47969997	253	107	82
0.656170011	-0.530279994	-1.47850001	253	107	82
0.657100022	-0.529380023	-1.48070002	253	107	82
0.663969994	-0.529680014	-1.48150003	253	107	82
0.663969994	-0.528259993	-1.48199999	253	107	82
0.664439976	-0.527149975	-1.48339999	253	107	82
0.665380001	-0.526220024	-1.48559999	253	107	82
0.668820024	-0.526369989	-1.48599994	253	107	82
0.666939974	-0.52670002	-1.48210001	253	107	82
0.666939974	-0.528110027	-1.48160005	253	107	82
0.667410016	-0.529829979	-1.48189998	253	107	82
0.669910014	-0.527960002	-1.48119998	253	107	82
0.669910014	-0.526549995	-1.48169994	253	107	82
0.670849979	-0.52996999	-1.48230004	253	107	82
0.673820019	-0.529820025	-1.48189998	253	107	82
0.673820019	-0.531319976	-1.4813	253	107	82
0.676320016	-0.532360017	-1.47950006	253	107	82
0.675369978	-0.533299983	-1.47730005	253	107	82
0.675369978	-0.536220014	-1.4763	253	107	82
0.672879994	-0.535269976	-1.47809994	253	107	82
0.671930015	-0.536069989	-1.47590005	253	107	82
0.669430017	-0.536530018	-1.47710001	253	107	82
0.670379996	-0.535730004	-1.47930002	253	107	82
0.667410016	-0.537289977	-1.47920001	253	107	82
0.666939974	-0.535579979	-1.47889996	253	107	82
0.666000009	-0.533469975	-1.47780001	253	107	82
0.666469991	-0.53223002	-1.47920001	253	107	82
0.666000009	-0.530430019	-1.47889996	253	107	82
0.668959975	-0.530279994	-1.47850001	253	107	82
0.669430017	-0.532079995	-1.47880006	253	107	82
0.668959975	-0.53332001	-1.47739995	253	107	82
0.671450019	-0.532859981	-1.47609997	253	107	82
0.672399998	-0.531930029	-1.47829998	253	107	82
0.676800013	-0.535709977	-1.47930002	253	107	82
0.679769993	-0.536960006	-1.47829998	253	107	82
0.680719972	-0.536149979	-1.48049998	253	107	82
0.679769993	-0.534039974	-1.47940004	253	107	82
0.680719972	-0.533100009	-1.48160005	253	107	82
0.680249989	-0.531300008	-1.4813	253	107	82
0.680719972	-0.530089974	-1.48269999	253	107	82
0.681200027	-0.528970003	-1.48399997	253	107	82
0.678219974	-0.529129982	-1.48440003	253	107	82
0.678219974	-0.530550003	-1.48389995	253	107	82
0.677749991	-0.531750023	-1.48259997	253	107	82
0.674300015	-0.528689981	-1.48319995	253	107	82
0.673210025	-0.527100027	-1.48800004	253	107	82
0.674160004	-0.526139975	-1.49020004	253	107	82
0.67118001	-0.526289999	-1.49070001	253	107	82
0.668190002	-0.526440024	-1.49109995	253	107	82
0.677139997	-0.527530015	-1.4892	253	107	82
0.676670015	-0.528750002	-1.48790002	253	107	82
0.679170012	-0.528299987	-1.48660004	253	107	82
0.679170012	-0.526780009	-1.48710001	253	107	82
0.678089976	-0.526570022	-1.4914	253	107	82
0.683220029	-0.531130016	-1.48080003	253	107	82
0.683700025	-0.532930017	-1.48109996	253	107	82
0.684180021	-0.534770012	-1.48140001	253	107	82
0.683220029	-0.535679996	-1.47920001	253	107	82
0.685720026	-0.535220027	-1.47790003	253	107	82
0.684759974	-0.536029994	-1.47580004	253	107	82
0.684279978	-0.537150025	-1.47440004	253	107	82
0.687250018	-0.536979973	-1.47399998	253	107	82
0.687250018	-0.535560012	-1.47449994	253	107	82
0.688210011	-0.534749985	-1.47660005	253	107	82
0.690219998	-0.535390019	-1.47399998	253	107	82
0.690710008	-0.537109971	-1.47430003	253	107	82
0.691670001	-0.534879982	-1.477	253	107	82
0.681789994	-0.536189973	-1.47619998	253	107	82
0.681309998	-0.537310004	-1.47490001	253	107	82
0.676909983	-0.536570013	-1.47280002	253	107	82
0.67347002	-0.536430001	-1.47249997	253	107	82
0.670509994	-0.53658998	-1.47290003	253	107	82
0.666599989	-0.536140025	-1.47169995	253	107	82
0.662699997	-0.53569001	-1.47039998	253	107	82
0.661620021	-0.537050009	-1.47420001	253	107	82
0.658200026	-0.536899984	-1.47370005	253	107	82
0.654309988	-0.536440015	-1.47249997	253	107	82
0.651350021	-0.53658998	-1.47290003	253	107	82
0.648400009	-0.536729991	-1.47329998	253	107	82
0.641120017	-0.53609997	-1.47150004	253	107	82
0.637250006	-0.535629988	-1.47019994	253	107	82
0.634769976	-0.536059976	-1.47140002	253	107	82
0.633189976	-0.537109971	-1.47430003	253	107	82
0.630699992	-0.537549973	-1.47549999	253	107	82
0.627759993	-0.53767997	-1.47590005	253	107	82
0.626850009	-0.535640001	-1.47469997	253	107	82
0.625949979	-0.533630013	-1.47350001	253	107	82
0.623459995	-0.535470009	-1.47420001	253	107	82
0.622560024	-0.533450007	-1.47300005	253	107	82
0.623459995	-0.532559991	-1.47529995	253	107	82
0.620519996	-0.532679975	-1.4756	253	107	82
0.619620025	-0.533580005	-1.4734	253	107	82
0.620069981	-0.535279989	-1.47370005	253	107	82
0.620519996	-0.537010014	-1.47399998	253	107	82
0.617579997	-0.537129998	-1.47440004	253	107	82
0.617579997	-0.535709977	-1.47490001	253	107	82
0.617129982	-0.533999979	-1.47459996	253	107	82
0.614199996	-0.534120023	-1.47490001	253	107	82
0.614639997	-0.535830021	-1.47520006	253	107	82
0.614199996	-0.536939979	-1.47389996	253	107	82
0.611699998	-0.537370026	-1.47500002	253	107	82
0.611699998	-0.535950005	-1.47549999	253	107	82
0.612150013	-0.534850001	-1.47689998	253	107	82
0.610099971	-0.534060001	-1.47940004	253	107	82
0.610099971	-0.53253001	-1.48000002	253	107	82
0.610979974	-0.53162998	-1.48220003	253	107	82
0.608039975	-0.53174001	-1.48249996	253	107	82
0.607599974	-0.53293997	-1.48119998	253	107	82
0.605099976	-0.53184998	-1.48280001	253	107	82
0.604219973	-0.53275001	-1.4806	253	107	82
0.601279974	-0.532859981	-1.48090005	253	107	82
0.598779976	-0.533270001	-1.48210001	253	107	82
0.597469985	-0.530860007	-1.48010004	253	107	82
0.594969988	-0.531270027	-1.48119998	253	107	82
0.59454	-0.532459974	-1.47979999	253	107	82
0.593670011	-0.533389986	-1.47759998	253	107	82
0.592800021	-0.534280002	-1.47529995	253	107	82
0.592800021	-0.53569001	-1.47479999	253	107	82
0.591929972	-0.536490023	-1.47259998	253	107	82
0.594410002	-0.536080003	-1.47150004	253	107	82
0.595719993	-0.535579979	-1.47449994	253	107	82
0.595719993	-0.534179986	-1.47500002	253	107	82
0.598209977	-0.533770025	-1.47389996	253	107	82
0.598209977	-0.535170019	-1.4734	253	107	82
0.598209977	-0.53658998	-1.47290003	253	107	82
0.601580024	-0.535369992	-1.47389996	253	107	82
0.602020025	-0.537100017	-1.47430003	253	107	82
0.604510009	-0.536679983	-1.47309995	253	107	82
0.605390012	-0.535870016	-1.47529995	253	107	82
0.606280029	-0.535080016	-1.47749996	253	107	82
0.605830014	-0.533259988	-1.47720003	253	107	82
0.608770013	-0.534659982	-1.47640002	253	107	82
0.608770013	-0.536059976	-1.47590005	253	107	82
0.607439995	-0.536559999	-1.47280002	253	107	82
0.602020025	-0.534269989	-1.47529995	253	107	82
0.602460027	-0.533070028	-1.47669995	253	107	82
0.599529982	-0.533179998	-1.477	253	107	82
0.597469985	-0.533890009	-1.47899997	253	107	82
0.592040002	-0.532869995	-1.48099995	253	107	82
0.592040002	-0.531369984	-1.48150003	253	107	82
0.588680029	-0.531159997	-1.48090005	253	107	82
0.588240027	-0.532360017	-1.47950006	253	107	82
0.587379992	-0.533290029	-1.47730005	253	107	82
0.590309978	-0.533190012	-1.477	253	107	82
0.589869976	-0.534389973	-1.4756	253	107	82
0.589869976	-0.535790026	-1.47510004	253	107	82
0.587379992	-0.536199987	-1.47619998	253	107	82
0.584020019	-0.53599	-1.47570002	253	107	82
0.583589971	-0.534280002	-1.47529995	253	107	82
0.581099987	-0.534680009	-1.47640002	253	107	82
0.581529975	-0.536390007	-1.47679996	253	107	82
0.577750027	-0.535870016	-1.47529995	253	107	82
0.577750027	-0.534470022	-1.47580004	253	107	82
0.576470017	-0.536369979	-1.47230005	253	107	82
0.578960001	-0.535960019	-1.47119999	253	107	82
0.581870019	-0.535870016	-1.47090006	253	107	82
0.585650027	-0.536390007	-1.47230005	253	107	82
0.588569999	-0.53628999	-1.472	253	107	82
0.585650027	-0.533569992	-1.47329998	253	107	82
0.59127003	-0.531490028	-1.48660004	253	107	82
0.598460019	-0.532190025	-1.4885	253	107	82
0.60096997	-0.531780005	-1.48740005	253	107	82
0.603470027	-0.531369984	-1.48619998	253	107	82
0.602599978	-0.532270014	-1.48399997	253	107	82
0.606859982	-0.530139983	-1.48730004	253	107	82
0.606419981	-0.528419971	-1.48689997	253	107	82
0.607299984	-0.527499974	-1.4892	253	107	82
0.604789972	-0.527909994	-1.49030006	253	107	82
0.604789972	-0.526359975	-1.49090004	253	107	82
0.604789972	-0.52493	-1.4914	253	107	82
0.602280021	-0.523909986	-1.49300003	253	107	82
0.602710009	-0.522729993	-1.49440002	253	107	82
0.600629985	-0.521939993	-1.49689996	253	107	82
0.599330008	-0.522539973	-1.49380004	253	107	82
0.598890007	-0.523720026	-1.49249995	253	107	82
0.598020017	-0.524540007	-1.49030006	253	107	82
0.598890007	-0.526579976	-1.49150002	253	107	82
0.598890007	-0.528119981	-1.49090004	253	107	82
0.598460019	-0.529349983	-1.48950005	253	107	82
0.601840019	-0.529540002	-1.49010003	253	107	82
0.602280021	-0.531260014	-1.49039996	253	107	82
0.605229974	-0.531149983	-1.49010003	253	107	82
0.604349971	-0.529129982	-1.48889995	253	107	82
0.602280021	-0.528320014	-1.49150002	253	107	82
0.601840019	-0.526470006	-1.49119997	253	107	82
0.601400018	-0.524739981	-1.49080002	253	107	82
0.606100023	-0.524399996	-1.49440002	253	107	82
0.606100023	-0.522920012	-1.49489999	253	107	82
0.607420027	-0.522319973	-1.49800003	253	107	82
0.608290017	-0.521350026	-1.50020003	253	107	82
0.60917002	-0.520359993	-1.50250006	253	107	82
0.608290017	-0.518320024	-1.50129998	253	107	82
0.60917002	-0.517480016	-1.50349998	253	107	82
0.611259997	-0.518209994	-1.50100005	253	107	82
0.610819995	-0.519360006	-1.49960005	253	107	82
0.610819995	-0.520940006	-1.49909997	253	107	82
0.613780022	-0.520829976	-1.49880004	253	107	82
0.614220023	-0.522689998	-1.49909997	253	107	82
0.615100026	-0.524779975	-1.50020003	253	107	82
0.617190003	-0.524070024	-1.49820006	253	107	82
0.617190003	-0.522570014	-1.49870002	253	107	82
0.619260013	-0.521870017	-1.49670005	253	107	82
0.615859985	-0.524659991	-1.49520004	253	107	82
0.613780022	-0.525370002	-1.49720001	253	107	82
0.609939992	-0.523410022	-1.49629998	253	107	82
0.609499991	-0.524590015	-1.495	253	107	82
0.608619988	-0.52542001	-1.4928	253	107	82
0.608619988	-0.526849985	-1.49230003	253	107	82
0.611570001	-0.526740015	-1.49189997	253	107	82
0.611570001	-0.52530998	-1.49240005	253	107	82
0.614090025	-0.524890006	-1.49129999	253	107	82
0.614090025	-0.526329994	-1.49080002	253	107	82
0.614090025	-0.527869999	-1.49020004	253	107	82
0.616599977	-0.52591002	-1.48959994	253	107	82
0.61747998	-0.525080025	-1.49179995	253	107	82
0.61747998	-0.528060019	-1.49070001	253	107	82
0.617760003	-0.527660012	-1.48479998	253	107	82
0.617320001	-0.528779984	-1.4835	253	107	82
0.618210018	-0.530799985	-1.48459995	253	107	82
0.621159971	-0.530680001	-1.48430002	253	107	82
0.620710015	-0.52895999	-1.48399997	253	107	82
0.621159971	-0.527840018	-1.48529994	253	107	82
0.624559999	-0.528020024	-1.48580003	253	107	82
0.624559999	-0.529439986	-1.48529994	253	107	82
0.624109983	-0.530560017	-1.48399997	253	107	82
0.623660028	-0.531759977	-1.48259997	253	107	82
0.623660028	-0.533259988	-1.48199999	253	107	82
0.621159971	-0.533689976	-1.48319995	253	107	82
0.620270014	-0.531579971	-1.48210001	253	107	82
0.617760003	-0.533510029	-1.48269999	253	107	82
0.616429985	-0.531090021	-1.48070002	253	107	82
0.616429985	-0.534129977	-1.47959995	253	107	82
0.618920028	-0.533710003	-1.47850001	253	107	82
0.613929987	-0.534560025	-1.48080003	253	107	82
0.613929987	-0.53302002	-1.48140001	253	107	82
0.61303997	-0.530910015	-1.48020005	253	107	82
0.614369988	-0.530309975	-1.48329997	253	107	82
0.614369988	-0.528890014	-1.48380005	253	107	82
0.614369988	-0.527480006	-1.48430002	253	107	82
0.611429989	-0.529009998	-1.48409998	253	107	82
0.610979974	-0.5273	-1.48380005	253	107	82
0.608039975	-0.527409971	-1.48409998	253	107	82
0.608919978	-0.526489973	-1.48629999	253	107	82
0.609369993	-0.529720008	-1.48609996	253	107	82
0.609809995	-0.531449974	-1.48650002	253	107	82
0.612309992	-0.531029999	-1.48529994	253	107	82
0.607739985	-0.532169998	-1.4885	253	107	82
0.600629985	-0.532280028	-1.49329996	253	107	82
0.62480998	-0.537800014	-1.47619998	253	107	82
0.604460001	-0.522419989	-1.49829996	253	107	82
0.612580001	-0.523679972	-1.50189996	253	107	82
0.614220023	-0.519550025	-1.50020003	253	107	82
0.614220023	-0.518100023	-1.5007	253	107	82
0.618070006	-0.518570006	-1.50199997	253	107	82
0.618070006	-0.520020008	-1.50150001	253	107	82
0.618520021	-0.521889985	-1.50179994	253	107	82
0.621490002	-0.521780014	-1.50150001	253	107	82
0.621490002	-0.520200014	-1.50199997	253	107	82
0.621039987	-0.518459976	-1.50170004	253	107	82
0.62282002	-0.51819998	-1.50559998	253	107	82
0.624459982	-0.52165997	-1.50109994	253	107	82
0.633650005	-0.533079982	-1.47669995	253	107	82
0.635469973	-0.53275001	-1.4806	253	107	82
0.636380017	-0.53184998	-1.48280001	253	107	82
0.638880014	-0.532920003	-1.48109996	253	107	82
0.639800012	-0.532019973	-1.48329997	253	107	82
0.639339983	-0.530219972	-1.48300004	253	107	82
0.646640003	-0.533850014	-1.48370004	253	107	82
0.660070002	-0.536689997	-1.47759998	253	107	82
0.661000013	-0.535880029	-1.47969997	253	107	82
0.661939979	-0.534969985	-1.48199999	253	107	82
0.662410021	-0.53372997	-1.48329997	253	107	82
0.664910018	-0.533280015	-1.48210001	253	107	82
0.664910018	-0.53482002	-1.48150003	253	107	82
0.664910018	-0.536329985	-1.48099995	253	107	82
0.663969994	-0.537140012	-1.47880006	253	107	82
0.663969994	-0.531180024	-1.48099995	253	107	82
0.651470006	-0.515219986	-1.50670004	253	107	82
0.690519989	-0.52621001	-1.49039996	253	107	82
0.690519989	-0.524779975	-1.49100006	253	107	82
0.692070007	-0.523739994	-1.48800004	253	107	82
0.694000006	-0.526340008	-1.49080002	253	107	82
0.694000006	-0.527890027	-1.49030006	253	107	82
0.699980021	-0.524569988	-1.49030006	253	107	82
0.700950027	-0.528129995	-1.49090004	253	107	82
0.701919973	-0.527159989	-1.49310005	253	107	82
0.703949988	-0.526409984	-1.49100006	253	107	82
0.703949988	-0.524980009	-1.49150002	253	107	82
0.704919994	-0.524129987	-1.49370003	253	107	82
0.701919973	-0.524309993	-1.49409997	253	107	82
0.70638001	-0.523519993	-1.49660003	253	107	82
0.707920015	-0.523959994	-1.49319994	253	107	82
0.706950009	-0.524800003	-1.49100006	253	107	82
0.706950009	-0.526229978	-1.49049997	253	107	82
0.706950009	-0.527779996	-1.49000001	253	107	82
0.70994997	-0.52759999	-1.48950005	253	107	82
0.711969972	-0.526839972	-1.48730004	253	107	82
0.715449989	-0.526950002	-1.48759997	253	107	82
0.703459978	-0.527660012	-1.48959994	253	107	82
0.698809981	-0.523400009	-1.50109994	253	107	82
0.697849989	-0.524320006	-1.49890006	253	107	82
0.699779987	-0.522409976	-1.50329995	253	107	82
0.701219976	-0.518809974	-1.50730002	253	107	82
0.701699972	-0.5176	-1.50870001	253	107	82
0.709789991	-0.519439995	-1.50450003	253	107	82
0.712800026	-0.522300005	-1.50300002	253	107	82
0.717289984	-0.518509984	-1.50650001	253	107	82
0.716799974	-0.516740024	-1.50619996	253	107	82
0.716310024	-0.514949977	-1.50590003	253	107	82
0.715730011	-0.511990011	-1.51209998	253	107	82
0.714160025	-0.51147002	-1.51559997	253	107	82
0.711619973	-0.51345998	-1.51639998	253	107	82
0.713559985	-0.513040006	-1.52020001	253	107	82
0.714039981	-0.511789978	-1.52160001	253	107	82
0.713559985	-0.509989977	-1.52119994	253	107	82
0.713559985	-0.508469999	-1.52180004	253	107	82
0.714039981	-0.507380009	-1.523	253	107	82
0.714529991	-0.501450002	-1.52590001	253	107	82
0.713419974	-0.502709985	-1.52980006	253	107	82
0.715839982	-0.502529979	-1.53439999	253	107	82
0.713259995	-0.50296998	-1.53579998	253	107	82
0.713750005	-0.501839995	-1.53709996	253	107	82
0.720480025	-0.502910018	-1.53040004	253	107	82
0.720480025	-0.504599988	-1.52980006	253	107	82
0.720969975	-0.50624001	-1.5302	253	107	82
0.723540008	-0.504419982	-1.52929997	253	107	82
0.724020004	-0.503009975	-1.53069997	253	107	82
0.727079988	-0.502839983	-1.5302	253	107	82
0.726589978	-0.50424999	-1.52880001	253	107	82
0.727559984	-0.506160021	-1.52999997	253	107	82
0.724510014	-0.506340027	-1.53050005	253	107	82
0.725610018	-0.506579995	-1.52620006	253	107	82
0.725120008	-0.509329975	-1.52429998	253	107	82
0.724139988	-0.510299981	-1.52219999	253	107	82
0.723649979	-0.511550009	-1.52079999	253	107	82
0.726689994	-0.511370003	-1.52030003	253	107	82
0.727180004	-0.510119975	-1.52160001	253	107	82
0.72973001	-0.509670019	-1.52030003	253	107	82
0.72973001	-0.511179984	-1.51979995	253	107	82
0.72874999	-0.51214999	-1.51760006	253	107	82
0.725709975	-0.512329996	-1.51810002	253	107	82
0.720120013	-0.511449993	-1.52049994	253	107	82
0.722069979	-0.511030018	-1.5244	253	107	82
0.721580029	-0.509230018	-1.52400005	253	107	82
0.722069979	-0.508140028	-1.52530003	253	107	82
0.721580029	-0.506200016	-1.52499998	253	107	82
0.727079988	-0.509060025	-1.52810001	253	107	82
0.729640007	-0.50861001	-1.52670002	253	107	82
0.729149997	-0.506669998	-1.52649999	253	107	82
0.732200027	-0.506489992	-1.52590001	253	107	82
0.732200027	-0.508149981	-1.52540004	253	107	82
0.731209993	-0.508970022	-1.52320004	253	107	82
0.733770013	-0.508509994	-1.52190006	253	107	82
0.732280016	-0.509209991	-1.51890004	253	107	82
0.73277998	-0.510999978	-1.51919997	253	107	82
0.728659987	-0.509429991	-1.52460003	253	107	82
0.731109977	-0.506259978	-1.53030002	253	107	82
0.731109977	-0.504890025	-1.53069997	253	107	82
0.731599987	-0.503480017	-1.53209996	253	107	82
0.73514998	-0.50357002	-1.53240001	253	107	82
0.73514998	-0.505249977	-1.53180003	253	107	82
0.734660029	-0.506349981	-1.53050005	253	107	82
0.737219989	-0.505890012	-1.52919996	253	107	82
0.736240029	-0.506860018	-1.52699995	253	107	82
0.73672998	-0.508790016	-1.5273	253	107	82
0.730989993	-0.50345999	-1.53729999	253	107	82
0.730009973	-0.501519978	-1.53610003	253	107	82
0.711000025	-0.513490021	-1.52160001	253	107	82
0.72882998	-0.514869988	-1.51059997	253	107	82
0.721970022	-0.536189973	-1.47179997	253	107	82
0.723469973	-0.535660028	-1.47469997	253	107	82
0.725960016	-0.535170019	-1.4734	253	107	82
0.725960016	-0.53658998	-1.47290003	253	107	82
0.738969982	-0.521610022	-1.49600005	253	107	82
0.739979982	-0.520619988	-1.49820006	253	107	82
0.74247998	-0.52046001	-1.50279999	253	107	82
0.743489981	-0.519580007	-1.50489998	253	107	82
0.744490027	-0.518710017	-1.50709999	253	107	82
0.743990004	-0.516929984	-1.50670004	253	107	82
0.744989991	-0.515990019	-1.50890005	253	107	82
0.747020006	-0.51523	-1.50670004	253	107	82
0.747529984	-0.517019987	-1.50699997	253	107	82
0.747020006	-0.518230021	-1.50569999	253	107	82
0.746020019	-0.51910001	-1.50349998	253	107	82
0.747529984	-0.521390021	-1.50549996	253	107	82
0.749549985	-0.51918	-1.50380003	253	107	82
0.749050021	-0.520340025	-1.50250006	253	107	82
0.751569986	-0.521440029	-1.50049996	253	107	82
0.750559986	-0.522430003	-1.49829996	253	107	82
0.749549985	-0.523360014	-1.49619997	253	107	82
0.750060022	-0.525129974	-1.49650002	253	107	82
0.749549985	-0.526260018	-1.49520004	253	107	82
0.75308001	-0.523440003	-1.4964	253	107	82
0.75308001	-0.521939993	-1.49689996	253	107	82
0.755110025	-0.519940019	-1.50129998	253	107	82
0.755110025	-0.518490016	-1.50179994	253	107	82
0.752590001	-0.518980026	-1.50320005	253	107	82
0.752590001	-0.520420015	-1.50269997	253	107	82
0.753090024	-0.517830014	-1.50450003	253	107	82
0.751070023	-0.518589973	-1.50670004	253	107	82
0.752579987	-0.517939985	-1.50969994	253	107	82
0.752579987	-0.51643002	-1.51020002	253	107	82
0.755620003	-0.516229987	-1.50960004	253	107	82
0.755119979	-0.517459989	-1.50829995	253	107	82
0.757139981	-0.518190026	-1.50549996	253	107	82
0.759670019	-0.519129992	-1.5036	253	107	82
0.760179996	-0.520860016	-1.50390005	253	107	82
0.761200011	-0.518540025	-1.50660002	253	107	82
0.765770018	-0.517679989	-1.50890005	253	107	82
0.763740003	-0.518440008	-1.51119995	253	107	82
0.764760017	-0.517490029	-1.51329994	253	107	82
0.763740003	-0.51542002	-1.5122	253	107	82
0.763740003	-0.513909996	-1.51269996	253	107	82
0.76424998	-0.512660027	-1.51400006	253	107	82
0.766789973	-0.512170017	-1.51259995	253	107	82
0.766789973	-0.513700008	-1.51209998	253	107	82
0.767820001	-0.515770018	-1.51320004	253	107	82
0.767820001	-0.517279983	-1.51269996	253	107	82
0.770359993	-0.513769984	-1.51230001	253	107	82
0.769330025	-0.511690021	-1.51119995	253	107	82
0.770370007	-0.512570024	-1.51880002	253	107	82
0.773940027	-0.512629986	-1.51900005	253	107	82
0.77700001	-0.512419999	-1.51839995	253	107	82
0.772920012	-0.512419999	-1.52339995	253	107	82
0.772409976	-0.510619998	-1.52310002	253	107	82
0.771899998	-0.508819997	-1.52279997	253	107	82
0.762220025	-0.511879981	-1.51680005	253	107	82
0.760699987	-0.512589991	-1.51380002	253	107	82
0.761200011	-0.514389992	-1.51409996	253	107	82
0.76019001	-0.515349984	-1.51199996	253	107	82
0.76019001	-0.516860008	-1.5115	253	107	82
0.760699987	-0.518649995	-1.51180005	253	107	82
0.758149981	-0.516110003	-1.51419997	253	107	82
0.758660018	-0.514869988	-1.51549995	253	107	82
0.757650018	-0.512790024	-1.51440001	253	107	82
0.757139981	-0.51098001	-1.51409996	253	107	82
0.754599988	-0.512989998	-1.51499999	253	107	82
0.754090011	-0.514240026	-1.51370001	253	107	82
0.755609989	-0.516589999	-1.51559997	253	107	82
0.751049995	-0.515950024	-1.51370001	253	107	82
0.749539971	-0.513610005	-1.51180005	253	107	82
0.750039995	-0.512359977	-1.51310003	253	107	82
0.750540018	-0.511099994	-1.51450002	253	107	82
0.747500002	-0.511300027	-1.5151	253	107	82
0.753589988	-0.510900021	-1.51390004	253	107	82
0.75405997	-0.511510015	-1.52069998	253	107	82
0.741959989	-0.516179979	-1.50950003	253	107	82
0.756640017	-0.522369981	-1.50320005	253	107	82
0.689279974	-0.50387001	-1.52760005	253	107	82
0.686500013	-0.502870023	-1.53550005	253	107	82
0.686969995	-0.501739979	-1.53680003	253	107	82
0.68791002	-0.50059998	-1.53900003	253	107	82
0.687439978	-0.498780012	-1.53869998	253	107	82
0.684870005	-0.49921	-1.53999996	253	107	82
0.684870005	-0.500739992	-1.5395	253	107	82
0.683459997	-0.501619995	-1.53639996	253	107	82
0.683459997	-0.503019989	-1.5359	253	107	82
0.685079992	-0.496509999	-1.54789996	253	107	82
0.685549974	-0.495380014	-1.54910004	253	107	82
0.685079992	-0.493629992	-1.54879999	253	107	82
0.682959974	-0.495799989	-1.55040002	253	107	82
0.682959974	-0.497200012	-1.54999995	253	107	82
0.679899991	-0.49594	-1.55089998	253	107	82
0.67851001	-0.496529996	-1.54789996	253	107	82
0.676379979	-0.495819986	-1.55050004	253	107	82
0.675000012	-0.493519992	-1.54840004	253	107	82
0.67592001	-0.492430001	-1.55060005	253	107	82
0.676379979	-0.49131	-1.55190003	253	107	82
0.678979993	-0.49228999	-1.55019999	253	107	82
0.680369973	-0.491699994	-1.55320001	253	107	82
0.682959974	-0.492680013	-1.55139995	253	107	82
0.681569993	-0.493499994	-1.54840004	253	107	82
0.677590013	-0.493110001	-1.54709995	253	107	82
0.678049982	-0.499579996	-1.546	253	107	82
0.674709976	-0.490680009	-1.55540001	253	107	82
0.675170004	-0.489259988	-1.55680001	253	107	82
0.678690016	-0.491070002	-1.55669999	253	107	82
0.679620028	-0.48991999	-1.5589	253	107	82
0.68313998	-0.491730005	-1.55869997	253	107	82
0.683610022	-0.490310013	-1.56009996	253	107	82
0.683610022	-0.488940001	-1.56050003	253	107	82
0.68313998	-0.487100005	-1.56019998	253	107	82
0.680999994	-0.487769991	-1.56229997	253	107	82
0.681919992	-0.489879996	-1.56350005	253	107	82
0.681919992	-0.486690015	-1.56449997	253	107	82
0.679310024	-0.485469997	-1.56630003	253	107	82
0.677470028	-0.486039996	-1.56239998	253	107	82
0.676549971	-0.487109989	-1.56019998	253	107	82
0.678390026	-0.489749998	-1.56309998	253	107	82
0.685750008	-0.489639997	-1.55799997	253	107	82
0.686209977	-0.491589993	-1.55830002	253	107	82
0.685750008	-0.49289	-1.55690002	253	107	82
0.688350022	-0.49248001	-1.55560005	253	107	82
0.68787998	-0.493609995	-1.55429995	253	107	82
0.689279974	-0.491439998	-1.55780005	253	107	82
0.688820004	-0.489490002	-1.5575	253	107	82
0.689279974	-0.488389999	-1.55879998	253	107	82
0.689279974	-0.486809999	-1.55929995	253	107	82
0.686209977	-0.48695001	-1.55970001	253	107	82
0.687609971	-0.489329994	-1.5618	253	107	82
0.669960022	-0.488700002	-1.55980003	253	107	82
0.669510007	-0.489800006	-1.55850005	253	107	82
0.666899979	-0.490200013	-1.55980003	253	107	82
0.667360008	-0.489100009	-1.56099999	253	107	82
0.665989995	-0.491349995	-1.5575	253	107	82
0.668139994	-0.490680009	-1.55540001	253	107	82
0.667680025	-0.49199	-1.55410004	253	107	82
0.766139984	-0.493519992	-1.54840004	253	107	82
0.766139984	-0.495009989	-1.54799998	253	107	82
0.766139984	-0.496399999	-1.54750001	253	107	82
0.772830009	-0.494879991	-1.54760003	253	107	82
0.781599998	-0.495400012	-1.54439998	253	107	82
0.781090021	-0.496690005	-1.5431	253	107	82
0.783159971	-0.49770999	-1.5402	253	107	82
0.783159971	-0.499139994	-1.53980005	253	107	82
0.78727001	-0.500999987	-1.54030001	253	107	82
0.78727001	-0.502699971	-1.53970003	253	107	82
0.78779	-0.499720007	-1.54159999	253	107	82
0.788810015	-0.498820007	-1.54369998	253	107	82
0.78779	-0.496529996	-1.54260004	253	107	82
0.788810015	-0.495510012	-1.54470003	253	107	82
0.791400015	-0.495029986	-1.54330003	253	107	82
0.790880024	-0.496320009	-1.54190004	253	107	82
0.792429984	-0.498869985	-1.5438	253	107	82
0.791909993	-0.500039995	-1.54250002	253	107	82
0.791400015	-0.501320004	-1.54120004	253	107	82
0.790880024	-0.502749979	-1.53989995	253	107	82
0.793969989	-0.502529979	-1.53919995	253	107	82
0.79448998	-0.501100004	-1.54059994	253	107	82
0.795009971	-0.499819994	-1.54190004	253	107	82
0.795520008	-0.498659998	-1.54320002	253	107	82
0.795009971	-0.496630013	-1.54289997	253	107	82
0.796039999	-0.495609999	-1.54499996	253	107	82
0.799139977	-0.496939987	-1.54390001	253	107	82
0.799660027	-0.498970002	-1.54410005	253	107	82
0.801720023	-0.498219997	-1.54180002	253	107	82
0.801199973	-0.499390006	-1.54050004	253	107	82
0.797070026	-0.499080002	-1.53960001	253	107	82
0.795000017	-0.499559999	-1.53579998	253	107	82
0.795520008	-0.501519978	-1.53610003	253	107	82
0.795520008	-0.502919972	-1.53559995	253	107	82
0.792429984	-0.503139973	-1.53629994	253	107	82
0.788820028	-0.503090024	-1.53610003	253	107	82
0.789330006	-0.506139994	-1.52989995	253	107	82
0.802739978	-0.495200008	-1.53840005	253	107	82
0.802760005	-0.496980011	-1.54400003	253	107	82
0.800700009	-0.496179998	-1.54680002	253	107	82
0.801209986	-0.495039999	-1.54809999	253	107	82
0.801209986	-0.493550003	-1.54849994	253	107	82
0.798619986	-0.494029999	-1.54999995	253	107	82
0.798619986	-0.495519996	-1.54960001	253	107	82
0.795520008	-0.494239986	-1.55069995	253	107	82
0.79448998	-0.495209992	-1.54859996	253	107	82
0.791379988	-0.493930012	-1.54970002	253	107	82
0.79035002	-0.494899988	-1.54760003	253	107	82
0.787249982	-0.493620008	-1.54879999	253	107	82
0.786230028	-0.494590014	-1.54659998	253	107	82
0.785719991	-0.495719999	-1.54540002	253	107	82
0.7852	-0.497000009	-1.54410005	253	107	82
0.790319979	-0.493559986	-1.55420005	253	107	82
0.803799987	-0.491829991	-1.55359995	253	107	82
0.803290009	-0.49000001	-1.55330002	253	107	82
0.806400001	-0.489789993	-1.55260003	253	107	82
0.806400001	-0.491360009	-1.55209994	253	107	82
0.808990002	-0.490880013	-1.55060005	253	107	82
0.808990002	-0.492269993	-1.55009997	253	107	82
0.811580002	-0.491789997	-1.54859996	253	107	82
0.813149989	-0.491169989	-1.55149996	253	107	82
0.813149989	-0.489609987	-1.55200005	253	107	82
0.81366998	-0.488180012	-1.55330002	253	107	82
0.810029984	-0.489829987	-1.55270004	253	107	82
0.807959974	-0.493530005	-1.55410004	253	107	82
0.805360019	-0.493999988	-1.55560005	253	107	82
0.805360019	-0.489349991	-1.55710006	253	107	82
0.807430029	-0.488999993	-1.56079996	253	107	82
0.80795002	-0.487679988	-1.56210005	253	107	82
0.808979988	-0.486589998	-1.56420004	253	107	82
0.808470011	-0.484710008	-1.56389999	253	107	82
0.80637002	-0.485439986	-1.56620002	253	107	82
0.80637002	-0.483810008	-1.56669998	253	107	82
0.806890011	-0.487309992	-1.56649995	253	107	82
0.803759992	-0.487520009	-1.56719995	253	107	82
0.802730024	-0.485390007	-1.5661	253	107	82
0.802209973	-0.483509988	-1.56579995	253	107	82
0.799600005	-0.485599995	-1.56669998	253	107	82
0.799600005	-0.487230003	-1.56620002	253	107	82
0.796469986	-0.485810012	-1.56739998	253	107	82
0.793850005	-0.48627001	-1.56889999	253	107	82
0.792320013	-0.483880013	-1.56690001	253	107	82
0.79282999	-0.482540011	-1.56830001	253	107	82
0.793850005	-0.481460005	-1.5704	253	107	82
0.795379996	-0.480619997	-1.5733	253	107	82
0.797999978	-0.480159998	-1.57190001	253	107	82
0.798520029	-0.482010007	-1.57219994	253	107	82
0.80114001	-0.483139992	-1.57019997	253	107	82
0.802160025	-0.480459988	-1.57280004	253	107	82
0.805299997	-0.480250001	-1.57210004	253	107	82
0.806850016	-0.482600003	-1.57410002	253	107	82
0.805819988	-0.48368001	-1.57200003	253	107	82
0.80844003	-0.483220011	-1.57050002	253	107	82
0.811569989	-0.483009994	-1.56980002	253	107	82
0.812609971	-0.481920004	-1.57190001	253	107	82
0.809989989	-0.482380003	-1.57340002	253	107	82
0.808950007	-0.480289996	-1.57229996	253	107	82
0.806850016	-0.479409993	-1.57509995	253	107	82
0.804220021	-0.479869992	-1.57659996	253	107	82
0.803189993	-0.477860004	-1.57539999	253	107	82
0.801079988	-0.480069995	-1.57729995	253	107	82
0.801590025	-0.478819996	-1.57860005	253	107	82
0.80260998	-0.477829993	-1.58060002	253	107	82
0.802100003	-0.475959986	-1.58029997	253	107	82
0.802100003	-0.474269986	-1.58080006	253	107	82
0.80260998	-0.472979993	-1.58210003	253	107	82
0.800490022	-0.473670006	-1.58440006	253	107	82
0.800999999	-0.472409993	-1.58570004	253	107	82
0.797850013	-0.472609997	-1.58640003	253	107	82
0.797339976	-0.473879993	-1.58510005	253	107	82
0.79418999	-0.474070013	-1.58580005	253	107	82
0.793179989	-0.475120008	-1.58369994	253	107	82
0.795809984	-0.474680007	-1.58220005	253	107	82
0.795300007	-0.476119995	-1.58080006	253	107	82
0.794290006	-0.477239996	-1.57869995	253	107	82
0.790639997	-0.475569993	-1.579	253	107	82
0.789619982	-0.476689994	-1.57690001	253	107	82
0.790130019	-0.478430003	-1.57729995	253	107	82
0.786989987	-0.478619993	-1.57790005	253	107	82
0.784359992	-0.479070008	-1.57939994	253	107	82
0.784359992	-0.475959986	-1.58029997	253	107	82
0.785880029	-0.475019991	-1.58329999	253	107	82
0.785880029	-0.473479986	-1.58379996	253	107	82
0.78324002	-0.473919988	-1.58529997	253	107	82
0.78324002	-0.475459993	-1.5848	253	107	82
0.782739997	-0.476900011	-1.58350003	253	107	82
0.779089987	-0.476850003	-1.58329999	253	107	82
0.778590024	-0.474909991	-1.58290005	253	107	82
0.778590024	-0.473369986	-1.58340001	253	107	82
0.774950027	-0.473309994	-1.58319998	253	107	82
0.769819975	-0.475730002	-1.57949996	253	107	82
0.768830001	-0.473540008	-1.57840002	253	107	82
0.76406002	-0.476350009	-1.58159995	253	107	82
0.76406002	-0.477970004	-1.58109999	253	107	82
0.761420012	-0.478410006	-1.58249998	253	107	82
0.760930002	-0.476529986	-1.58220005	253	107	82
0.754670024	-0.475199997	-1.58389997	253	107	82
0.775080025	-0.479460001	-1.57519996	253	107	82
0.779209971	-0.481359988	-1.57579994	253	107	82
0.779720008	-0.480019987	-1.57710004	253	107	82
0.782350004	-0.479570001	-1.57560003	253	107	82
0.782350004	-0.481169999	-1.57509995	253	107	82
0.782350004	-0.482760012	-1.5747	253	107	82
0.779720008	-0.483209997	-1.57609999	253	107	82
0.779320002	-0.486059994	-1.56819999	253	107	82
0.781930029	-0.485610008	-1.5668	253	107	82
0.781930029	-0.48398	-1.56729996	253	107	82
0.781930029	-0.482380003	-1.56770003	253	107	82
0.785560012	-0.480850011	-1.56840003	253	107	82
0.786069989	-0.479510009	-1.5697	253	107	82
0.788689971	-0.480650008	-1.56780005	253	107	82
0.789699972	-0.482740015	-1.56889999	253	107	82
0.789699972	-0.479559988	-1.56990004	253	107	82
0.788100004	-0.478929996	-1.57350004	253	107	82
0.792760015	-0.479479998	-1.57529998	253	107	82
0.797940016	-0.480280012	-1.57790005	253	107	82
0.799470007	-0.479519993	-1.58089995	253	107	82
0.799470007	-0.47804001	-1.58130002	253	107	82
0.79895997	-0.47615999	-1.58099997	253	107	82
0.799470007	-0.474720001	-1.58229995	253	107	82
0.804149985	-0.47220999	-1.58500004	253	107	82
0.806789994	-0.471760005	-1.58350003	253	107	82
0.806270003	-0.473019987	-1.58220005	253	107	82
0.805249989	-0.474070013	-1.58010006	253	107	82
0.805249989	-0.475749999	-1.57959998	253	107	82
0.805249989	-0.477380008	-1.57910001	253	107	82
0.807879984	-0.476920009	-1.5776	253	107	82
0.807879984	-0.475300014	-1.57809997	253	107	82
0.808910012	-0.474110007	-1.58029997	253	107	82
0.812569976	-0.474139988	-1.58039999	253	107	82
0.812049985	-0.475580007	-1.57910001	253	107	82
0.811020017	-0.476709992	-1.57690001	253	107	82
0.811540008	-0.478439987	-1.57729995	253	107	82
0.811540008	-0.479939997	-1.57679999	253	107	82
0.814159989	-0.479479998	-1.57529998	253	107	82
0.814159989	-0.481079996	-1.57480001	253	107	82
0.81467998	-0.47823	-1.57659996	253	107	82
0.815720022	-0.477239996	-1.57869995	253	107	82
0.818350017	-0.476779997	-1.57720006	253	107	82
0.817309976	-0.477759987	-1.57509995	253	107	82
0.817309976	-0.479270011	-1.57459998	253	107	82
0.816269994	-0.481950015	-1.57200003	253	107	82
0.819930017	-0.48199001	-1.57210004	253	107	82
0.82306999	-0.481770009	-1.57140005	253	107	82
0.823599994	-0.480419993	-1.57270002	253	107	82
0.826219976	-0.479950011	-1.57120001	253	107	82
0.827269971	-0.482039988	-1.57229996	253	107	82
0.827790022	-0.479110003	-1.57410002	253	107	82
0.825689971	-0.479820013	-1.57650006	253	107	82
0.826730013	-0.478810012	-1.57850003	253	107	82
0.826730013	-0.477329999	-1.579	253	107	82
0.829879999	-0.477109998	-1.5783	253	107	82
0.829879999	-0.478590012	-1.57780004	253	107	82
0.833039999	-0.478370011	-1.57710004	253	107	82
0.832509995	-0.476639986	-1.57669997	253	107	82
0.835669994	-0.477899998	-1.57550001	253	107	82
0.83671999	-0.476909995	-1.5776	253	107	82
0.838289976	-0.477429986	-1.574	253	107	82
0.83355999	-0.478410006	-1.57179999	253	107	82
0.83355999	-0.479999989	-1.57130003	253	107	82
0.834609985	-0.482089996	-1.57249999	253	107	82
0.830940008	-0.482069999	-1.57239997	253	107	82
0.830410004	-0.480230004	-1.57210004	253	107	82
0.831459999	-0.47913	-1.57420003	253	107	82
0.828310013	-0.482410014	-1.56780005	253	107	82
0.82464999	-0.482380003	-1.56780005	253	107	82
0.820460021	-0.48210001	-1.5668	253	107	82
0.817330003	-0.482320011	-1.56760001	253	107	82
0.816280007	-0.483410001	-1.5654	253	107	82
0.815240026	-0.484530002	-1.56330001	253	107	82
0.814199984	-0.485650003	-1.56120002	253	107	82
0.813160002	-0.486739993	-1.55900002	253	107	82
0.814199984	-0.488819987	-1.56019998	253	107	82
0.811590016	-0.489300013	-1.56169999	253	107	82
0.810549974	-0.487210006	-1.56060004	253	107	82
0.810549974	-0.485610008	-1.56099999	253	107	82
0.812110007	-0.484750003	-1.56400001	253	107	82
0.81366998	-0.483880013	-1.56700003	253	107	82
0.81418997	-0.482540011	-1.56830001	253	107	82
0.81002003	-0.483850002	-1.5668	253	107	82
0.818889976	-0.482939988	-1.56389999	253	107	82
0.819939971	-0.48506999	-1.56500006	253	107	82
0.822030008	-0.484349996	-1.56270003	253	107	82
0.821500003	-0.482470006	-1.56239998	253	107	82
0.825680017	-0.482749999	-1.56330001	253	107	82
0.825680017	-0.484369993	-1.56280005	253	107	82
0.82306999	-0.486470014	-1.56379998	253	107	82
0.820450008	-0.486799985	-1.55920005	253	107	82
0.819930017	-0.48811999	-1.55789995	253	107	82
0.817330003	-0.488599986	-1.55949998	253	107	82
0.815760016	-0.486259997	-1.5575	253	107	82
0.817849994	-0.485680014	-1.56130004	253	107	82
0.817830026	-0.488469988	-1.55429995	253	107	82
0.812640011	-0.48943001	-1.55729997	253	107	82
0.809520006	-0.489650011	-1.55799997	253	107	82
0.802760005	-0.486880004	-1.55949998	253	107	82
0.800149977	-0.487340003	-1.56099999	253	107	82
0.798569977	-0.483469993	-1.56560004	253	107	82
0.795440018	-0.482080013	-1.5668	253	107	82
0.794420004	-0.483170003	-1.56459999	253	107	82
0.789699972	-0.48596999	-1.56789994	253	107	82
0.788179994	-0.483579993	-1.56599998	253	107	82
0.781930029	-0.487230003	-1.56620002	253	107	82
0.782519996	-0.487349987	-1.56099999	253	107	82
0.775189996	-0.485740006	-1.56719995	253	107	82
0.773180008	-0.483090013	-1.56439996	253	107	82
0.811070025	-0.49643001	-1.55239999	253	107	82
0.806400001	-0.495869994	-1.55060005	253	107	82
0.805360019	-0.496740013	-1.54859996	253	107	82
0.80795002	-0.496259987	-1.54709995	253	107	82
0.807430029	-0.493120015	-1.54719996	253	107	82
0.804840028	-0.493600011	-1.54869998	253	107	82
0.82148999	-0.481139988	-1.57509995	253	107	82
0.82148999	-0.479550004	-1.57550001	253	107	82
0.82148999	-0.47804001	-1.57599998	253	107	82
0.822009981	-0.476810008	-1.57729995	253	107	82
0.823059976	-0.475679994	-1.57939994	253	107	82
0.81990999	-0.475899994	-1.58010006	253	107	82
0.817269981	-0.476359993	-1.58159995	253	107	82
0.817269981	-0.474669993	-1.58210003	253	107	82
0.819339991	-0.474110007	-1.58589995	253	107	82
0.816179991	-0.474319994	-1.58659995	253	107	82
0.817219973	-0.47330001	-1.58870006	253	107	82
0.81773001	-0.471949995	-1.59000003	253	107	82
0.81825	-0.470560014	-1.59130001	253	107	82
0.818769991	-0.469190001	-1.59259999	253	107	82
0.816120028	-0.469639987	-1.5941	253	107	82
0.815599978	-0.47101	-1.59280002	253	107	82
0.816120028	-0.47288999	-1.59319997	253	107	82
0.812439978	-0.471219987	-1.59350002	253	107	82
0.812439978	-0.469599992	-1.59399998	253	107	82
0.812950015	-0.468230009	-1.59529996	253	107	82
0.81449002	-0.467420012	-1.59819996	253	107	82
0.81449002	-0.46588999	-1.59870005	253	107	82
0.815519989	-0.464740008	-1.60080004	253	107	82
0.816540003	-0.463530004	-1.60290003	253	107	82
0.817569971	-0.462399989	-1.60500002	253	107	82
0.820749998	-0.462199986	-1.60430002	253	107	82
0.819209993	-0.463090003	-1.60140002	253	107	82
0.81971997	-0.465009987	-1.60169995	253	107	82
0.822380006	-0.464560002	-1.60020006	253	107	82
0.822380006	-0.462879986	-1.60070002	253	107	82
0.824519992	-0.462199986	-1.59829998	253	107	82
0.825559974	-0.464349985	-1.59949994	253	107	82
0.824519992	-0.465510011	-1.59730005	253	107	82
0.824010015	-0.466789991	-1.59609997	253	107	82
0.825559974	-0.46904999	-1.59809995	253	107	82
0.82822001	-0.46706	-1.597	253	107	82
0.82822001	-0.465539992	-1.59739995	253	107	82
0.828740001	-0.464139998	-1.59870005	253	107	82
0.829779983	-0.462940007	-1.60090005	253	107	82
0.83296001	-0.464410007	-1.59959996	253	107	82
0.836139977	-0.464190006	-1.59889996	253	107	82
0.834569991	-0.465110004	-1.59599996	253	107	82
0.834569991	-0.466630012	-1.59549999	253	107	82
0.83405	-0.467929989	-1.59430003	253	107	82
0.831910014	-0.468620002	-1.59660006	253	107	82
0.831910014	-0.467079997	-1.59710002	253	107	82
0.831390023	-0.465319991	-1.59669995	253	107	82
0.829259992	-0.469080001	-1.59819996	253	107	82
0.828790009	-0.468789995	-1.59119999	253	107	82
0.828270018	-0.470160007	-1.58990002	253	107	82
0.828790009	-0.472039998	-1.59029996	253	107	82
0.829829991	-0.474119991	-1.59140003	253	107	82
0.832480013	-0.473659992	-1.58990002	253	107	82
0.832480013	-0.472059995	-1.59039998	253	107	82
0.831960022	-0.470189989	-1.59000003	253	107	82
0.831960022	-0.468580008	-1.5905	253	107	82
0.834079981	-0.469489992	-1.58770001	253	107	82
0.835120022	-0.471599996	-1.58879995	253	107	82
0.835120022	-0.47319001	-1.58829999	253	107	82
0.838289976	-0.472970009	-1.58759999	253	107	82
0.839339972	-0.471859992	-1.58969998	253	107	82
0.841989994	-0.472990006	-1.58759999	253	107	82
0.840939999	-0.475560009	-1.58510005	253	107	82
0.839349985	-0.476509988	-1.58220005	253	107	82
0.838829994	-0.473040015	-1.58229995	253	107	82
0.835669994	-0.473259985	-1.58309996	253	107	82
0.835669994	-0.474810004	-1.5826	253	107	82
0.83513999	-0.476249993	-1.58130002	253	107	82
0.832499981	-0.476720005	-1.58280003	253	107	82
0.833029985	-0.475270003	-1.58420002	253	107	82
0.833029985	-0.473729998	-1.58459997	253	107	82
0.829339981	-0.473710001	-1.58449996	253	107	82
0.829339981	-0.475250006	-1.58410001	253	107	82
0.828299999	-0.476449996	-1.5819	253	107	82
0.826699972	-0.475710005	-1.58560002	253	107	82
0.826699972	-0.474169999	-1.58609998	253	107	82
0.823019981	-0.475690007	-1.5855	253	107	82
0.82249999	-0.473890007	-1.58519995	253	107	82
0.820900023	-0.473329991	-1.58879995	253	107	82
0.820900023	-0.471740007	-1.58930004	253	107	82
0.820900023	-0.470109999	-1.5898	253	107	82
0.821420014	-0.468739986	-1.59099996	253	107	82
0.824060023	-0.469900012	-1.58899999	253	107	82
0.825100005	-0.468760014	-1.59109998	253	107	82
0.826139987	-0.472499996	-1.59179997	253	107	82
0.825619996	-0.473850012	-1.5905	253	107	82
0.82032001	-0.468300015	-1.59549999	253	107	82
0.82032001	-0.46676001	-1.59599996	253	107	82
0.820829988	-0.46548	-1.59720004	253	107	82
