-0.357069999	0.0812240019	-1.12339997	112	78	220
-0.355360001	0.0812560022	-1.12380004	112	78	220
-0.35363999	0.0812890008	-1.1243	112	78	220
-0.351920009	0.0813210011	-1.12469995	112	78	220
-0.351920009	0.0824069977	-1.12460005	112	78	220
-0.349949986	0.0823689997	-1.12409997	112	78	220
-0.350199997	0.0813530013	-1.12510002	112	78	220
-0.349949986	0.080211997	-1.1243	112	78	220
-0.348230004	0.0802439973	-1.12469995	112	78	220
-0.347979993	0.0812449977	-1.12360001	112	78	220
-0.346260011	0.0802059993	-1.12419999	112	78	220
-0.345770001	0.0811370015	-1.12220001	112	78	220
-0.345770001	0.0822210014	-1.1221	112	78	220
-0.347490013	0.0821890011	-1.12160003	112	78	220
-0.344300002	0.0823229998	-1.12349999	112	78	220
-0.344060004	0.0811680034	-1.12259996	112	78	220
-0.343809992	0.0800300017	-1.12170005	112	78	220
-0.343809992	0.0789280012	-1.12179995	112	78	220
-0.342099994	0.0789579973	-1.12220001	112	78	220
-0.341610014	0.0799219981	-1.12020004	112	78	220
-0.339899987	0.0788509995	-1.1207	112	78	220
-0.340140015	0.0777840018	-1.12170005	112	78	220
-0.338429987	0.0778129995	-1.12220001	112	78	220
-0.336470008	0.0777750015	-1.12160003	112	78	220
-0.333039999	0.0800710022	-1.12230003	112	78	220
-0.333279997	0.0812100023	-1.12320006	112	78	220
-0.334989995	0.0822649971	-1.12269998	112	78	220
-0.33476001	0.0833000019	-1.12160003	112	78	220
-0.332810014	0.0821529999	-1.12119997	112	78	220
-0.335460007	0.0813210011	-1.12469995	112	78	220
-0.337660015	0.0836289972	-1.12609994	112	78	220
-0.339379996	0.0835980028	-1.12559998	112	78	220
-0.3389	0.0845919997	-1.12360001	112	78	220
-0.339859992	0.0860700011	-1.12740004	112	78	220
-0.338129997	0.0861020014	-1.12779999	112	78	220
-0.338369995	0.084987998	-1.12890005	112	78	220
-0.338369995	0.0827310011	-1.12899995	112	78	220
-0.338129997	0.0815709978	-1.12820005	112	78	220
-0.34009999	0.0816100016	-1.12870002	112	78	220
-0.340570003	0.0828419998	-1.13059998	112	78	220
-0.342299998	0.082810998	-1.13010001	112	78	220
-0.344029993	0.0827800035	-1.12969995	112	78	220
-0.343549997	0.0837510005	-1.12769997	112	78	220
-0.341820002	0.0837820023	-1.12810004	112	78	220
-0.341580003	0.0848520026	-1.12709999	112	78	220
-0.341100007	0.0813689977	-1.12539995	112	78	220
-0.342339993	0.0811989978	-1.12300003	112	78	220
-0.341610014	0.0776870027	-1.12030005	112	78	220
-0.345279992	0.0788289979	-1.12039995	112	78	220
-0.351419985	0.0801120028	-1.12279999	112	78	220
-0.347730011	0.0839020014	-1.12969995	112	78	220
-0.34551999	0.0837899968	-1.12820005	112	78	220
-0.344520003	0.0851840004	-1.13150001	112	78	220
-0.342779994	0.0864069983	-1.13180006	112	78	220
-0.344999999	0.086521998	-1.13329995	112	78	220
-0.346740007	0.0852970034	-1.13300002	112	78	220
-0.348960012	0.0854099989	-1.13450003	112	78	220
-0.348960012	0.0866030008	-1.13440001	112	78	220
-0.348960012	0.0877669975	-1.13429999	112	78	220
-0.347469985	0.0867099985	-1.1358	112	78	220
-0.35244	0.0876990035	-1.13339996	112	78	220
-0.354169995	0.0865020007	-1.13310003	112	78	220
-0.35492	0.0878880024	-1.13590002	112	78	220
-0.356660008	0.0866890028	-1.13549995	112	78	220
-0.365350008	0.0865129977	-1.13320005	112	78	220
-0.367089987	0.0864769965	-1.13269997	112	78	220
-0.368820012	0.0864410028	-1.13230002	112	78	220
-0.369080007	0.087677002	-1.13310003	112	78	220
-0.370550007	0.0875660032	-1.13170004	112	78	220
-0.370290011	0.0863320008	-1.13080001	112	78	220
-0.372289985	0.0863690004	-1.13129997	112	78	220
-0.372289985	0.0851780027	-1.13139999	112	78	220
-0.372550011	0.0841040015	-1.13240004	112	78	220
-0.370819986	0.0852869973	-1.13279998	112	78	220
-0.372550011	0.0876040012	-1.1322	112	78	220
-0.374289989	0.0864050016	-1.13180006	112	78	220
-0.376289994	0.0864420012	-1.13230002	112	78	220
-0.37856999	0.0865510032	-1.13370001	112	78	220
-0.380849987	0.0866599977	-1.13510001	112	78	220
-0.382869989	0.0866950005	-1.13559997	112	78	220
-0.383139998	0.0879340023	-1.1365	112	78	220
-0.381669998	0.0880469978	-1.13789999	112	78	220
-0.381949991	0.0892589986	-1.13880002	112	78	220
-0.38369	0.0892200023	-1.13829994	112	78	220
-0.383419991	0.0902480036	-1.1372	112	78	220
-0.385159999	0.089106001	-1.13680005	112	78	220
-0.385720015	0.0903600007	-1.13870001	112	78	220
-0.387180001	0.0902440026	-1.1372	112	78	220
-0.388639987	0.0890270025	-1.1358	112	78	220
-0.390949994	0.0879999995	-1.13730001	112	78	220
-0.391229987	0.0892120004	-1.13820004	112	78	220
-0.392969996	0.0880339965	-1.13779998	112	78	220
-0.394149989	0.0878470019	-1.13530004	112	78	220
-0.395310014	0.0876590014	-1.1329	112	78	220
-0.395020008	0.0864240006	-1.13199997	112	78	220
-0.393290013	0.0864629969	-1.13250005	112	78	220
-0.391270012	0.0864289999	-1.13209999	112	78	220
-0.388969988	0.0863220021	-1.13069999	112	78	220
-0.38696	0.0862879977	-1.13030005	112	78	220
-0.385230005	0.0863260031	-1.13080001	112	78	220
-0.38350001	0.0851740018	-1.13129997	112	78	220
-0.38350001	0.0840279981	-1.13139999	112	78	220
-0.385230005	0.0839909986	-1.13090003	112	78	220
-0.384389997	0.0849199966	-1.12800002	112	78	220
-0.386119992	0.084882997	-1.12750006	112	78	220
-0.385839999	0.0836699978	-1.12660003	112	78	220
-0.383830011	0.082525	-1.12619996	112	78	220
-0.382389992	0.0826309994	-1.12769997	112	78	220
-0.38093999	0.0827379972	-1.12909997	112	78	220
-0.380389988	0.0837090015	-1.12709999	112	78	220
-0.379209995	0.0850320011	-1.12950003	112	78	220
-0.376659989	0.0848520026	-1.12709999	112	78	220
-0.374940008	0.0848890021	-1.12759995	112	78	220
-0.373479992	0.0849979967	-1.12899995	112	78	220
-0.373210013	0.0837830007	-1.12810004	112	78	220
-0.372669995	0.0825290009	-1.12629998	112	78	220
-0.372399986	0.0813720003	-1.12539995	112	78	220
-0.37439999	0.0814059973	-1.12590003	112	78	220
-0.374669999	0.0804020017	-1.12689996	112	78	220
-0.376120001	0.0802989975	-1.12549996	112	78	220
-0.375849992	0.0813020021	-1.12440002	112	78	220
-0.37755999	0.0812669992	-1.12399995	112	78	220
-0.37755999	0.0823519975	-1.12390006	112	78	220
-0.37755999	0.0834610015	-1.12380004	112	78	220
-0.379280001	0.081230998	-1.12349999	112	78	220
-0.381280005	0.0812650025	-1.12390006	112	78	220
-0.382999986	0.0812290013	-1.12339997	112	78	220
-0.383280009	0.0802270025	-1.12450004	112	78	220
-0.381830007	0.0803309977	-1.12590003	112	78	220
-0.385560006	0.0803280026	-1.12590003	112	78	220
-0.386999995	0.0802239999	-1.12440002	112	78	220
-0.386709988	0.0812259987	-1.12339997	112	78	220
-0.386709988	0.0823109969	-1.12329996	112	78	220
-0.386709988	0.0834190026	-1.12320006	112	78	220
-0.388709992	0.0834520012	-1.12370002	112	78	220
-0.388429999	0.0822739974	-1.12279999	112	78	220
-0.388709992	0.0812579989	-1.12380004	112	78	220
-0.388709992	0.0801879987	-1.12390006	112	78	220
-0.390430003	0.0812219977	-1.12329996	112	78	220
-0.389860004	0.0800150037	-1.12150002	112	78	220
-0.392439991	0.0801829994	-1.12380004	112	78	220
-0.394439995	0.0802149996	-1.1243	112	78	220
-0.39587	0.0801090002	-1.12279999	112	78	220
-0.396450013	0.0813170001	-1.12460005	112	78	220
-0.396450013	0.0824029967	-1.12460005	112	78	220
-0.397879988	0.0822950006	-1.12310004	112	78	220
-0.398169994	0.0812790021	-1.12409997	112	78	220
-0.399890006	0.0812409967	-1.12360001	112	78	220
-0.401609987	0.0801329985	-1.12310004	112	78	220
-0.402200013	0.08134	-1.125	112	78	220
-0.400480002	0.0824659988	-1.12539995	112	78	220
-0.40279001	0.0825669989	-1.12679994	112	78	220
-0.401069999	0.0848589987	-1.12720001	112	78	220
-0.39993	0.0838989988	-1.12969995	112	78	220
-0.400220007	0.0851140022	-1.13049996	112	78	220
-0.398490012	0.0851539969	-1.13110006	112	78	220
-0.396759987	0.0851930007	-1.13160002	112	78	220
-0.396759987	0.0863839984	-1.13150001	112	78	220
-0.399069995	0.0864899978	-1.1329	112	78	220
-0.40110001	0.086521998	-1.13329995	112	78	220
-0.402240008	0.0863360018	-1.13090003	112	78	220
-0.401950002	0.0839300007	-1.13010001	112	78	220
-0.404269993	0.0840319991	-1.13150001	112	78	220
-0.403420001	0.0877910033	-1.13460004	112	78	220
-0.404009998	0.0890749991	-1.13639998	112	78	220
-0.404300004	0.0902519971	-1.13730001	112	78	220
-0.402850002	0.0903699994	-1.13880002	112	78	220
-0.402559996	0.0891909972	-1.13789999	112	78	220
-0.402269989	0.0879800022	-1.13699996	112	78	220
-0.40022999	0.0879470035	-1.13660002	112	78	220
-0.400519997	0.0891579986	-1.13750005	112	78	220
-0.398779988	0.0891989991	-1.13800001	112	78	220
-0.397040009	0.0892399997	-1.13849998	112	78	220
-0.395859987	0.0894310027	-1.14100003	112	78	220
-0.393830001	0.0893959999	-1.14049995	112	78	220
-0.393830001	0.0915739983	-1.14040005	112	78	220
-0.392080009	0.0916149989	-1.14090002	112	78	220
-0.390329987	0.0916559994	-1.14139998	112	78	220
-0.390329987	0.0927620009	-1.14129996	112	78	220
-0.388579994	0.0928030014	-1.14180005	112	78	220
-0.388300002	0.0916199982	-1.14090002	112	78	220
-0.386269987	0.091583997	-1.14049995	112	78	220
-0.383969992	0.0914700031	-1.13909996	112	78	220
-0.382499993	0.0915869996	-1.14049995	112	78	220
-0.382499993	0.0905150026	-1.14059997	112	78	220
-0.38075	0.0905549973	-1.14110005	112	78	220
-0.38075	0.0916270018	-1.14100003	112	78	220
-0.380470008	0.0926539972	-1.13999999	112	78	220
-0.379000008	0.0927719995	-1.14139998	112	78	220
-0.379000008	0.0916659981	-1.1415	112	78	220
-0.378729999	0.0905179977	-1.14059997	112	78	220
-0.376980007	0.0916280001	-1.14100003	112	78	220
-0.374689996	0.0915130004	-1.13960004	112	78	220
-0.374689996	0.0904420018	-1.13970006	112	78	220
-0.372940004	0.0904809982	-1.14020002	112	78	220
-0.372940004	0.0893749967	-1.14030004	112	78	220
-0.371199995	0.0894130021	-1.14069998	112	78	220
-0.371459991	0.0905949995	-1.14160001	112	78	220
-0.371459991	0.0916680023	-1.1415	112	78	220
-0.373470008	0.0917060003	-1.14199996	112	78	220
-0.372509986	0.0930859968	-1.14530003	112	78	220
-0.374799997	0.0932030007	-1.14670002	112	78	220
-0.375330001	0.0945229977	-1.14859998	112	78	220
-0.375070006	0.0956000015	-1.14750004	112	78	220
-0.374799997	0.0966660008	-1.14639997	112	78	220
-0.376560003	0.0954800025	-1.14600003	112	78	220
-0.378320009	0.0954390019	-1.14559996	112	78	220
-0.378589988	0.0932020023	-1.14670002	112	78	220
-0.379130006	0.0945219994	-1.14849997	112	78	220
-0.380890012	0.0944809988	-1.148	112	78	220
-0.382930011	0.0945189968	-1.14849997	112	78	220
-0.381700009	0.0958779976	-1.15079999	112	78	220
-0.379669994	0.0969889984	-1.15030003	112	78	220
-0.378170013	0.0982379988	-1.1516	112	78	220
-0.376130015	0.0981979966	-1.15110004	112	78	220
-0.37489	0.097273998	-1.15359998	112	78	220
-0.373380005	0.0973960012	-1.15509999	112	78	220
-0.371340007	0.0973550007	-1.15460002	112	78	220
-0.369569987	0.0985250026	-1.15499997	112	78	220
-0.368050009	0.0986479968	-1.15639997	112	78	220
-0.366530001	0.0998670012	-1.15779996	112	78	220
-0.364490002	0.0998239964	-1.1573	112	78	220
-0.364749998	0.0988100022	-1.15830004	112	78	220
-0.362960011	0.0999469981	-1.15869999	112	78	220
-0.361180007	0.0999870002	-1.15919995	112	78	220
-0.359149992	0.0999429971	-1.15859997	112	78	220
-0.359649986	0.10125	-1.16050005	112	78	220
-0.357859999	0.101290002	-1.1609	112	78	220
-0.358359993	0.102669999	-1.16279995	112	78	220
-0.358599991	0.103969999	-1.16359997	112	78	220
-0.360390007	0.103929996	-1.16320002	112	78	220
-0.360390007	0.102710001	-1.16330004	112	78	220
-0.362430006	0.102760002	-1.1638	112	78	220
-0.362679988	0.104060002	-1.16460001	112	78	220
-0.364479989	0.10402	-1.16419995	112	78	220
-0.364230007	0.10272	-1.16330004	112	78	220
-0.366270006	0.103979997	-1.16369998	112	78	220
-0.36857	0.104110003	-1.1652	112	78	220
-0.371140003	0.104330003	-1.16760004	112	78	220
-0.37292999	0.104280002	-1.16709995	112	78	220
-0.374729991	0.10424	-1.16659999	112	78	220
-0.377050012	0.105609998	-1.16789997	112	78	220
-0.379110008	0.105659999	-1.16840005	112	78	220
-0.379640013	0.106990002	-1.17019999	112	78	220
-0.379640013	0.108060002	-1.17009997	112	78	220
-0.377840012	0.108110003	-1.17060006	112	78	220
-0.378100008	0.10712	-1.1717	112	78	220
-0.376289994	0.108240001	-1.17209995	112	78	220
-0.374489993	0.108280003	-1.17250001	112	78	220
-0.373970002	0.107040003	-1.17069995	112	78	220
-0.373710006	0.105789997	-1.16989994	112	78	220
-0.371910006	0.105829999	-1.17030001	112	78	220
-0.37165001	0.106899999	-1.16929996	112	78	220
-0.36985001	0.10695	-1.16980004	112	78	220
-0.369590014	0.105700001	-1.16890001	112	78	220
-0.367540002	0.105659999	-1.16840005	112	78	220
-0.368050009	0.106990002	-1.17019999	112	78	220
-0.365990013	0.10695	-1.16970003	112	78	220
-0.363940001	0.106899999	-1.16919994	112	78	220
-0.36214	0.106940001	-1.16970003	112	78	220
-0.362379998	0.108099997	-1.17060006	112	78	220
-0.360830009	0.108230002	-1.17200005	112	78	220
-0.361070007	0.109449998	-1.17279994	112	78	220
-0.362879992	0.109399997	-1.1724	112	78	220
-0.365189999	0.109540001	-1.17379999	112	78	220
-0.365189999	0.108410001	-1.17400002	112	78	220
-0.365440011	0.11084	-1.17470002	112	78	220
-0.363629997	0.110880002	-1.17519999	112	78	220
-0.36206001	0.11101	-1.17659998	112	78	220
-0.360000014	0.110969998	-1.17610002	112	78	220
-0.35819	0.109800003	-1.1767	112	78	220
-0.356370002	0.109849997	-1.17709994	112	78	220
-0.35661	0.111139998	-1.17799997	112	78	220
-0.354799986	0.111189999	-1.17840004	112	78	220
-0.353219986	0.112530001	-1.17970002	112	78	220
-0.350919992	0.112389997	-1.17820001	112	78	220
-0.350690007	0.111089997	-1.17739999	112	78	220
-0.350450009	0.109789997	-1.17649996	112	78	220
-0.348870009	0.109920003	-1.17789996	112	78	220
-0.348399997	0.110950001	-1.17589998	112	78	220
-0.346590012	0.110990003	-1.17630005	112	78	220
-0.346350014	0.109690003	-1.17540002	112	78	220
-0.344770014	0.111029997	-1.1767	112	78	220
-0.344999999	0.112329997	-1.17760003	112	78	220
-0.343190014	0.111160003	-1.17809999	112	78	220
-0.341140002	0.111110002	-1.17760003	112	78	220
-0.340909988	0.112219997	-1.17649996	112	78	220
-0.342729986	0.112180002	-1.17610002	112	78	220
-0.339320004	0.111149997	-1.17799997	112	78	220
-0.337049991	0.111000001	-1.17649996	112	78	220
-0.334789991	0.110859998	-1.17499995	112	78	220
-0.332760006	0.1096	-1.17449999	112	78	220
-0.331169993	0.109729998	-1.17589998	112	78	220
-0.331169993	0.110940002	-1.17579997	112	78	220
-0.329140007	0.110880002	-1.17519999	112	78	220
-0.327320009	0.109719999	-1.17569995	112	78	220
-0.327109993	0.108499996	-1.17490005	112	78	220
-0.327109993	0.107419997	-1.17499995	112	78	220
-0.325080007	0.107369997	-1.17439997	112	78	220
-0.325080007	0.108450003	-1.17429996	112	78	220
-0.322840005	0.1083	-1.17270005	112	78	220
-0.322840005	0.10943	-1.17260003	112	78	220
-0.324440002	0.109300002	-1.17130005	112	78	220
-0.322420001	0.107050002	-1.17089999	112	78	220
-0.322629988	0.105980001	-1.17200005	112	78	220
-0.32464999	0.106030002	-1.17260003	112	78	220
-0.328480005	0.107210003	-1.17260003	112	78	220
-0.330729991	0.108419999	-1.17410004	112	78	220
-0.329140007	0.108549997	-1.17540002	112	78	220
-0.329569995	0.109860003	-1.17729998	112	78	220
-0.327760011	0.111110002	-1.17760003	112	78	220
-0.325940013	0.111139998	-1.17799997	112	78	220
-0.32615	0.112439997	-1.17879999	112	78	220
-0.324550003	0.112580001	-1.18019998	112	78	220
-0.326579988	0.113839999	-1.18060005	112	78	220
-0.32841	0.11259	-1.18040001	112	78	220
-0.330449998	0.11265	-1.18089998	112	78	220
-0.332269996	0.112609997	-1.18050003	112	78	220
-0.334089994	0.112570003	-1.18009996	112	78	220
-0.333869994	0.113679998	-1.17900002	112	78	220
-0.335909992	0.113739997	-1.1796	112	78	220
-0.335689992	0.112439997	-1.17869997	112	78	220
-0.333420008	0.111079998	-1.17729998	112	78	220
-0.334120005	0.109379999	-1.17219996	112	78	220
-0.333900005	0.108170003	-1.17130005	112	78	220
-0.335709989	0.108130001	-1.17089999	112	78	220
-0.33592999	0.109350003	-1.17180002	112	78	220
-0.336160004	0.107239999	-1.17289996	112	78	220
-0.336160004	0.106080003	-1.17299998	112	78	220
-0.33434999	0.106109999	-1.17340004	112	78	220
-0.33434999	0.107280001	-1.17330003	112	78	220
-0.332320005	0.107220002	-1.17279994	112	78	220
-0.332320005	0.1083	-1.17270005	112	78	220
-0.331649989	0.105800003	-1.16999996	112	78	220
-0.329409987	0.106820002	-1.16830003	112	78	220
-0.329189986	0.105570003	-1.16750002	112	78	220
-0.326950014	0.10543	-1.16589999	112	78	220
-0.326950014	0.104189999	-1.16600001	112	78	220
-0.328530014	0.10407	-1.16470003	112	78	220
-0.330320001	0.104029998	-1.16429996	112	78	220
-0.332340002	0.104079999	-1.16480005	112	78	220
-0.334129989	0.104050003	-1.16439998	112	78	220
-0.336149991	0.104089998	-1.16499996	112	78	220
-0.337940007	0.104060002	-1.1645	112	78	220
-0.339729995	0.10402	-1.16410005	112	78	220
-0.341529995	0.103979997	-1.16369998	112	78	220
-0.343549997	0.102810003	-1.16439998	112	78	220
-0.345580012	0.102860004	-1.16489995	112	78	220
-0.347369999	0.104039997	-1.16439998	112	78	220
-0.348919988	0.103909999	-1.16289997	112	78	220
-0.350950003	0.10396	-1.16349995	112	78	220
-0.350950003	0.101530001	-1.16369998	112	78	220
-0.350710005	0.100299999	-1.16279995	112	78	220
-0.35273999	0.101489998	-1.16320002	112	78	220
-0.354530007	0.101450004	-1.16279995	112	78	220
-0.355019987	0.10283	-1.16460001	112	78	220
-0.35323	0.102870002	-1.16509998	112	78	220
-0.353469998	0.104180001	-1.16589999	112	78	220
-0.353709996	0.105509996	-1.16680002	112	78	220
-0.351909995	0.105549999	-1.16719997	112	78	220
-0.352149993	0.106799997	-1.1681	112	78	220
-0.352389991	0.107950002	-1.16900003	112	78	220
-0.354189992	0.10684	-1.16859996	112	78	220
-0.355749995	0.106710002	-1.16719997	112	78	220
-0.355260015	0.105379999	-1.16540003	112	78	220
-0.357059985	0.105339997	-1.16489995	112	78	220
-0.357549995	0.104269996	-1.16700006	112	78	220
-0.355749995	0.104309998	-1.1674	112	78	220
-0.359340012	0.10548	-1.16639996	112	78	220
-0.361140013	0.10543	-1.16589999	112	78	220
-0.363189995	0.10548	-1.16639996	112	78	220
-0.364980012	0.105439998	-1.16600001	112	78	220
-0.365509987	0.102499999	-1.1609	112	78	220
-0.365249991	0.101219997	-1.16009998	112	78	220
-0.363469988	0.101259999	-1.16050005	112	78	220
-0.361680001	0.101300001	-1.16100001	112	78	220
-0.356570005	0.102710001	-1.16320002	112	78	220
-0.352019995	0.100100003	-1.16040003	112	78	220
-0.350230008	0.102480002	-1.16069996	112	78	220
-0.348450005	0.102519996	-1.16110003	112	78	220
-0.348210007	0.101230003	-1.16030002	112	78	220
-0.346190006	0.101190001	-1.15970004	112	78	220
-0.344399989	0.101219997	-1.1602	112	78	220
-0.34285	0.101350002	-1.16159999	112	78	220
-0.341060013	0.101379998	-1.16199994	112	78	220
-0.340600014	0.102420002	-1.15989995	112	78	220
-0.338580012	0.102370001	-1.15939999	112	78	220
-0.338809997	0.10125	-1.16050005	112	78	220
-0.337029994	0.101290002	-1.1609	112	78	220
-0.337260008	0.102580003	-1.16170001	112	78	220
-0.335469991	0.102619998	-1.16219997	112	78	220
-0.333680004	0.102650002	-1.16260004	112	78	220
-0.333229989	0.101269998	-1.16069996	112	78	220
-0.333229989	0.100129999	-1.16079998	112	78	220
-0.331440002	0.100170001	-1.16120005	112	78	220
-0.331220001	0.101230003	-1.1602	112	78	220
-0.331	0.102339998	-1.15910006	112	78	220
-0.329439998	0.101259999	-1.16059995	112	78	220
-0.329659998	0.100199997	-1.16170001	112	78	220
-0.326299995	0.102710001	-1.16320002	112	78	220
-0.324290007	0.103880003	-1.16250002	112	78	220
-0.32407999	0.102569997	-1.16170001	112	78	220
-0.322070003	0.102519996	-1.16110003	112	78	220
-0.321859986	0.101230003	-1.1602	112	78	220
-0.323639989	0.101199999	-1.15980005	112	78	220
-0.325430006	0.101159997	-1.15939999	112	78	220
-0.326770008	0.102159999	-1.15699995	112	78	220
-0.326550007	0.100869998	-1.15610003	112	78	220
-0.326330006	0.0996510014	-1.15530002	112	78	220
-0.326110005	0.0984729975	-1.15439999	112	78	220
-0.327659994	0.0972279981	-1.15310001	112	78	220
-0.325670004	0.0960280001	-1.15260005	112	78	220
-0.325450003	0.0947860032	-1.15170002	112	78	220
-0.323249996	0.0946590006	-1.15020001	112	78	220
-0.321700007	0.095931001	-1.15149999	112	78	220
-0.319709986	0.0958829969	-1.15090001	112	78	220
-0.321049988	0.0945309997	-1.14859998	112	78	220
-0.318850011	0.0944029987	-1.14709997	112	78	220
-0.317090005	0.0955900028	-1.14740002	112	78	220
-0.315329999	0.0956220031	-1.14779997	112	78	220
-0.313360006	0.0944159999	-1.1473	112	78	220
-0.3116	0.0944470018	-1.14760005	112	78	220
-0.30983001	0.0944780037	-1.148	112	78	220
-0.308070004	0.0933450013	-1.14849997	112	78	220
-0.306510001	0.0946189985	-1.14970005	112	78	220
-0.306100011	0.0956140012	-1.14769995	112	78	220
-0.307870001	0.0955839977	-1.1473	112	78	220
-0.305900007	0.093216002	-1.14690006	112	78	220
-0.304340005	0.0944880024	-1.14810002	112	78	220
-0.304540008	0.0957259983	-1.14900005	112	78	220
-0.302579999	0.094517	-1.14849997	112	78	220
-0.300819993	0.0945470035	-1.14880002	112	78	220
-0.298860013	0.0944949985	-1.14820004	112	78	220
-0.296900004	0.0944439992	-1.14760005	112	78	220
-0.296700001	0.0932020023	-1.14670002	112	78	220
-0.294939995	0.0932300016	-1.14709997	112	78	220
-0.295139998	0.0944719985	-1.14789999	112	78	220
-0.293559998	0.0945810005	-1.14929998	112	78	220
-0.291610003	0.0945279971	-1.14859998	112	78	220
-0.289660007	0.0944759995	-1.148	112	78	220
-0.289849997	0.0957140028	-1.14890003	112	78	220
-0.288080007	0.0968900025	-1.14909995	112	78	220
-0.287710011	0.0955779999	-1.14719999	112	78	220
-0.287900001	0.0945030004	-1.14830005	112	78	220
-0.286130011	0.0945300013	-1.14859998	112	78	220
-0.285950005	0.0956059992	-1.14760005	112	78	220
-0.284189999	0.0944759995	-1.148	112	78	220
-0.284550011	0.0957959965	-1.14979994	112	78	220
-0.282790005	0.0958229974	-1.15020001	112	78	220
-0.281019986	0.0958499983	-1.15050006	112	78	220
-0.27906999	0.0957949981	-1.14979994	112	78	220
-0.277480006	0.0970539972	-1.15100002	112	78	220
-0.27978	0.0972749963	-1.15369999	112	78	220
-0.281560004	0.0972480029	-1.15330005	112	78	220
-0.281910002	0.0985440016	-1.1552	112	78	220
-0.282090008	0.0997229964	-1.15610003	112	78	220
-0.283690006	0.0996109992	-1.15480006	112	78	220
-0.285279989	0.0994980037	-1.15349996	112	78	220
-0.287050009	0.099469997	-1.15320003	112	78	220
-0.287420005	0.0974140018	-1.15530002	112	78	220
-0.285829991	0.0975240022	-1.1566	112	78	220
-0.283870012	0.097469002	-1.15600002	112	78	220
-0.284049988	0.098683998	-1.15680003	112	78	220
-0.284229994	0.101000004	-1.15760005	112	78	220
-0.286009997	0.10097	-1.1573	112	78	220
-0.287609994	0.10086	-1.15600002	112	78	220
-0.287970006	0.0987949967	-1.15810001	112	78	220
-0.28975001	0.0987659991	-1.15779996	112	78	220
-0.290120006	0.100029998	-1.15970004	112	78	220
-0.291909993	0.100000001	-1.15929997	112	78	220
-0.293500006	0.0998890027	-1.15799999	112	78	220
-0.29528001	0.101000004	-1.15760005	112	78	220
-0.295659989	0.102370001	-1.15939999	112	78	220
-0.294070005	0.10249	-1.16069996	112	78	220
-0.294070005	0.101279996	-1.1609	112	78	220
-0.292470008	0.101400003	-1.16219997	112	78	220
-0.290679991	0.101429999	-1.16250002	112	78	220
-0.292849988	0.102779999	-1.16400003	112	78	220
-0.293029994	0.104089998	-1.16489995	112	78	220
-0.29501	0.104149997	-1.16550004	112	78	220
-0.296810001	0.104110003	-1.1652	112	78	220
-0.297190011	0.105530001	-1.16700006	112	78	220
-0.29539001	0.105559997	-1.1674	112	78	220
-0.29539001	0.106720001	-1.16729999	112	78	220
-0.29558	0.107879996	-1.1681	112	78	220
-0.293969989	0.108000003	-1.16949999	112	78	220
-0.292349994	0.108120002	-1.17079997	112	78	220
-0.290549994	0.108149998	-1.17110002	112	78	220
-0.288560003	0.108089998	-1.17050004	112	78	220
-0.288379997	0.106930003	-1.16960001	112	78	220
-0.290179998	0.106899999	-1.16929996	112	78	220
-0.291799992	0.10678	-1.16799998	112	78	220
-0.293590009	0.106749997	-1.16760004	112	78	220
-0.293779999	0.105679996	-1.16869998	112	78	220
-0.291420013	0.105449997	-1.16610003	112	78	220
-0.291420013	0.104209997	-1.16620004	112	78	220
-0.291610003	0.103069998	-1.16729999	112	78	220
-0.289810002	0.103100002	-1.16760004	112	78	220
-0.28926	0.104060002	-1.16460001	112	78	220
-0.28926	0.105300002	-1.1645	112	78	220
-0.287290007	0.105240002	-1.1638	112	78	220
-0.287099987	0.103919998	-1.16299999	112	78	220
-0.287290007	0.102779999	-1.16410005	112	78	220
-0.28531	0.10272	-1.16340005	112	78	220
-0.285129994	0.103859998	-1.16229999	112	78	220
-0.283520013	0.103969999	-1.16359997	112	78	220
-0.283520013	0.102750003	-1.16369998	112	78	220
-0.281910002	0.104089998	-1.16489995	112	78	220
-0.282090008	0.102949999	-1.16600001	112	78	220
-0.280110002	0.104120001	-1.1652	112	78	220
-0.280110002	0.105360001	-1.16509998	112	78	220
-0.278149992	0.105300002	-1.1645	112	78	220
-0.279940009	0.102810003	-1.16439998	112	78	220
-0.279410005	0.101340003	-1.16149998	112	78	220
-0.281199992	0.101319999	-1.16120005	112	78	220
-0.281379998	0.100259997	-1.16229999	112	78	220
-0.282810003	0.101199999	-1.15989995	112	78	220
-0.278890014	0.0999469981	-1.15869999	112	78	220
-0.278710008	0.0987659991	-1.15779996	112	78	220
-0.280310005	0.0986550003	-1.15649998	112	78	220
-0.286190003	0.0988230035	-1.15849996	112	78	220
-0.291159987	0.0985710025	-1.15550005	112	78	220
-0.292750001	0.0984579995	-1.15419996	112	78	220
-0.29471001	0.0985120013	-1.15480006	112	78	220
-0.29471001	0.0996069983	-1.15470004	112	78	220
-0.296869993	0.0997459963	-1.15639997	112	78	220
-0.296869993	0.098650001	-1.15639997	112	78	220
-0.298449993	0.098536998	-1.15509999	112	78	220
-0.300229996	0.098507002	-1.15480006	112	78	220
-0.298839986	0.0997999981	-1.15699995	112	78	220
-0.297639996	0.101219997	-1.1602	112	78	220
-0.299809992	0.101360001	-1.16180003	112	78	220
-0.301400006	0.100110002	-1.16050005	112	78	220
-0.30298999	0.0999910012	-1.15919995	112	78	220
-0.304969996	0.100040004	-1.15980005	112	78	220
-0.305370003	0.101360001	-1.16170001	112	78	220
-0.30517	0.102480002	-1.16059995	112	78	220
-0.303579986	0.102590002	-1.16190004	112	78	220
-0.303579986	0.101389997	-1.16199994	112	78	220
-0.301990002	0.101499997	-1.16340005	112	78	220
-0.300590008	0.102920003	-1.16559994	112	78	220
-0.302579999	0.102969997	-1.16620004	112	78	220
-0.302579999	0.104189999	-1.16610003	112	78	220
-0.304369986	0.105400003	-1.16559994	112	78	220
-0.306169987	0.10537	-1.1652	112	78	220
-0.305970013	0.104039997	-1.16439998	112	78	220
-0.303979993	0.103990003	-1.1638	112	78	220
-0.30776	0.102789998	-1.16410005	112	78	220
-0.309549987	0.102760002	-1.1638	112	78	220
-0.309549987	0.101549998	-1.16390002	112	78	220
-0.311340004	0.10272	-1.16340005	112	78	220
-0.312929988	0.102600001	-1.16199994	112	78	220
-0.312720001	0.10131	-1.16120005	112	78	220
-0.310930014	0.101350002	-1.16149998	112	78	220
-0.310530007	0.100029998	-1.15970004	112	78	220
-0.30873999	0.10007	-1.16009998	112	78	220
-0.306959987	0.101240002	-1.16030002	112	78	220
-0.306149989	0.098664999	-1.1566	112	78	220
-0.305949986	0.0996759981	-1.15559995	112	78	220
-0.307520002	0.0984669998	-1.15429997	112	78	220
-0.309300005	0.098435998	-1.15390003	112	78	220
-0.306919992	0.0970909968	-1.15149999	112	78	220
-0.305150002	0.0971210003	-1.15180004	112	78	220
-0.303180009	0.0970690027	-1.15120006	112	78	220
-0.303380013	0.0960000008	-1.1523	112	78	220
-0.30140999	0.0959480032	-1.15170002	112	78	220
-0.299439996	0.0958959982	-1.15110004	112	78	220
-0.29964	0.0971290022	-1.15190005	112	78	220
-0.29787001	0.0971589983	-1.1523	112	78	220
-0.29629001	0.0972710028	-1.15359998	112	78	220
-0.294330001	0.0960649997	-1.15310001	112	78	220
-0.292369992	0.0960120037	-1.15240002	112	78	220
-0.293949991	0.0970520005	-1.15100002	112	78	220
-0.295520008	0.095792003	-1.14979994	112	78	220
-0.297479987	0.0958440006	-1.15040004	112	78	220
-0.301010013	0.0969349965	-1.14960003	112	78	220
-0.301209986	0.0981429964	-1.15050006	112	78	220
-0.303779989	0.0984459966	-1.15409994	112	78	220
-0.308479995	0.0969770029	-1.15009999	112	78	220
-0.310449988	0.0970290005	-1.15069997	112	78	220
-0.310449988	0.0958779976	-1.15079999	112	78	220
-0.312220007	0.0958470032	-1.15050006	112	78	220
-0.312220007	0.0969970003	-1.15040004	112	78	220
-0.313989997	0.096965	-1.14999998	112	78	220
-0.313989997	0.0958160013	-1.15009999	112	78	220
-0.31595999	0.0970159993	-1.15059996	112	78	220
-0.312640011	0.098288998	-1.15219998	112	78	220
-0.310250014	0.0980719998	-1.14970005	112	78	220
-0.308679998	0.0947490036	-1.15129995	112	78	220
-0.313470006	0.0997169986	-1.15600002	112	78	220
-0.315239996	0.0985890031	-1.15569997	112	78	220
-0.318580002	0.0973120034	-1.15409994	112	78	220
-0.320789993	0.0974429995	-1.15569997	112	78	220
-0.320789993	0.0985739976	-1.15559995	112	78	220
-0.322560012	0.098540999	-1.1552	112	78	220
-0.322349995	0.0995509997	-1.15409994	112	78	220
-0.323900014	0.0994340032	-1.15269995	112	78	220
-0.323680013	0.0982580036	-1.15190005	112	78	220
-0.323900014	0.0972130001	-1.15289998	112	78	220
-0.322129995	0.0972459987	-1.15330005	112	78	220
-0.324339986	0.0962229967	-1.15499997	112	78	220
-0.328550011	0.098687999	-1.15690005	112	78	220
-0.330330014	0.0986530036	-1.15649998	112	78	220
-0.3301	0.0974399969	-1.15559995	112	78	220
-0.332109988	0.0974870026	-1.15620005	112	78	220
-0.332329988	0.0987019986	-1.15709996	112	78	220
-0.333880007	0.0985839963	-1.15569997	112	78	220
-0.33634001	0.0998940021	-1.15810001	112	78	220
-0.338120013	0.0998580009	-1.15769994	112	78	220
-0.340140015	0.0999049991	-1.15820003	112	78	220
-0.342379987	0.100040004	-1.15970004	112	78	220
-0.343459994	0.0997480005	-1.15639997	112	78	220
-0.343230009	0.0985699967	-1.15550005	112	78	220
-0.342990011	0.0973569974	-1.15460002	112	78	220
-0.344760001	0.0973210037	-1.15419996	112	78	220
-0.344999999	0.0996280015	-1.15499997	112	78	220
-0.345470011	0.0986979976	-1.15699995	112	78	220
-0.347250015	0.098660998	-1.1566	112	78	220
-0.347250015	0.0997570008	-1.15649998	112	78	220
-0.34878999	0.0985419974	-1.1552	112	78	220
-0.350080013	0.0983389989	-1.15279996	112	78	220
-0.352100015	0.0983840004	-1.15330005	112	78	220
-0.352340013	0.09956	-1.15419996	112	78	220
-0.353870004	0.0994379967	-1.15279996	112	78	220
-0.353870004	0.0983460024	-1.15289998	112	78	220
-0.353870004	0.0972179994	-1.153	112	78	220
-0.353619993	0.0959850028	-1.15209997	112	78	220
-0.351610005	0.0959409997	-1.1516	112	78	220
-0.355150014	0.0958670005	-1.15069997	112	78	220
-0.354900002	0.0946279988	-1.14979994	112	78	220
-0.354900002	0.0969360024	-1.14960003	112	78	220
-0.356409997	0.0968160033	-1.14820004	112	78	220
-0.356409997	0.0979399979	-1.14810002	112	78	220
-0.358179986	0.0967779979	-1.14779997	112	78	220
-0.35868001	0.095792003	-1.14979994	112	78	220
-0.358429998	0.0945539996	-1.14890003	112	78	220
-0.35690999	0.0958290026	-1.15020001	112	78	220
-0.357160002	0.094750002	-1.15129995	112	78	220
-0.355390012	0.0982249975	-1.15149999	112	78	220
-0.355890006	0.0994829983	-1.15330005	112	78	220
-0.359679997	0.0983949974	-1.15349996	112	78	220
-0.361200005	0.097145997	-1.15209997	112	78	220
-0.360439986	0.0957539976	-1.14929998	112	78	220
-0.362210006	0.0957150012	-1.14890003	112	78	220
-0.363970011	0.0956770033	-1.14839995	112	78	220
-0.366250008	0.0957980007	-1.14989996	112	78	220
-0.366510004	0.0970290005	-1.15069997	112	78	220
-0.36827001	0.0969889984	-1.15030003	112	78	220
-0.367760003	0.095679	-1.14839995	112	78	220
-0.370299995	0.0958800018	-1.15090001	112	78	220
-0.37233001	0.0959210023	-1.15129995	112	78	220
-0.373569995	0.0957200006	-1.14890003	112	78	220
-0.373569995	0.0945629999	-1.14900005	112	78	220
-0.371280015	0.0944439992	-1.14760005	112	78	220
-0.377359986	0.0945620015	-1.14900005	112	78	220
-0.377359986	0.0933979973	-1.14909995	112	78	220
-0.377099991	0.0967869982	-1.14789999	112	78	220
-0.382510006	0.0972710028	-1.15359998	112	78	220
-0.381009996	0.0985239968	-1.15499997	112	78	220
-0.381819993	0.0998660028	-1.15779996	112	78	220
-0.383599997	0.099822998	-1.1573	112	78	220
-0.383599997	0.0987270027	-1.1573	112	78	220
-0.385650009	0.0987659991	-1.15779996	112	78	220
-0.38538	0.0997800007	-1.15680003	112	78	220
-0.38538	0.100919999	-1.15670002	112	78	220
-0.383599997	0.100960001	-1.15719998	112	78	220
-0.380299985	0.0999919996	-1.15919995	112	78	220
-0.378259987	0.099950999	-1.15869999	112	78	220
-0.377990007	0.101010002	-1.15769994	112	78	220
-0.376210004	0.0999099985	-1.15830004	112	78	220
-0.374170005	0.0998689979	-1.15779996	112	78	220
-0.374170005	0.0987719968	-1.15789998	112	78	220
-0.372379988	0.0988129973	-1.15840006	112	78	220
-0.372379988	0.0999109969	-1.15830004	112	78	220
-0.374430001	0.101089999	-1.15859997	112	78	220
-0.37568	0.100879997	-1.15620005	112	78	220
-0.37568	0.0986490026	-1.15639997	112	78	220
-0.373169988	0.101300001	-1.16110003	112	78	220
-0.371639997	0.101429999	-1.16250002	112	78	220
-0.371899992	0.10272	-1.16330004	112	78	220
-0.373690009	0.102679998	-1.16289997	112	78	220
-0.375479996	0.102629997	-1.16240001	112	78	220
-0.375739992	0.103940003	-1.16320002	112	78	220
-0.377530009	0.1039	-1.16279995	112	78	220
-0.37726	0.102590002	-1.16190004	112	78	220
-0.379579991	0.103940003	-1.16320002	112	78	220
-0.380109996	0.10289	-1.16530001	112	78	220
-0.381909996	0.102839999	-1.16480005	112	78	220
-0.381909996	0.10407	-1.16470003	112	78	220
-0.383430004	0.103940003	-1.16320002	112	78	220
-0.383430004	0.10272	-1.16330004	112	78	220
-0.383159995	0.10142	-1.16240001	112	78	220
-0.381639987	0.101549998	-1.16390002	112	78	220
-0.384950012	0.102590002	-1.16180003	112	78	220
-0.384950012	0.103809997	-1.16170001	112	78	220
-0.387010008	0.10385	-1.16219997	112	78	220
-0.386739999	0.102540001	-1.16129994	112	78	220
-0.388799995	0.103799999	-1.16170001	112	78	220
-0.389070004	0.102669999	-1.16279995	112	78	220
-0.389070004	0.101460002	-1.16289997	112	78	220
-0.390309989	0.10125	-1.16040003	112	78	220
-0.390029997	0.100019999	-1.15960002	112	78	220
-0.391820014	0.0988809988	-1.15919995	112	78	220
-0.393599987	0.0988370031	-1.15859997	112	78	220
-0.393319994	0.0976229981	-1.15779996	112	78	220
-0.395660013	0.097740002	-1.15919995	112	78	220
-0.396880001	0.096378997	-1.15680003	112	78	220
-0.396310002	0.0973739997	-1.15480006	112	78	220
-0.396310002	0.0985039994	-1.15470004	112	78	220
-0.396310002	0.099597998	-1.15460002	112	78	220
-0.394540012	0.0985490009	-1.15530002	112	78	220
-0.392760009	0.099688001	-1.15569997	112	78	220
-0.393040001	0.100910001	-1.15649998	112	78	220
-0.394540012	0.100780003	-1.15509999	112	78	220
-0.393979996	0.0994779989	-1.15330005	112	78	220
-0.390430003	0.0995670035	-1.15429997	112	78	220
-0.389479995	0.0987619981	-1.15779996	112	78	220
-0.387430012	0.0987230018	-1.1573	112	78	220
-0.387699991	0.0999019966	-1.15820003	112	78	220
-0.385100007	0.0974709988	-1.15600002	112	78	220
-0.386059999	0.0971859992	-1.15260005	112	78	220
-0.385780007	0.0959540009	-1.15170002	112	78	220
-0.386059999	0.0948730037	-1.15279996	112	78	220
-0.384009987	0.0959959999	-1.15219998	112	78	220
-0.387279987	0.0969820023	-1.15020001	112	78	220
-0.389600009	0.0971010029	-1.1516	112	78	220
-0.390810013	0.0957479998	-1.14929998	112	78	220
-0.392569989	0.0945480019	-1.14890003	112	78	220
-0.393420011	0.0959440023	-1.1516	112	78	220
-0.395179987	0.0947410017	-1.15120006	112	78	220
-0.396950006	0.0946990028	-1.15069997	112	78	220
-0.396670014	0.0957780033	-1.14960003	112	78	220
-0.396950006	0.0970079973	-1.15050006	112	78	220
-0.398719996	0.0969640017	-1.14999998	112	78	220
-0.398149997	0.0956550017	-1.14820004	112	78	220
-0.398149997	0.094498001	-1.14830005	112	78	220
-0.397859991	0.0932570025	-1.14740002	112	78	220
-0.396100014	0.0932999998	-1.14789999	112	78	220
-0.393489987	0.0931089967	-1.14559996	112	78	220
-0.392639995	0.0906950012	-1.14289999	112	78	220
-0.394400001	0.0906540006	-1.14240003	112	78	220
-0.396429986	0.0906879976	-1.14279997	112	78	220
-0.396719992	0.0918390006	-1.1437	112	78	220
-0.398470014	0.0917970017	-1.14310002	112	78	220
-0.398180008	0.0906469971	-1.14230001	112	78	220
-0.399940014	0.0906049982	-1.14170003	112	78	220
-0.401690006	0.0916360021	-1.14110005	112	78	220
-0.401109993	0.0904119983	-1.13929999	112	78	220
-0.400510013	0.0918309987	-1.14359999	112	78	220
-0.40079999	0.093016997	-1.1444	112	78	220
-0.399049997	0.0930600017	-1.14499998	112	78	220
-0.399910003	0.0944549963	-1.14769995	112	78	220
-0.400200009	0.0956910029	-1.14859998	112	78	220
-0.401670009	0.094411999	-1.14719999	112	78	220
-0.403140008	0.0942889974	-1.14569998	112	78	220
-0.402850002	0.0930510014	-1.14489996	112	78	220
-0.404309988	0.0918219984	-1.14349997	112	78	220
-0.40636	0.0918560028	-1.14390004	112	78	220
-0.406949997	0.0931190029	-1.14569998	112	78	220
-0.406949997	0.0942799971	-1.14559996	112	78	220
-0.406949997	0.0954340026	-1.14549994	112	78	220
-0.405189991	0.0954789966	-1.14600003	112	78	220
-0.405189991	0.0943240002	-1.14610004	112	78	220
-0.406069994	0.0933950022	-1.14909995	112	78	220
-0.404300004	0.0957610011	-1.1494	112	78	220
-0.402539998	0.0958060026	-1.14999998	112	78	220
-0.401059985	0.0970799997	-1.15139997	112	78	220
-0.405180007	0.0971509963	-1.15219998	112	78	220
-0.406949997	0.0971060023	-1.15170002	112	78	220
-0.408419997	0.0969799981	-1.15020001	112	78	220
-0.408109993	0.0985580012	-1.15540004	112	78	220
-0.406919986	0.0987669975	-1.15779996	112	78	220
-0.406919986	0.0998639986	-1.15769994	112	78	220
-0.407209992	0.101089999	-1.15859997	112	78	220
-0.409280002	0.101120003	-1.15900004	112	78	220
-0.408989996	0.0998999998	-1.15810001	112	78	220
-0.405140013	0.0988129973	-1.15840006	112	78	220
-0.403070003	0.0987770036	-1.15789998	112	78	220
-0.403360009	0.0999559984	-1.15880001	112	78	220
-0.403360009	0.101099998	-1.15869999	112	78	220
-0.401580006	0.10114	-1.15919995	112	78	220
-0.401289999	0.0999199972	-1.15840006	112	78	220
-0.399509996	0.0999649987	-1.15890002	112	78	220
-0.399509996	0.101109996	-1.15880001	112	78	220
-0.397729993	0.101149999	-1.15929997	112	78	220
-0.395660013	0.102320001	-1.15880001	112	78	220
-0.393599987	0.102279998	-1.15830004	112	78	220
-0.392089993	0.102410004	-1.15980005	112	78	220
-0.391820014	0.101120003	-1.15900004	112	78	220
-0.392369986	0.103710003	-1.16069996	112	78	220
-0.394719988	0.103840001	-1.16209996	112	78	220
-0.396219999	0.103699997	-1.16059995	112	78	220
-0.398849994	0.103909999	-1.16289997	112	78	220
-0.400359988	0.102559999	-1.16159999	112	78	220
-0.402720004	0.102679998	-1.16289997	112	78	220
-0.404509991	0.102640003	-1.16240001	112	78	220
-0.406870008	0.102760002	-1.1638	112	78	220
-0.409249991	0.102880001	-1.16509998	112	78	220
-0.411040008	0.10283	-1.16460001	112	78	220
-0.409830004	0.104269996	-1.16690004	112	78	220
-0.41012001	0.105599999	-1.16779995	112	78	220
-0.40832001	0.10565	-1.16830003	112	78	220
-0.406809986	0.105789997	-1.16980004	112	78	220
-0.406809986	0.106940001	-1.16970003	112	78	220
-0.404720008	0.105750002	-1.16939998	112	78	220
-0.404150009	0.106729999	-1.1674	112	78	220
-0.402350008	0.10678	-1.16789997	112	78	220
-0.402350008	0.105619997	-1.16799998	112	78	220
-0.403860003	0.104249999	-1.16670001	112	78	220
-0.405660003	0.104199998	-1.16610003	112	78	220
-0.407739997	0.104230002	-1.16649997	112	78	220
-0.411619991	0.105470002	-1.16630006	112	78	220
-0.412209988	0.106799997	-1.1681	112	78	220
-0.412209988	0.104390003	-1.16830003	112	78	220
-0.41099	0.107019998	-1.17050004	112	78	220
-0.409189999	0.107069999	-1.17110002	112	78	220
-0.409759998	0.108319998	-1.17289996	112	78	220
-0.411570013	0.108269997	-1.17229998	112	78	220
-0.413379997	0.108220004	-1.17180002	112	78	220
-0.41396001	0.109520003	-1.17359996	112	78	220
-0.412149996	0.109569997	-1.17410004	112	78	220
-0.410629988	0.10971	-1.17560005	112	78	220
-0.408529997	0.109669998	-1.17519999	112	78	220
-0.40823999	0.108450003	-1.17439997	112	78	220
-0.406430006	0.109630004	-1.17480004	112	78	220
-0.406150013	0.110749997	-1.17379999	112	78	220
-0.407959998	0.110699996	-1.17320001	112	78	220
-0.405580014	0.108240001	-1.17209995	112	78	220
-0.404619992	0.109679997	-1.17540002	112	78	220
-0.40309	0.109820001	-1.17680001	112	78	220
-0.400709987	0.109690003	-1.17550004	112	78	220
-0.398339987	0.109559998	-1.17410004	112	78	220
-0.398059994	0.108350001	-1.17320001	112	78	220
-0.399589986	0.108209997	-1.1717	112	78	220
-0.401109993	0.108070001	-1.17030001	112	78	220
-0.4014	0.107089996	-1.17130005	112	78	220
-0.400150001	0.107309997	-1.17379999	112	78	220
-0.396809995	0.109700002	-1.17560005	112	78	220
-0.394719988	0.10966	-1.17509997	112	78	220
-0.392630011	0.109619997	-1.17470002	112	78	220
-0.392360002	0.108400002	-1.17379999	112	78	220
-0.393889993	0.108269997	-1.1724	112	78	220
-0.395700008	0.108220004	-1.17180002	112	78	220
-0.396950006	0.106919996	-1.16949999	112	78	220
-0.396389991	0.105590001	-1.16770005	112	78	220
-0.398189992	0.105549999	-1.16719997	112	78	220
-0.399980009	0.105499998	-1.16659999	112	78	220
-0.399699986	0.102949999	-1.16589999	112	78	220
-0.40121001	0.104039997	-1.16429996	112	78	220
-0.402630001	0.107940003	-1.1688	112	78	220
-0.39458999	0.106799997	-1.1681	112	78	220
-0.39458999	0.105640002	-1.16820002	112	78	220
-0.39278999	0.105690002	-1.16869998	112	78	220
-0.393070012	0.106930003	-1.16960001	112	78	220
-0.39072001	0.106799997	-1.16820002	112	78	220
-0.388370007	0.10667	-1.16680002	112	78	220
-0.386299998	0.106629997	-1.16630006	112	78	220
-0.386029989	0.105389997	-1.16550004	112	78	220
-0.384240001	0.105439998	-1.16600001	112	78	220
-0.38271001	0.105570003	-1.1674	112	78	220
-0.381440014	0.105789997	-1.16980004	112	78	220
-0.381969988	0.10712	-1.17159998	112	78	220
-0.383509994	0.106990002	-1.17019999	112	78	220
-0.385580003	0.107029997	-1.17069995	112	78	220
-0.387930006	0.108230002	-1.17200005	112	78	220
-0.389730006	0.108180001	-1.17149997	112	78	220
-0.388469994	0.109530002	-1.17379999	112	78	220
-0.386390001	0.108369999	-1.17340004	112	78	220
-0.384849995	0.108499996	-1.17490005	112	78	220
-0.383300006	0.10864	-1.17639995	112	78	220
-0.383569986	0.111060001	-1.17709994	112	78	220
-0.38538	0.11101	-1.17659998	112	78	220
-0.385650009	0.11231	-1.17739999	112	78	220
-0.387730002	0.111149997	-1.17799997	112	78	220
-0.388000011	0.112450004	-1.1789	112	78	220
-0.389820009	0.112400003	-1.17830002	112	78	220
-0.389820009	0.111189999	-1.17850006	112	78	220
-0.391909987	0.111230001	-1.1789	112	78	220
-0.392179996	0.112530001	-1.17980003	112	78	220
-0.390630007	0.113880001	-1.18110001	112	78	220
-0.38854	0.113839999	-1.18069994	112	78	220
-0.386990011	0.113980003	-1.18210006	112	78	220
-0.385430008	0.114119999	-1.18359995	112	78	220
-0.385690004	0.115440004	-1.18439996	112	78	220
-0.387519985	0.115390003	-1.1839	112	78	220
-0.389349997	0.115340002	-1.18340003	112	78	220
-0.391449988	0.115379997	-1.1839	112	78	220
-0.393550009	0.115429997	-1.18429995	112	78	220
-0.393000007	0.114019997	-1.1825	112	78	220
-0.394829988	0.113969997	-1.18200004	112	78	220
-0.396369994	0.11383	-1.18050003	112	78	220
-0.398750007	0.113959998	-1.18190002	112	78	220
-0.398200005	0.111359999	-1.18019998	112	78	220
-0.39974001	0.111220002	-1.17869997	112	78	220
-0.39763999	0.112389997	-1.17820001	112	78	220
-0.398900002	0.112149999	-1.17579997	112	78	220
-0.39526999	0.11225	-1.17680001	112	78	220
-0.39526999	0.111050002	-1.17690003	112	78	220
-0.393180013	0.111000001	-1.17649996	112	78	220
-0.393460006	0.112300001	-1.17729998	112	78	220
-0.390819997	0.109669998	-1.17519999	112	78	220
-0.387199998	0.109760001	-1.17620003	112	78	220
-0.385919988	0.109990001	-1.17859995	112	78	220
-0.38409999	0.110030003	-1.17910004	112	78	220
-0.382019997	0.109990001	-1.17869997	112	78	220
-0.382019997	0.111199997	-1.17850006	112	78	220
-0.382019997	0.112410001	-1.17840004	112	78	220
-0.380459994	0.112549998	-1.17990005	112	78	220
-0.380199999	0.111249998	-1.17900002	112	78	220
-0.378120005	0.112410001	-1.17850006	112	78	220
-0.37786001	0.111110002	-1.17760003	112	78	220
-0.377600014	0.109810002	-1.17680001	112	78	220
-0.379409999	0.10977	-1.17630005	112	78	220
-0.376040012	0.109949999	-1.17820001	112	78	220
-0.375779986	0.11107	-1.17709994	112	78	220
-0.373710006	0.111019999	-1.1767	112	78	220
-0.374220014	0.112410001	-1.17850006	112	78	220
-0.372150004	0.112360001	-1.17799997	112	78	220
-0.369569987	0.112130001	-1.17560005	112	78	220
-0.367749989	0.112180002	-1.176	112	78	220
-0.367249995	0.110789999	-1.17420006	112	78	220
-0.367500007	0.109679997	-1.1753	112	78	220
-0.367500007	0.108549997	-1.17540002	112	78	220
-0.36906001	0.108419999	-1.17400002	112	78	220
-0.36906001	0.109540001	-1.17390001	112	78	220
-0.368809998	0.110660002	-1.17279994	112	78	220
-0.37112999	0.110789999	-1.17420006	112	78	220
-0.37112999	0.109590001	-1.17439997	112	78	220
-0.373189986	0.109630004	-1.17480004	112	78	220
-0.372159988	0.108149998	-1.17110002	112	78	220
-0.370359987	0.108199999	-1.17159998	112	78	220
-0.375510007	0.106899999	-1.16929996	112	78	220
-0.375510007	0.105750002	-1.16939998	112	78	220
-0.366439998	0.112410001	-1.17840004	112	78	220
-0.36412999	0.112269998	-1.17700005	112	78	220
-0.362800002	0.112499997	-1.17939997	112	78	220
-0.361229986	0.113839999	-1.18069994	112	78	220
-0.359649986	0.113980003	-1.18210006	112	78	220
-0.359160006	0.112580001	-1.1803	112	78	220
-0.357340008	0.112630002	-1.18069994	112	78	220
-0.35552001	0.112669997	-1.18120003	112	78	220
-0.353929996	0.114019997	-1.1825	112	78	220
-0.352109998	0.11406	-1.18289995	112	78	220
-0.350520015	0.114200003	-1.18429995	112	78	220
-0.350749999	0.115510002	-1.18519998	112	78	220
-0.350989997	0.116839997	-1.18599999	112	78	220
-0.349150002	0.11688	-1.18649995	112	78	220
-0.348919988	0.115549996	-1.18560004	112	78	220
-0.348690003	0.114239998	-1.18480003	112	78	220
-0.347090006	0.115599997	-1.18610001	112	78	220
-0.345259994	0.11564	-1.18649995	112	78	220
-0.345490009	0.116970003	-1.18729997	112	78	220
-0.343650013	0.117009997	-1.18780005	112	78	220
-0.341589987	0.116959997	-1.18719995	112	78	220
-0.341820002	0.118239999	-1.18809998	112	78	220
-0.339749992	0.116999999	-1.18770003	112	78	220
-0.339529991	0.115670003	-1.1868	112	78	220
-0.337700009	0.115709998	-1.18719995	112	78	220
-0.338140011	0.117129996	-1.18900001	112	78	220
-0.335860014	0.118170001	-1.18739998	112	78	220
-0.335640013	0.116889998	-1.18659997	112	78	220
-0.334030002	0.117020003	-1.18789995	112	78	220
-0.334030002	0.118210003	-1.18780005	112	78	220
-0.332410008	0.118349999	-1.18920004	112	78	220
-0.330570012	0.118390001	-1.18959999	112	78	220
-0.328729987	0.119580001	-1.18990004	112	78	220
-0.326889992	0.119620003	-1.19029999	112	78	220
-0.325049996	0.11851	-1.19079995	112	78	220
-0.324840009	0.117219999	-1.19000006	112	78	220
-0.323000014	0.117260002	-1.1904	112	78	220
-0.321159989	0.118490003	-1.19060004	112	78	220
-0.320749998	0.117109999	-1.18879998	112	78	220
-0.318910003	0.118340001	-1.18910003	112	78	220
-0.316870004	0.118280001	-1.18850005	112	78	220
-0.315230012	0.118409999	-1.18980002	112	78	220
-0.31358999	0.118550003	-1.19120002	112	78	220
-0.31400001	0.119889997	-1.19299996	112	78	220
-0.314200014	0.121179998	-1.19389999	112	78	220
-0.312150002	0.121119998	-1.19330001	112	78	220
-0.311549991	0.11964	-1.19050002	112	78	220
-0.309709996	0.119670004	-1.19079995	112	78	220
-0.307669997	0.118469998	-1.19029999	112	78	220
-0.307480007	0.117179997	-1.18949997	112	78	220
-0.305640012	0.117210001	-1.18980002	112	78	220
-0.303609997	0.117150001	-1.18920004	112	78	220
-0.303799987	0.118440002	-1.19009995	112	78	220
-0.303990006	0.119690001	-1.19099998	112	78	220
-0.302150011	0.119719997	-1.19130003	112	78	220
-0.300309986	0.119759999	-1.19169998	112	78	220
-0.29846999	0.119790003	-1.19200003	112	78	220
-0.298280001	0.120889999	-1.19089997	112	78	220
-0.296620011	0.119829997	-1.19239998	112	78	220
-0.294779986	0.119860001	-1.19270003	112	78	220
-0.293119997	0.119999997	-1.19400001	112	78	220
-0.291269988	0.120030001	-1.19439995	112	78	220
-0.29163	0.121420003	-1.19620001	112	78	220
-0.291810006	0.122780003	-1.19710004	112	78	220
-0.290140003	0.122919999	-1.19840002	112	78	220
-0.28828001	0.122950003	-1.19869995	112	78	220
-0.288639992	0.124339998	-1.20050001	112	78	220
-0.290679991	0.124410003	-1.20120001	112	78	220
-0.292540014	0.124370001	-1.20079994	112	78	220
-0.294209987	0.124240004	-1.19949996	112	78	220
-0.295700014	0.123999998	-1.19719994	112	78	220
-0.297740012	0.124059997	-1.19790006	112	78	220
-0.299400002	0.12274	-1.19669998	112	78	220
-0.301440001	0.1228	-1.19729996	112	78	220
-0.303299993	0.122769997	-1.19690001	112	78	220
-0.303299993	0.121509999	-1.19710004	112	78	220
